ply
format ascii 1.0
element vertex 714
property float x
property float y
property float z
property uchar red
property uchar green
property uchar blue
end_header
-0.47571107745170593 1.4876164197921753 3.9804112911224365 47 45 49
-0.4630560576915741 0.23098202049732208 3.8814003467559814 126 128 150
-0.473228394985199 1.426232933998108 3.9846904277801514 17 14 17
-0.45968952775001526 -0.5902841687202454 3.824000835418701 41 42 51
-0.45968952775001526 -0.5902841687202454 3.824000835418701 41 42 51
-0.4344691038131714 -1.698843240737915 3.694918155670166 31 29 34
-0.4344691038131714 -1.698843240737915 3.694918155670166 31 29 34
-0.4344691038131714 -1.698843240737915 3.694918155670166 31 29 34
-0.4356645345687866 -1.503617286682129 3.685023546218872 123 122 122
-0.46616852283477783 0.6673250794410706 3.9514501094818115 4 4 7
-0.43310385942459106 -1.5572147369384766 3.7209084033966064 114 110 110
-0.44485989212989807 -0.9019414186477661 3.787691593170166 47 49 59
-0.43614497780799866 -0.4796530604362488 3.8491721153259277 101 102 119
-0.4506385028362274 0.3083573877811432 3.9180550575256348 150 156 182
-0.4222516417503357 -1.1544420719146729 3.7321126461029053 52 54 76
-0.46366405487060547 0.5486168265342712 3.927424669265747 50 48 57
-0.4489037096500397 0.6999098658561707 3.963331460952759 97 103 109
-0.4407234191894531 0.7763307094573975 3.9843783378601074 76 78 94
-0.431850403547287 0.40239280462265015 3.9223134517669678 98 98 102
-0.42832672595977783 -0.22956493496894836 3.8868377208709717 93 92 103
-0.42303702235221863 -0.40727055072784424 3.8478574752807617 114 117 127
-0.42769038677215576 -0.25870612263679504 3.8906290531158447 132 132 141
-0.41488417983055115 -1.1859536170959473 3.7760086059570312 91 92 114
-0.41488417983055115 -1.1859536170959473 3.7760086059570312 91 92 114
-0.4176638126373291 -0.8530771732330322 3.8065829277038574 81 84 98
-0.4035736322402954 -1.4721318483352661 3.695068597793579 98 100 100
-0.4219350814819336 -0.0909624770283699 3.8907949924468994 131 133 143
-0.40936049818992615 -1.3187761306762695 3.7864367961883545 98 98 101
-0.40470486879348755 -1.3626244068145752 3.748051643371582 90 90 102
-0.41457509994506836 -0.46122732758522034 3.8482537269592285 108 110 126
-0.4084400236606598 -1.0350388288497925 3.809018850326538 95 98 115
-0.4012939929962158 -1.3279191255569458 3.775212049484253 113 113 116
-0.4209362268447876 -0.11053919792175293 3.9236180782318115 47 47 58
-0.4052748382091522 -0.5029280781745911 3.875784158706665 106 108 123
-0.4052748382091522 -0.5029280781745911 3.875784158706665 106 108 123
-0.3914322853088379 -1.6417349576950073 3.746720552444458 76 74 77
-0.387851744890213 -1.2146748304367065 3.7505598068237305 96 97 107
-0.41185232996940613 0.8186036944389343 4.0352783203125 31 25 27
-0.3912411034107208 -1.0260318517684937 3.8163034915924072 91 92 110
-0.4023905396461487 -0.06879826635122299 3.933976888656616 91 94 118
-0.393251895904541 -0.5126907229423523 3.8694064617156982 110 112 126
-0.39082497358322144 -0.36794182658195496 3.890571355819702 87 87 105
-0.3924098014831543 -0.11745371669530869 3.936532497406006 39 38 49
-0.38249099254608154 -1.1590783596038818 3.839522123336792 87 89 110
-0.37010955810546875 -1.712169885635376 3.7243950366973877 72 74 78
-0.4035266041755676 1.119521141052246 4.076993465423584 49 44 48
-0.37341275811195374 -1.6229504346847534 3.785118818283081 86 84 88
-0.39336150884628296 0.9513950347900391 4.045781135559082 22 16 18
-0.3721957504749298 -1.53852379322052 3.7983338832855225 80 77 77
-0.3810657858848572 -0.16559751331806183 3.896223783493042 93 93 105
-0.39001017808914185 0.8218041658401489 4.032663345336914 76 70 68
-0.3819125294685364 0.3810253441333771 3.9764018058776855 63 61 74
-0.36567506194114685 -1.1807992458343506 3.82218599319458 62 65 89
-0.3759101629257202 -1.6996240615844727 3.8322527408599854 43 43 48
-0.37916603684425354 0.38270705938339233 3.9697647094726562 61 60 73
-0.36832162737846375 -0.9940192103385925 3.8675119876861572 75 76 90
-0.36277589201927185 -1.3750652074813843 3.815843105316162 97 98 106
-0.38193508982658386 1.088866114616394 4.066479682922363 70 64 68
-0.3806815445423126 0.916813850402832 4.0662689208984375 89 80 78
-0.3565399944782257 -1.4005047082901 3.8131861686706543 93 93 101
-0.37375643849372864 0.6001660227775574 4.029102802276611 120 116 139
-0.34982144832611084 -1.599576711654663 3.8058507442474365 63 60 66
-0.34900450706481934 -1.667698860168457 3.831397533416748 85 88 93
-0.34666162729263306 -1.4984983205795288 3.832454204559326 110 109 107
-0.3449633717536926 -1.2403490543365479 3.8486247062683105 100 101 109
-0.3449633717536926 -1.2403490543365479 3.8486247062683105 100 101 109
-0.36263105273246765 0.7571412324905396 4.052245616912842 54 53 67
-0.3643728494644165 1.218864917755127 4.10186767578125 79 73 75
-0.3416101038455963 -0.2680757939815521 3.9008116722106934 47 47 57
-0.35026198625564575 0.3040550947189331 3.9795303344726562 63 62 76
-0.3509877920150757 0.4351131021976471 4.032779216766357 44 43 67
-0.3348812758922577 -1.180001139640808 3.85041880607605 97 100 122
-0.3639536201953888 1.008784294128418 4.095798492431641 59 54 63
-0.31740307807922363 -1.6645511388778687 3.788010358810425 60 61 65
-0.3433687686920166 0.1023922935128212 3.990525007247925 67 66 79
-0.3183160126209259 -0.7416282296180725 3.862806558609009 97 99 117
-0.3183160126209259 -0.7416282296180725 3.862806558609009 97 99 117
-0.33471062779426575 -0.7744361162185669 3.9085710048675537 94 96 114
-0.3325047791004181 -0.7052966952323914 3.9101157188415527 82 87 108
-0.3267380893230438 -1.5048465728759766 3.8647263050079346 47 44 42
-0.32905644178390503 -0.23779787123203278 3.964435577392578 88 87 99
-0.32278120517730713 -0.9033055305480957 3.891364336013794 50 51 73
-0.3331235945224762 0.5747225284576416 4.024815559387207 78 74 98
-0.3553396463394165 0.554908812046051 4.122796535491943 69 64 89
-0.32132551074028015 1.3264358043670654 4.089312553405762 51 46 49
-0.33403220772743225 -0.03504854813218117 3.9906153678894043 85 87 107
-0.3196828067302704 -0.6397123336791992 3.9297194480895996 79 84 105
-0.30079442262649536 -0.7382016777992249 3.852125644683838 129 130 147
-0.31398168206214905 -0.7860484719276428 3.920189380645752 56 58 76
-0.3065456748008728 -1.5008949041366577 3.862730026245117 122 116 114
-0.3184758126735687 0.85015469789505 4.069542407989502 73 65 66
-0.3063602149486542 0.5708277225494385 4.084654331207275 86 83 112
-0.30638521909713745 -0.6652282476425171 3.9475080966949463 92 96 121
-0.3006865680217743 -0.723172128200531 3.941426992416382 82 87 119
-0.29675158858299255 -1.2363929748535156 3.892512559890747 73 74 82
-0.29097652435302734 -1.4199882745742798 3.886692523956299 51 49 57
-0.30276528000831604 0.3462578058242798 4.063285827636719 56 55 66
-0.29247966408729553 -0.8913679718971252 3.937039613723755 74 75 92
-0.28352874517440796 -1.5615179538726807 3.8589630126953125 53 51 57
-0.2894405722618103 -0.48584356904029846 3.971879005432129 87 88 100
-0.28895843029022217 -0.4860016703605652 3.970278263092041 87 88 100
-0.28219074010849 -1.3819831609725952 3.9062912464141846 67 66 73
-0.2897004187107086 0.4077146649360657 4.077310562133789 95 93 104
-0.29315894842147827 0.7273330688476562 4.124804496765137 71 66 69
-0.2781103849411011 -0.9111407995223999 3.9406356811523438 52 50 71
-0.27452030777931213 -1.5270243883132935 3.892549514770508 34 31 34
-0.28970015048980713 0.583321750164032 4.112260818481445 46 45 73
-0.2749693691730499 -1.3779914379119873 3.9063920974731445 85 85 93
-0.2856225371360779 0.4543442726135254 4.0813775062561035 93 92 104
-0.2773204445838928 0.3645450174808502 4.093154430389404 126 124 133
-0.26989829540252686 -1.343066930770874 3.9077231884002686 93 93 97
-0.27130359411239624 -0.9772456884384155 3.943608283996582 100 100 113
-0.2773117125034332 -0.07572782784700394 4.041494846343994 95 99 113
-0.2578616738319397 -1.7951523065567017 3.789856195449829 158 151 137
-0.2807348668575287 0.6962188482284546 4.170397758483887 59 53 54
-0.26592347025871277 -1.0422098636627197 3.948681116104126 88 90 108
-0.2717048227787018 -0.1376456469297409 4.053271770477295 31 31 39
-0.2749204635620117 0.7789700031280518 4.163358688354492 17 10 11
-0.2643955945968628 -0.8755770325660706 3.969072103500366 65 65 84
-0.2643955945968628 -0.8755770325660706 3.969072103500366 65 65 84
-0.27460777759552 0.22805696725845337 4.120075225830078 55 54 78
-0.27623888850212097 1.0303106307983398 4.163902282714844 65 59 64
-0.2452690154314041 -1.7637792825698853 3.7550461292266846 162 157 142
-0.26202714443206787 -0.16316013038158417 4.047752380371094 80 80 93
-0.24832823872566223 -1.4019328355789185 3.9238431453704834 42 41 48
-0.23891036212444305 -1.7403860092163086 3.827747344970703 113 115 108
-0.2433507740497589 -0.9667215347290039 3.9125516414642334 84 84 96
-0.24644778668880463 -0.9618368148803711 3.967012643814087 96 95 108
-0.23433075845241547 -1.2747725248336792 3.9001784324645996 97 95 99
-0.23064541816711426 -1.7552731037139893 3.7461297512054443 145 140 125
-0.24230584502220154 -1.2549320459365845 3.9486618041992188 103 102 105
-0.23674854636192322 -1.424250602722168 3.9236443042755127 54 53 56
-0.24389059841632843 -0.16729947924613953 4.066070079803467 110 110 124
-0.24472305178642273 0.07176851481199265 4.093581676483154 65 62 69
-0.23810119926929474 -0.7841405272483826 4.008331298828125 79 81 101
-0.23501740396022797 -1.0207887887954712 3.9723613262176514 69 71 85
-0.2345798760652542 -0.22359664738178253 3.9988338947296143 99 100 114
-0.23126673698425293 -1.393123984336853 3.943345069885254 87 86 90
-0.23126673698425293 -1.393123984336853 3.943345069885254 87 86 90
-0.23076710104942322 -1.3925782442092896 3.941697597503662 87 86 90
-0.23981456458568573 0.6482823491096497 4.150644779205322 53 48 47
-0.2356759011745453 0.3973158001899719 4.164228439331055 90 80 90
-0.2358895093202591 0.2363918572664261 4.118968486785889 82 84 108
-0.23611998558044434 0.5729418396949768 4.169816970825195 51 45 54
-0.22742412984371185 -0.26373404264450073 4.064730167388916 91 91 101
-0.22743043303489685 -0.2634209394454956 4.064848899841309 91 91 101
-0.22966636717319489 0.13256630301475525 4.117361068725586 81 78 89
-0.22582073509693146 -0.39610061049461365 4.053500652313232 93 93 103
-0.21569886803627014 -1.2922909259796143 3.9692912101745605 90 88 93
-0.22435511648654938 0.5317145586013794 4.169679641723633 58 51 55
-0.2250625640153885 0.8107256293296814 4.202237606048584 60 54 55
-0.2250625640153885 0.8107256293296814 4.202237606048584 60 54 55
-0.21216216683387756 -1.2426121234893799 3.9828898906707764 63 63 68
-0.2153891921043396 0.19513513147830963 4.146548271179199 54 53 75
-0.21256883442401886 0.06278952211141586 4.11844539642334 93 88 94
-0.21256883442401886 0.06278952211141586 4.11844539642334 93 88 94
-0.20765374600887299 -0.947793185710907 4.043535232543945 79 77 91
-0.19951067864894867 -1.3870065212249756 3.9763238430023193 81 78 80
-0.19951067864894867 -1.3870065212249756 3.9763238430023193 81 78 80
-0.20296846330165863 -0.40401792526245117 4.065680027008057 79 78 90
-0.2056112140417099 0.22251787781715393 4.141276836395264 51 48 75
-0.19964499771595 -0.34733614325523376 4.11132287979126 87 85 96
-0.2035985291004181 0.544711172580719 4.185321807861328 79 72 71
-0.19448557496070862 0.35066404938697815 4.1294474601745605 99 88 88
-0.18225401639938354 -0.09012026339769363 4.07574987411499 90 92 107
-0.1939244121313095 0.08162495493888855 4.134150981903076 62 58 69
-0.18979601562023163 -0.23882117867469788 4.1038498878479 97 95 108
-0.19006860256195068 0.38293978571891785 4.182719707489014 132 120 119
-0.1836738884449005 -0.6547795534133911 4.0851969718933105 79 82 108
-0.1836738884449005 -0.6547795534133911 4.0851969718933105 79 82 108
-0.18842412531375885 0.4091040790081024 4.186256408691406 55 44 43
-0.17828619480133057 -1.4057292938232422 3.9959936141967773 33 30 31
-0.17828619480133057 -1.4057292938232422 3.9959936141967773 33 30 31
-0.17764458060264587 -1.4374265670776367 3.9900994300842285 55 52 52
-0.18073253333568573 -0.26567837595939636 4.112339973449707 69 67 80
-0.17319081723690033 -1.4303914308547974 3.986682415008545 40 36 37
-0.17409127950668335 0.8913208842277527 4.181995868682861 30 24 27
-0.15686972439289093 -0.3058852553367615 4.077536582946777 57 55 62
-0.1579897701740265 -0.924285888671875 4.057641983032227 52 45 43
-0.1579897701740265 -0.924285888671875 4.057641983032227 52 45 43
-0.16438299417495728 -0.7715556025505066 4.105472564697266 35 32 41
-0.16515499353408813 0.019071264192461967 4.171442031860352 67 60 68
-0.16515499353408813 0.019071264192461967 4.171442031860352 67 60 68
-0.16597184538841248 0.3476601243019104 4.199434757232666 69 58 57
-0.15708118677139282 0.04823040962219238 4.165148735046387 74 67 73
-0.15746186673641205 -1.2066528797149658 4.024974822998047 100 94 92
-0.1554412990808487 -1.3906984329223633 4.017295837402344 75 68 66
-0.15530572831630707 -1.075304388999939 4.023554801940918 64 57 55
-0.15240181982517242 0.6147812604904175 4.201694965362549 74 63 56
-0.15075530111789703 -0.21698524057865143 4.200789451599121 72 73 94
-0.1570926159620285 0.04815094172954559 4.16526460647583 74 67 73
-0.1570926159620285 0.04815094172954559 4.16526460647583 74 67 73
-0.14249199628829956 0.5902861952781677 4.208084583282471 109 98 89
-0.1464240998029709 -0.24080492556095123 4.145240783691406 72 72 90
-0.14014557003974915 -1.0008867979049683 4.068231582641602 115 105 99
-0.14213904738426208 -0.6214949488639832 4.130399227142334 34 29 36
-0.13789986073970795 -1.0458396673202515 4.068708896636963 86 79 74
-0.1397860050201416 -0.31614112854003906 4.155581951141357 30 25 27
-0.13599793612957 -0.23065422475337982 4.172595500946045 83 83 102
-0.13108135759830475 -1.3501662015914917 4.052036762237549 82 72 71
-0.13197574019432068 -0.09567877650260925 4.182753086090088 59 53 62
-0.13225893676280975 0.6810638904571533 4.197022914886475 112 100 89
-0.12610307335853577 -1.5469285249710083 4.028941631317139 47 39 37
-0.12134739756584167 -1.4836668968200684 4.047067642211914 48 41 39
-0.12829996645450592 0.47941166162490845 4.232787609100342 69 61 59
-0.12358266115188599 -0.9876959323883057 4.105816841125488 92 81 73
-0.1265166848897934 0.1732688844203949 4.217920780181885 50 43 44
-0.1208469495177269 -1.282050609588623 4.062347412109375 81 72 73
-0.12322951853275299 0.09858101606369019 4.207865238189697 51 45 56
-0.12322951853275299 0.09858101606369019 4.207865238189697 51 45 56
-0.12212198972702026 -0.19295503199100494 4.176586151123047 80 81 100
-0.11912669241428375 -1.2081403732299805 4.076793670654297 90 81 78
-0.11647305637598038 -1.319387674331665 4.059627056121826 55 46 44
-0.11245600879192352 -1.4352933168411255 4.063875675201416 59 51 48
-0.11177688837051392 0.847557544708252 4.198086261749268 79 71 82
-0.10977753251791 0.5492963194847107 4.172872543334961 135 122 111
-0.10945145040750504 0.7697882056236267 4.1958699226379395 104 93 86
-0.11911077797412872 -0.042889367789030075 4.2072529792785645 58 51 61
-0.09165661782026291 0.06156330928206444 4.15186071395874 67 60 64
-0.10538099706172943 -0.12900951504707336 4.203478813171387 101 95 101
-0.10647017508745193 0.4725019335746765 4.253694534301758 66 59 59
-0.1026938259601593 0.6200045943260193 4.140491008758545 134 119 110
-0.10528498888015747 0.37868037819862366 4.264308929443359 90 79 79
-0.10182677209377289 -0.4150063991546631 4.171837329864502 58 48 47
-0.09948879480361938 -0.8811179399490356 4.1237359046936035 56 48 48
-0.09622134268283844 -0.14572596549987793 4.217044353485107 59 53 57
-0.09182501584291458 0.6835527420043945 4.171217441558838 70 58 49
-0.08383464068174362 -1.2540162801742554 4.101094722747803 68 58 55
-0.08372348546981812 0.1556123048067093 4.264802932739258 88 81 82
-0.08172480016946793 -1.2333345413208008 4.113941192626953 69 59 54
-0.08143727481365204 0.18799903988838196 4.263023376464844 46 38 37
-0.08143727481365204 0.18799903988838196 4.263023376464844 46 38 37
-0.07762430608272552 -0.047332510352134705 4.242626667022705 43 37 46
-0.0762321949005127 0.942916214466095 4.18902587890625 86 77 77
-0.06891949474811554 -0.930406391620636 4.13551139831543 71 59 53
-0.06557620316743851 -0.9762604236602783 4.1006622314453125 63 50 44
-0.07075536251068115 -0.6045762896537781 4.175671577453613 82 69 68
-0.07022052258253098 -0.4511740207672119 4.194535732269287 73 63 59
-0.060366418212652206 -0.1656171679496765 4.246826171875 75 64 61
-0.06939258426427841 0.06821638345718384 4.251051425933838 50 43 46
-0.06727207452058792 -0.4888095259666443 4.1937947273254395 76 64 63
-0.05603495612740517 -2.053032398223877 3.7406527996063232 55 53 59
-0.05553951486945152 0.14156250655651093 4.282401084899902 52 43 40
-0.06717990338802338 0.9189516305923462 4.187774658203125 56 49 54
-0.048012323677539825 0.06694331765174866 4.235911846160889 61 50 48
-0.0509234257042408 0.7951778173446655 4.1475677490234375 69 62 65
-0.0509234257042408 0.7951778173446655 4.1475677490234375 69 62 65
-0.044617120176553726 0.24220125377178192 4.286195278167725 60 48 46
-0.051264338195323944 0.2700524628162384 4.301208972930908 70 59 57
-0.03600796312093735 -1.5931320190429688 4.019436836242676 44 35 29
-0.035403721034526825 0.2934165298938751 4.257086753845215 50 40 36
-0.02743346057832241 0.7780027389526367 4.126004695892334 102 93 87
-0.023916374891996384 -1.6874114274978638 3.9300930500030518 24 20 18
-0.023810124024748802 0.5909136533737183 4.102428913116455 95 81 69
-0.006448573432862759 0.950882613658905 4.152786731719971 68 63 72
-0.0025375476107001305 0.85990971326828 4.169436454772949 69 62 72
-0.00113094097469002 -1.6846139430999756 3.8388020992279053 44 44 47
-0.009317382238805294 0.39990514516830444 4.274470329284668 146 134 127
0.0038403316866606474 0.6846120953559875 4.092754364013672 84 74 64
0.012335884384810925 -1.5756129026412964 3.9403300285339355 29 20 17
0.021454084664583206 0.9898743629455566 4.126962184906006 57 54 70
0.02220243401825428 -1.9690369367599487 3.7589783668518066 58 57 64
0.022292522713541985 -1.8888897895812988 3.704421281814575 55 55 63
0.0247948095202446 -1.7197123765945435 3.7458083629608154 82 82 89
0.043889421969652176 0.8057161569595337 4.075418949127197 62 53 60
0.05067804455757141 0.1638902872800827 4.193508148193359 43 30 25
0.04674016311764717 1.1437281370162964 4.160816192626953 55 53 66
0.054214075207710266 0.646245002746582 4.04902458190918 143 130 119
0.06722196191549301 0.3288044333457947 4.2079973220825195 70 61 55
0.05804984271526337 -1.508937954902649 3.9919917583465576 59 56 53
0.06241334229707718 0.7769764065742493 4.137254238128662 44 33 26
0.06738843023777008 0.9733753204345703 4.084975719451904 89 84 104
0.07131469994783401 0.7814450860023499 4.057751655578613 112 103 96
0.0752284824848175 0.541154146194458 4.034676551818848 130 119 111
0.0884704440832138 0.6152966618537903 3.9949300289154053 118 104 92
0.07822268456220627 0.7011790871620178 4.040579795837402 91 79 70
0.09442009776830673 0.6392327547073364 4.004480838775635 115 102 91
0.08030093461275101 -1.9120177030563354 3.6416258811950684 43 43 44
0.08030093461275101 -1.9120177030563354 3.6416258811950684 43 43 44
0.11071468889713287 0.9171051979064941 4.038747310638428 54 52 74
0.12429220974445343 0.6698487997055054 3.9908859729766846 112 99 89
0.12374915182590485 0.7820268869400024 4.0197577476501465 116 105 98
0.1254141926765442 0.8827245831489563 3.9762346744537354 59 57 78
0.1426989585161209 0.49231433868408203 4.154476642608643 53 45 38
0.1426989585161209 0.49231433868408203 4.154476642608643 53 45 38
0.1401284784078598 0.8261827230453491 4.018029689788818 61 58 69
0.14946375787258148 0.4564381241798401 4.183026313781738 49 35 28
0.14720039069652557 0.21182262897491455 4.262602806091309 90 82 77
0.1376921683549881 -1.9175063371658325 3.6046619415283203 63 62 67
0.1769043207168579 -0.20262426137924194 4.228412628173828 134 136 137
0.1531328409910202 -1.726301908493042 3.624284505844116 86 86 93
0.1750376671552658 0.5543453693389893 3.9482221603393555 100 91 82
0.18277116119861603 0.42157113552093506 4.148229598999023 38 24 17
0.1834753155708313 0.9972831606864929 3.973548650741577 72 66 79
0.1820245385169983 -1.7002286911010742 3.8037445545196533 27 22 23
0.19613982737064362 -1.7009328603744507 3.7337758541107178 45 47 53
0.21872825920581818 0.6632639765739441 3.9328372478485107 93 83 74
0.2179630696773529 0.5965381860733032 3.9119391441345215 131 120 112
0.21392881870269775 -1.4889426231384277 3.8043484687805176 66 65 65
0.22905313968658447 0.6432259678840637 3.9119741916656494 91 81 72
0.2137247622013092 -1.867618441581726 3.565402030944824 78 75 79
0.24734464287757874 0.5210379958152771 4.005180358886719 74 64 55
0.2500585913658142 0.7478557825088501 3.936023473739624 71 61 51
0.2580799162387848 1.0129592418670654 3.933852195739746 95 90 101
0.2637210190296173 0.8517048358917236 3.924771547317505 55 52 69
0.24583598971366882 -1.6926136016845703 3.6221158504486084 67 69 75
0.24249771237373352 -1.902861475944519 3.526486873626709 57 56 60
0.25904643535614014 -1.699719786643982 3.710373640060425 44 44 47
0.28459250926971436 0.973551332950592 3.921581745147705 126 121 130
0.29411351680755615 0.7905311584472656 3.8993985652923584 89 79 76
0.2735748291015625 -1.7088367938995361 3.677513837814331 51 51 57
0.2881522476673126 0.6619769334793091 3.8732712268829346 138 127 117
0.31655511260032654 0.895682692527771 3.888005256652832 65 60 79
0.3216099441051483 0.5690275430679321 3.8271677494049072 94 82 73
0.3096008002758026 -1.8609341382980347 3.4463932514190674 89 88 90
0.3460409343242645 0.8548537492752075 3.8487017154693604 65 63 83
0.3475244641304016 0.7886517643928528 3.859156847000122 52 42 36
0.34974509477615356 0.5572633743286133 3.835402488708496 158 148 138
0.37625816464424133 1.0398259162902832 3.8664255142211914 107 100 106
0.3969508707523346 0.20363540947437286 4.0536041259765625 201 191 185
0.3969508707523346 0.20363540947437286 4.0536041259765625 201 191 185
0.3737143874168396 0.6058664321899414 3.7862484455108643 103 90 80
0.3783489167690277 0.6476125121116638 3.802384614944458 124 112 101
0.35225361585617065 -1.693346619606018 3.52292537689209 31 31 35
0.387273907661438 0.8153600692749023 3.8408215045928955 129 120 114
0.3918333053588867 -1.5922197103500366 3.6615946292877197 67 58 52
0.38241878151893616 -1.714085578918457 3.5861291885375977 35 35 40
0.37937813997268677 -1.678790807723999 3.4417083263397217 84 85 95
0.4194021224975586 0.6529899835586548 3.78415584564209 128 115 104
0.4278450012207031 0.9134630560874939 3.806325674057007 55 53 75
0.43626803159713745 1.4994019269943237 3.8682851791381836 59 56 65
0.44108787178993225 0.9406775832176208 3.802008867263794 63 61 81
0.4414222538471222 0.7821782231330872 3.7756564617156982 59 49 39
0.44320714473724365 0.8021103143692017 3.785285711288452 34 23 17
0.4432682394981384 0.7746779322624207 3.7794480323791504 121 111 101
0.44918426871299744 0.8165776133537292 3.777282476425171 124 115 109
0.42007625102996826 -1.7313238382339478 3.4327969551086426 91 92 102
0.4443058967590332 -1.601732611656189 3.644606113433838 49 42 38
0.43611815571784973 -1.667901635169983 3.3461341857910156 79 79 85
0.4816991984844208 0.8550829291343689 3.762200355529785 91 86 91
0.5240105986595154 0.21037518978118896 4.052700519561768 180 171 165
0.5223501920700073 0.03890395537018776 4.033350944519043 220 215 208
0.4921867847442627 1.156986951828003 3.7801644802093506 26 23 37
0.4895281493663788 0.8064256906509399 3.75521183013916 71 61 53
0.48723411560058594 0.6103175282478333 3.703115940093994 138 128 118
0.5189691185951233 0.9145025610923767 3.7403316497802734 118 113 119
0.5188138484954834 1.4828912019729614 3.813706398010254 28 26 33
0.5290865302085876 1.35649573802948 3.777621030807495 79 77 83
0.5195591449737549 0.6058301329612732 3.683335065841675 124 114 104
0.5460677742958069 0.7891859412193298 3.7377243041992188 95 83 72
0.5499649047851562 0.955598771572113 3.7426702976226807 91 87 96
0.5463834404945374 0.8741632103919983 3.7047080993652344 68 65 73
0.5463834404945374 0.8741632103919983 3.7047080993652344 68 65 73
0.5476000905036926 0.6712554693222046 3.673978805541992 94 85 74
0.5724470019340515 1.612285852432251 3.791400194168091 53 49 58
0.565558671951294 1.0280646085739136 3.721489667892456 47 44 61
0.5656576752662659 1.110304832458496 3.6799778938293457 85 84 103
0.5879745483398438 0.4689690172672272 3.8619332313537598 45 30 22
0.589127242565155 0.524067223072052 3.805027961730957 58 43 34
0.5701053142547607 0.8146253824234009 3.685028553009033 55 44 37
0.5949519872665405 1.9410278797149658 3.814697027206421 81 79 83
0.6046375036239624 -0.4407672584056854 3.8351919651031494 218 215 205
0.6249102354049683 0.4814329743385315 3.7992398738861084 49 35 26
0.6021989583969116 0.7178034782409668 3.634697437286377 86 76 66
0.6578944325447083 0.31581443548202515 3.934396266937256 197 186 177
0.6142563223838806 1.4202609062194824 3.6989290714263916 80 77 82
0.615353524684906 0.6485652327537537 3.609100341796875 84 74 64
0.6295570135116577 1.4148622751235962 3.6946163177490234 83 78 80
0.6246453523635864 1.0259218215942383 3.7303502559661865 57 54 65
0.6345861554145813 1.5287152528762817 3.7132019996643066 73 67 66
0.6445685029029846 1.8045605421066284 3.7563107013702393 90 83 85
0.6312606334686279 0.6921598315238953 3.6081531047821045 102 91 80
0.6635782122612 0.43212637305259705 3.775269031524658 45 31 25
0.6885833144187927 1.9046579599380493 3.760861873626709 60 54 53
0.6683707237243652 1.2077826261520386 3.6565287113189697 66 61 64
0.6031740307807922 -1.697094202041626 3.286379337310791 41 40 42
0.6770505309104919 1.0815119743347168 3.654214859008789 38 38 55
0.6665815114974976 0.6358579397201538 3.6004762649536133 84 75 65
0.6502503156661987 -1.5462414026260376 3.4979517459869385 56 44 31
0.677932620048523 1.0789201259613037 3.643486261367798 41 40 57
0.6859920024871826 1.3641477823257446 3.6582627296447754 108 101 98
0.674016535282135 0.6615501642227173 3.5860707759857178 97 86 75
0.7134976983070374 0.5210235714912415 3.7673020362854004 72 59 49
0.6809161901473999 0.7706703543663025 3.589423656463623 103 91 80
0.6900009512901306 0.9328362345695496 3.610964059829712 51 48 60
0.7040156126022339 1.6784191131591797 3.68265962600708 105 100 98
0.7226861715316772 1.8535311222076416 3.72621750831604 50 42 42
0.6905286312103271 0.6183033585548401 3.5565431118011475 80 71 61
0.7097744941711426 0.5730860829353333 3.652503728866577 114 107 100
0.7043201923370361 1.1606621742248535 3.6198041439056396 79 73 81
0.708913266658783 1.5103434324264526 3.6684811115264893 31 24 21
0.6981473565101624 0.6365137696266174 3.5587759017944336 77 66 55
0.7226222157478333 1.8528565168380737 3.725348949432373 50 42 42
0.7248810529708862 1.7487168312072754 3.6979968547821045 66 60 59
0.714423656463623 1.18815016746521 3.6358399391174316 24 18 23
0.7199127674102783 -0.6370375752449036 3.549455165863037 116 96 79
0.7167049050331116 1.4102333784103394 3.601283550262451 107 97 91
0.7337867617607117 1.7871322631835938 3.6823043823242188 52 43 44
0.731196403503418 1.2616227865219116 3.5955913066864014 131 121 116
0.7277072072029114 -0.29332318902015686 3.6086769104003906 89 68 56
0.7354217767715454 1.3958048820495605 3.629060745239258 89 81 78
0.7291023135185242 -0.4394460916519165 3.593001365661621 100 81 65
0.7459419369697571 1.724960446357727 3.661109209060669 67 61 59
0.7337325215339661 1.0425788164138794 3.6454503536224365 37 34 44
0.7113783359527588 -1.6053917407989502 3.4588735103607178 34 22 17
0.7403191328048706 0.6934746503829956 3.582322120666504 110 99 88
0.7441088557243347 0.7532980442047119 3.5233819484710693 75 63 54
0.7462323307991028 -0.3927921652793884 3.584742307662964 67 48 35
0.7607054114341736 1.7160483598709106 3.648919105529785 90 84 82
0.7715883851051331 0.5084308981895447 3.70266056060791 74 58 46
0.7624388337135315 1.6850132942199707 3.6566898822784424 13 6 4
0.7702777981758118 0.31841158866882324 3.6706297397613525 51 40 34
0.7536748051643372 1.1064931154251099 3.5575757026672363 47 45 62
0.7480173110961914 -1.0932120084762573 3.478078603744507 75 57 42
0.7816627621650696 0.16952936351299286 3.632467031478882 50 38 30
0.7740074396133423 -0.2313803732395172 3.579507827758789 60 43 33
0.7740074396133423 -0.2313803732395172 3.579507827758789 60 43 33
0.7804574966430664 -0.04226287454366684 3.6018927097320557 49 34 26
0.7632787227630615 0.6780532598495483 3.5093088150024414 84 73 63
0.7859273552894592 1.542554497718811 3.5927648544311523 64 57 52
0.789226233959198 1.5941293239593506 3.6021788120269775 63 58 55
0.7563906908035278 -1.5143381357192993 3.4072976112365723 66 49 36
0.8098657727241516 0.48815789818763733 3.6417055130004883 79 63 51
0.8162919878959656 0.5312024354934692 3.6562862396240234 60 47 37
0.7937476634979248 1.1561470031738281 3.5444154739379883 56 51 66
0.7863146066665649 0.7060075402259827 3.4870200157165527 81 70 62
0.7863146066665649 0.7060075402259827 3.4870200157165527 81 70 62
0.801099956035614 1.3335920572280884 3.560167074203491 95 87 84
0.7667454481124878 -1.5453914403915405 3.4101979732513428 37 22 13
0.7998836636543274 1.230934739112854 3.5470056533813477 126 117 113
0.8098027110099792 0.06960628181695938 3.583695650100708 51 37 30
0.8052470088005066 -0.18775485455989838 3.555285930633545 55 39 30
0.8024531006813049 1.2796894311904907 3.546100616455078 111 102 98
0.8080623149871826 -0.07670510560274124 3.5133299827575684 56 41 33
0.8135297894477844 -0.23026514053344727 3.529325008392334 136 121 112
0.8239884376525879 0.43493783473968506 3.631723403930664 81 66 57
0.8019803762435913 -0.3527281880378723 3.5303640365600586 67 51 39
0.8245339393615723 0.404183566570282 3.617471218109131 88 75 67
0.8113935589790344 1.2696541547775269 3.5449604988098145 142 133 129
0.8096292614936829 -0.2993505597114563 3.5214924812316895 74 60 50
0.8189993500709534 -0.17848719656467438 3.5365281105041504 90 75 66
0.822484016418457 -0.0631270483136177 3.552586555480957 89 75 67
0.8212401866912842 -0.2832655608654022 3.5347023010253906 94 83 73
0.8291763067245483 1.3529303073883057 3.5346176624298096 140 132 125
0.7947664856910706 -1.3485493659973145 3.401801347732544 71 55 41
0.813087522983551 -0.6305363178253174 3.470486879348755 158 142 128
0.8298650979995728 1.688043475151062 3.5973684787750244 97 88 85
0.8023203015327454 -1.1164852380752563 3.414062261581421 62 45 32
0.8200128674507141 -0.279734343290329 3.4881958961486816 64 52 45
0.8616078495979309 0.5148410201072693 3.6807398796081543 146 135 124
0.8732113242149353 0.22144818305969238 3.675654888153076 52 48 49
0.8463476896286011 -0.137882798910141 3.5536673069000244 47 41 42
0.8441910147666931 1.0626699924468994 3.533271312713623 83 78 84
0.8342612385749817 0.8787906765937805 3.4896247386932373 52 45 38
0.8371710181236267 -0.5739513039588928 3.4976797103881836 228 221 214
0.8558617234230042 1.5914020538330078 3.5547804832458496 109 99 96
0.8514554500579834 1.279567003250122 3.5176148414611816 69 59 55
0.8642641305923462 1.761877417564392 3.5525078773498535 90 82 79
0.8383990526199341 0.644983172416687 3.442098617553711 121 112 102
0.8444955348968506 0.8572371006011963 3.4809751510620117 34 25 17
0.8681113719940186 1.6541348695755005 3.5868213176727295 111 99 94
0.8444962501525879 0.8572388291358948 3.4809811115264893 34 25 17
0.868107795715332 1.6541117429733276 3.58678936958313 111 99 94
0.8591504693031311 1.262068510055542 3.5194480419158936 69 62 64
0.8582279682159424 -0.6888533234596252 3.491467237472534 130 113 100
0.8404228091239929 -1.2529977560043335 3.4286246299743652 36 23 14
0.8740448355674744 1.7490957975387573 3.5608859062194824 79 71 68
0.8280295729637146 -1.4577871561050415 3.363050699234009 35 23 15
0.8472234606742859 -1.199122667312622 3.4398550987243652 41 28 18
0.8725654482841492 1.5121848583221436 3.5361602306365967 131 120 114
0.8776190876960754 1.4800300598144531 3.517329692840576 128 117 111
0.8381525278091431 -1.5711917877197266 3.3777642250061035 51 38 30
0.8646206259727478 -0.8124828934669495 3.4834518432617188 53 39 31
0.8845854997634888 1.7595380544662476 3.5615251064300537 82 74 70
0.39290687441825867 -0.14738857746124268 1.5767825841903687 49 43 46
0.8711845278739929 1.3173818588256836 3.499629020690918 151 141 133
0.8732433915138245 0.9784159064292908 3.4778425693511963 45 41 52
0.8828978538513184 -0.7221429347991943 3.5076005458831787 136 120 107
0.8831812739372253 1.1899508237838745 3.501396417617798 42 41 66
0.9289402961730957 -0.0750671774148941 3.6726434230804443 74 64 58
0.8844397664070129 1.2638529539108276 3.49597430229187 94 84 84
0.8805673718452454 -0.8210967779159546 3.4731709957122803 36 23 15
0.8670440912246704 0.699195384979248 3.419694185256958 73 64 55
0.8670440912246704 0.699195384979248 3.419694185256958 73 64 55
0.8980307579040527 1.6296758651733398 3.522838830947876 129 118 112
0.8871710896492004 0.9916995167732239 3.4551467895507812 52 48 55
0.8848114609718323 1.0596286058425903 3.436089277267456 70 68 75
0.8803381323814392 0.9296560883522034 3.408914804458618 53 50 62
0.8976664543151855 1.3214010000228882 3.4876599311828613 144 134 127
0.887395441532135 -0.8630691170692444 3.444985866546631 36 24 16
0.8979231119155884 1.3062490224838257 3.4776694774627686 119 109 102
0.9011536240577698 -0.7000668048858643 3.4861443042755127 57 41 28
0.9176692366600037 1.6136608123779297 3.533456563949585 116 106 103
0.8950387835502625 1.0197055339813232 3.4621942043304443 41 38 43
0.9336183667182922 -0.5950310826301575 3.5879294872283936 124 115 114
0.9044100642204285 1.2653182744979858 3.4702115058898926 117 107 103
0.8981922268867493 1.0980881452560425 3.446533441543579 32 32 52
0.9602756500244141 -0.3580690920352936 3.634502410888672 92 89 93
0.9284757971763611 -0.6657662987709045 3.5728352069854736 112 102 98
0.923440158367157 1.7409130334854126 3.531928539276123 83 76 74
0.9096978306770325 1.3681045770645142 3.4806370735168457 31 23 23
0.9069922566413879 1.2148091793060303 3.462998151779175 66 61 74
0.916655421257019 1.5767878293991089 3.4993019104003906 123 112 109
0.9491552710533142 -0.6154760122299194 3.598968029022217 79 74 80
0.9537883996963501 -0.512384831905365 3.6040775775909424 67 60 63
0.9117288589477539 0.9979618191719055 3.4374523162841797 78 75 81
0.894780158996582 0.6381378173828125 3.3887722492218018 131 123 113
0.9553622007369995 -0.31611302495002747 3.603233575820923 58 56 59
0.9232991337776184 1.0702154636383057 3.4827468395233154 62 57 62
0.9343627691268921 1.4878534078598022 3.510928153991699 131 121 114
0.9138092398643494 0.9420979619026184 3.427727460861206 46 44 53
0.9189536571502686 1.122572660446167 3.4466426372528076 37 34 51
0.960054337978363 -0.6145387291908264 3.596693277359009 66 62 68
0.9218506217002869 -0.8230166435241699 3.4484963417053223 33 21 14
0.9375430345535278 0.5569936633110046 3.5021984577178955 46 35 27
0.9763463139533997 -0.5244265198707581 3.6271567344665527 91 89 96
0.936233639717102 1.267319679260254 3.436502456665039 102 92 89
0.9373334050178528 1.244288682937622 3.4547548294067383 88 80 85
0.9345736503601074 1.1784555912017822 3.4395294189453125 97 94 106
0.9358664751052856 -0.797561764717102 3.418606758117676 57 45 37
0.934228777885437 1.0479955673217773 3.433253288269043 39 35 40
1.0548197031021118 0.1796102672815323 3.8734092712402344 85 81 81
0.9755598902702332 -0.6442157626152039 3.5809144973754883 127 130 145
0.9426229596138 1.3533146381378174 3.4580578804016113 159 150 147
0.929780125617981 0.7200110554695129 3.3878085613250732 102 94 84
0.9347900748252869 0.9577111005783081 3.4178740978240967 42 39 48
0.9557375311851501 1.6853035688400269 3.494835376739502 109 101 97
0.9506691098213196 1.0980831384658813 3.459541082382202 90 86 91
0.9431211352348328 -0.8616580963134766 3.418958902359009 31 21 12
0.9438497424125671 1.1292668581008911 3.423806667327881 33 30 42
0.9438497424125671 1.1292668581008911 3.423806667327881 33 30 42
0.93650883436203 0.8397873044013977 3.3915035724639893 83 73 63
0.9403060674667358 -1.1329834461212158 3.3993778228759766 35 25 16
0.945121169090271 0.9858323931694031 3.4059338569641113 71 68 75
1.0242329835891724 0.35999730229377747 3.6572492122650146 126 118 114
0.9547417163848877 1.2488207817077637 3.428805351257324 108 99 99
0.9512333869934082 1.024097204208374 3.4137961864471436 76 73 80
0.9128978848457336 -1.5761356353759766 3.2707693576812744 134 138 135
0.9406620264053345 -1.0741544961929321 3.364283800125122 30 19 13
1.0038632154464722 -0.6518746614456177 3.557119607925415 85 86 102
0.9790003895759583 1.5018140077590942 3.4588940143585205 118 109 102
0.9699623584747314 -0.7215308547019958 3.419010639190674 94 82 70
0.9672611355781555 1.2273117303848267 3.4394028186798096 43 36 37
0.9822317957878113 1.2454001903533936 3.500706434249878 40 34 38
0.9679290056228638 -0.6581544280052185 3.4021832942962646 125 115 103
1.01067316532135 -0.6388173699378967 3.5513224601745605 187 187 199
0.9606726169586182 0.694126307964325 3.3637354373931885 71 62 53
0.972194492816925 -0.7634656429290771 3.3950037956237793 149 137 129
0.9298093914985657 -0.677030622959137 3.281675100326538 76 63 51
0.9831831455230713 1.2406518459320068 3.40425443649292 50 42 39
0.9835653305053711 1.064330816268921 3.4016149044036865 22 18 20
1.0829133987426758 -0.3285423517227173 3.691544532775879 96 95 100
0.9907533526420593 1.2448885440826416 3.408928871154785 52 44 41
0.9944029450416565 1.4657037258148193 3.444561243057251 75 66 62
0.9796051383018494 0.9826366901397705 3.3777976036071777 55 52 64
0.9925358295440674 1.0425477027893066 3.381371021270752 89 87 93
1.0135023593902588 -0.670234739780426 3.430459499359131 112 102 92
0.9960851073265076 0.9686598181724548 3.3670856952667236 72 70 82
1.0069324970245361 1.3535038232803345 3.401179313659668 104 95 91
1.0039880275726318 1.2211617231369019 3.345280885696411 110 101 97
1.0021671056747437 0.8805434107780457 3.359673023223877 41 35 28
1.0112829208374023 1.3006583452224731 3.3998138904571533 93 83 80
1.001456379890442 0.7922915816307068 3.3051061630249023 88 78 69
1.0090547800064087 0.9666743278503418 3.356905698776245 82 81 91
1.0250824689865112 1.0090601444244385 3.3976404666900635 54 53 67
1.0129050016403198 1.0115195512771606 3.357752561569214 46 46 60
1.0308212041854858 1.3830063343048096 3.4062845706939697 85 76 73
1.0298659801483154 1.1785508394241333 3.3672242164611816 93 87 88
1.0822542905807495 -0.6182552576065063 3.5210800170898438 133 136 150
1.1918238401412964 -0.14628584682941437 3.8911850452423096 102 101 102
1.026319980621338 0.9441088438034058 3.3423452377319336 59 56 64
1.1954401731491089 -0.31913992762565613 3.8826956748962402 142 142 145
1.0200450420379639 0.7084754705429077 3.3152058124542236 77 68 59
1.0132943391799927 0.6949667930603027 3.3148937225341797 115 106 97
1.0393143892288208 1.2413609027862549 3.379546880722046 83 75 71
1.0881701707839966 -0.6355956792831421 3.5006771087646484 99 106 131
1.0524441003799438 1.463829755783081 3.3803536891937256 109 101 95
1.0630440711975098 1.5857571363449097 3.4004499912261963 113 104 100
1.041096568107605 -0.9424625039100647 3.3306057453155518 88 76 64
0.9908344745635986 -0.6698349118232727 3.1695199012756348 81 69 57
1.0662643909454346 1.5407519340515137 3.392695426940918 113 104 99
1.0534758567810059 -0.6610229015350342 3.351555824279785 111 101 91
1.061744213104248 1.438717007637024 3.3545095920562744 89 80 74
1.2351287603378296 -0.466576486825943 3.894163131713867 109 112 117
1.0382884740829468 0.6417040824890137 3.2620201110839844 119 112 106
1.2583459615707397 -0.44514232873916626 3.946928024291992 149 151 155
1.081451416015625 1.484617829322815 3.386544704437256 94 87 81
1.0657212734222412 -0.7288914322853088 3.309199810028076 51 39 30
1.0560020208358765 -0.7005206942558289 3.3194241523742676 147 135 123
1.0756855010986328 -0.6887708306312561 3.3495776653289795 42 30 21
1.0705294609069824 1.0321592092514038 3.307673215866089 49 45 56
1.0705294609069824 1.0321592092514038 3.307673215866089 49 45 56
1.0805723667144775 1.1589151620864868 3.3361756801605225 55 50 55
1.0626124143600464 0.6471014022827148 3.2730562686920166 127 122 117
1.0787081718444824 0.9410586953163147 3.2956056594848633 57 52 52
1.0766853094100952 0.8982942700386047 3.283547878265381 96 90 84
1.0686492919921875 0.7062466740608215 3.2231216430664062 77 68 61
1.098724126815796 -0.901817798614502 3.333491086959839 71 59 50
1.3129366636276245 -0.4523460865020752 3.978442668914795 152 151 154
1.098840594291687 1.271574854850769 3.3266193866729736 113 103 95
1.0794023275375366 0.7800634503364563 3.266846179962158 88 79 70
1.1184171438217163 1.5555435419082642 3.358934164047241 75 67 63
1.1118937730789185 1.4248558282852173 3.336193323135376 105 98 95
1.075669527053833 0.7068190574645996 3.2549028396606445 86 78 70
1.0963075160980225 0.9260770082473755 3.291175365447998 98 95 90
1.0962979793548584 1.0364466905593872 3.2884902954101562 49 45 56
1.0962979793548584 1.0364466905593872 3.2884902954101562 49 45 56
1.1882812976837158 0.4054991602897644 3.554084300994873 102 99 105
1.1177479028701782 1.4699453115463257 3.348562002182007 71 66 64
1.3295230865478516 -0.479961633682251 3.979982376098633 104 99 100
1.3230329751968384 -0.4343501329421997 3.9610536098480225 59 57 59
1.3189048767089844 -0.3902372419834137 3.9451496601104736 125 124 126
1.1031711101531982 0.7977906465530396 3.2585604190826416 100 91 81
1.1000896692276 0.8836584687232971 3.276210308074951 66 61 53
1.1216503381729126 1.3544421195983887 3.3324038982391357 130 120 113
1.116481065750122 1.268642544746399 3.3148856163024902 150 140 132
1.104119896888733 -0.6374127864837646 3.2790603637695312 143 134 126
1.1188668012619019 1.224196434020996 3.308837413787842 75 70 72
1.1110001802444458 1.044001817703247 3.2856855392456055 39 36 47
1.1188597679138184 0.9872441291809082 3.2762346267700195 97 95 106
1.1188597679138184 0.9872441291809082 3.2762346267700195 97 95 106
1.1330925226211548 1.2868448495864868 3.307424783706665 145 134 127
1.1748013496398926 -0.6462911367416382 3.4290735721588135 213 222 239
1.1386314630508423 1.3817532062530518 3.3207857608795166 136 126 119
1.1204386949539185 0.9242703318595886 3.2643022537231445 90 86 80
1.1320812702178955 1.2159005403518677 3.331846237182617 49 45 47
1.1188701391220093 0.987264096736908 3.2762904167175293 97 95 106
1.1514415740966797 1.5051062107086182 3.331315517425537 93 87 83
1.1232801675796509 0.7135012149810791 3.2305991649627686 106 97 87
1.1481428146362305 1.1115168333053589 3.321173667907715 27 25 32
1.1280885934829712 0.6645008325576782 3.2327349185943604 92 86 78
1.1632641553878784 1.524276852607727 3.3316996097564697 76 69 67
1.1420167684555054 1.0544514656066895 3.2633678913116455 44 42 52
1.1460691690444946 1.0740543603897095 3.2731940746307373 56 53 62
1.1406373977661133 0.9807863831520081 3.2475717067718506 81 81 86
1.1374731063842773 0.7737420201301575 3.2311601638793945 121 112 103
1.1374731063842773 0.7737420201301575 3.2311601638793945 121 112 103
1.1653434038162231 1.468650221824646 3.3021416664123535 69 63 60
1.1559038162231445 0.6510669589042664 3.279345989227295 87 84 82
1.1611535549163818 1.2509896755218506 3.289199113845825 48 41 41
1.1671110391616821 1.282536268234253 3.283036231994629 123 112 106
1.160310983657837 1.0485954284667969 3.2685654163360596 33 31 33
1.152092456817627 -1.0539817810058594 3.237802505493164 88 75 67
1.149364709854126 0.6924695372581482 3.2204480171203613 85 76 66
1.1707171201705933 1.2503153085708618 3.278244733810425 49 42 42
1.157473087310791 0.8866050839424133 3.240689754486084 88 80 71
1.1666135787963867 1.2947847843170166 3.2342677116394043 79 67 60
1.1595333814620972 0.9359247088432312 3.232063055038452 52 47 42
1.1742216348648071 1.0980665683746338 3.27103590965271 104 98 101
1.1730096340179443 1.0824886560440063 3.2677741050720215 27 23 25
1.1860692501068115 1.4347004890441895 3.2804956436157227 122 114 111
1.1853221654891968 1.2966020107269287 3.2733049392700195 58 49 41
1.1755061149597168 0.955919086933136 3.244452476501465 46 41 39
1.1710141897201538 0.8729636669158936 3.257194995880127 90 83 73
1.1680001020431519 0.8761582970619202 3.2216708660125732 103 96 87
1.2326453924179077 -0.6373012065887451 3.3947160243988037 78 89 121
1.1638115644454956 0.6754088997840881 3.201613187789917 97 90 80
1.166473150253296 0.7093375325202942 3.203165292739868 116 106 97
1.1925101280212402 1.2380203008651733 3.2646100521087646 40 34 35
1.2528554201126099 0.5417091846466064 3.4235520362854004 98 90 83
1.19943106174469 1.2232677936553955 3.260648250579834 46 41 43
1.2067949771881104 1.5331288576126099 3.276017427444458 72 64 59
1.1920393705368042 0.6819847822189331 3.2512452602386475 129 122 114
1.1886788606643677 1.0230268239974976 3.2098259925842285 33 29 48
1.1845455169677734 0.7572619318962097 3.1973581314086914 97 88 77
1.2052534818649292 1.2363879680633545 3.249854803085327 55 50 51
1.2147786617279053 1.4306926727294922 3.26540207862854 28 20 19
1.2143594026565552 1.3686978816986084 3.2601709365844727 122 112 104
1.2096338272094727 1.2939096689224243 3.2437868118286133 135 124 117
1.1938174962997437 0.8436498045921326 3.1963000297546387 95 88 79
1.2142542600631714 1.1948035955429077 3.242047071456909 64 59 61
1.1982389688491821 0.90483158826828 3.2046303749084473 40 34 28
1.1912708282470703 0.6818274259567261 3.1771719455718994 90 82 72
1.2016031742095947 0.8905425667762756 3.2027907371520996 92 85 76
1.265494704246521 0.6238620281219482 3.350914478302002 76 68 61
1.4647488594055176 -0.4261559545993805 3.8968985080718994 50 48 48
1.2268959283828735 1.4513792991638184 3.260650634765625 98 91 90
1.2152106761932373 -0.7909315824508667 3.2165186405181885 26 17 12
1.2203013896942139 1.054957389831543 3.224858283996582 50 46 63
1.2806931734085083 -0.5370017290115356 3.3826229572296143 28 23 21
1.2128552198410034 0.9493148922920227 3.200165271759033 45 40 37
1.2003697156906128 0.9086474180221558 3.158360004425049 52 46 40
1.2255699634552002 1.2279413938522339 3.225961923599243 39 33 34
1.2152256965637207 0.8811808228492737 3.1913015842437744 73 66 57
1.2352333068847656 1.2411460876464844 3.236189603805542 51 43 43
1.2270392179489136 1.0563775300979614 3.204723834991455 35 32 48
1.240699291229248 1.2932016849517822 3.2356035709381104 82 72 68
1.2925469875335693 -0.605102002620697 3.3639466762542725 30 33 41
1.2255135774612427 0.9775075316429138 3.1852774620056152 52 49 57
1.2175489664077759 0.7968763113021851 3.1636223793029785 86 78 69
1.2328561544418335 0.9471035003662109 3.195803165435791 44 38 33
1.2342742681503296 1.0303527116775513 3.1924610137939453 38 34 47
1.2236154079437256 0.8978793025016785 3.137484073638916 47 41 34
1.2365204095840454 0.9980037212371826 3.181074857711792 41 37 46
1.2761024236679077 0.6148337125778198 3.25722336769104 88 81 75
1.2431604862213135 1.016800880432129 3.1856913566589355 81 76 82
1.2442349195480347 0.9146156311035156 3.185882806777954 59 53 45
1.2673450708389282 1.2487199306488037 3.2327849864959717 112 102 98
1.2546329498291016 1.116464376449585 3.1989667415618896 25 21 31
1.2995034456253052 0.5545640587806702 3.2983462810516357 91 82 74
1.2596124410629272 1.2879363298416138 3.2046070098876953 90 81 77
1.2444955110549927 0.8192471265792847 3.1688098907470703 90 83 73
1.2463847398757935 0.9698623418807983 3.1616556644439697 69 64 62
1.245613694190979 0.8847239017486572 3.161137104034424 84 76 68
1.2456175088882446 0.8847320079803467 3.16113018989563 84 76 68
1.247483491897583 0.6754253506660461 3.1482436656951904 122 117 110
1.3072274923324585 0.5885970592498779 3.296926259994507 74 64 56
1.2511790990829468 0.7857104539871216 3.1532745361328125 95 88 78
1.2614809274673462 1.0506885051727295 3.1746554374694824 83 77 83
1.2747750282287598 1.2925245761871338 3.2000343799591064 99 91 86
1.2798043489456177 1.2331154346466064 3.190955877304077 83 74 71
1.257523775100708 0.8591444492340088 3.150585651397705 93 86 78
1.26380455493927 1.107555627822876 3.141476631164551 46 44 51
1.2830785512924194 1.3765745162963867 3.2069764137268066 131 121 114
