ply
format ascii 1.0
element vertex 716
property float x
property float y
property float z
property uchar red
property uchar green
property uchar blue
end_header
-0.9932095408439636 -0.37100735306739807 3.4265899658203125 90 92 102
-0.4926294684410095 0.1792401373386383 3.542273759841919 95 97 105
0.5696147680282593 -0.3782743811607361 3.760939121246338 21 22 29
0.5527768135070801 0.7931593656539917 3.8453845977783203 30 33 39
-0.8137398958206177 0.7374263405799866 3.551769971847534 11 11 18
1.1045804023742676 -0.3687358796596527 3.8595802783966064 35 35 40
-0.7535213232040405 0.16982410848140717 3.527158737182617 13 14 19
0.24618934094905853 0.9778364896774292 3.803703546524048 44 45 54
-1.0155303478240967 -0.2502163350582123 3.438858985900879 84 86 94
-0.5064985156059265 -0.24017411470413208 3.530094861984253 70 71 81
0.5127037167549133 0.9489753842353821 3.8386433124542236 57 58 65
-1.0306673049926758 0.16239705681800842 3.4924728870391846 21 21 28
0.05645957216620445 0.8021983504295349 3.8058278560638428 69 69 80
1.560346245765686 0.9696609973907471 4.059591770172119 49 51 59
-0.45698386430740356 -0.20860493183135986 3.5734665393829346 18 19 27
-0.47906309366226196 0.159803107380867 3.6159188747406006 56 57 66
0.04825122281908989 -0.2175266444683075 3.6689488887786865 28 28 34
-1.2384735345840454 -0.1892118901014328 3.383212089538574 72 73 85
-1.2384638786315918 -0.1892121434211731 3.3831982612609863 72 73 85
0.029297426342964172 0.16222479939460754 3.711134672164917 27 29 34
-0.7697980999946594 -0.19148120284080505 3.494150400161743 95 96 105
-0.23672786355018616 -0.19354680180549622 3.561711072921753 34 37 42
-0.9921507835388184 -0.18675994873046875 3.437434196472168 51 53 64
-0.7699933648109436 -0.18410709500312805 3.490800619125366 66 66 75
0.2137821763753891 -0.19422170519828796 3.7028558254241943 17 18 25
-1.034097671508789 0.11236676573753357 3.465015172958374 106 108 116
-0.8882926106452942 0.09085105359554291 3.48271107673645 40 39 50
-0.2519361674785614 0.029622044414281845 3.6052749156951904 64 63 72
-0.25193485617637634 0.02962353266775608 3.605278491973877 64 63 72
-1.0064564943313599 -0.1647191345691681 3.4473257064819336 45 46 60
0.8221645951271057 -0.17953276634216309 3.812338352203369 41 41 47
-0.4843387007713318 0.021246150135993958 3.562936782836914 78 79 89
1.349152684211731 0.007912462577223778 3.9444878101348877 26 26 33
1.743346929550171 -0.07041711360216141 3.9960360527038574 35 34 43
-0.9919134378433228 -0.06566574424505234 3.4443953037261963 34 36 51
-0.01760191284120083 0.8607878684997559 3.739982843399048 51 53 61
-1.325198769569397 -0.05291197821497917 3.378957509994507 21 23 31
-0.32146623730659485 0.7780103087425232 3.673997402191162 89 90 100
0.8239266276359558 0.0014264591736719012 3.82726788520813 65 67 74
-0.7951619625091553 -0.039125144481658936 3.4976422786712646 56 56 68
0.0341702401638031 0.002983283018693328 3.6927244663238525 40 39 45
0.8239300847053528 0.0014241444878280163 3.827303171157837 65 67 74
-1.2939941883087158 -0.03356538712978363 3.4061496257781982 78 80 89
0.8239142298698425 0.0013941522920504212 3.8274707794189453 65 67 74
-0.9286821484565735 -0.002246900461614132 3.4439496994018555 53 55 63
-0.23222379386425018 -0.03330247476696968 3.624898910522461 97 97 103
-1.0322144031524658 -0.023968098685145378 3.453075408935547 13 12 21
-0.010323850437998772 -0.0045420159585773945 3.6667850017547607 45 46 53
-1.2498815059661865 0.7520612478256226 3.4637415409088135 56 56 65
-0.2256326675415039 -0.016774458810687065 3.637350559234619 49 49 55
-1.2298789024353027 -0.01411523763090372 3.4074654579162598 101 103 113
-1.0589540004730225 0.7543134093284607 3.513795852661133 21 21 29
0.3656660318374634 0.8186623454093933 3.8268141746520996 22 23 33
-0.4758906960487366 -0.010303178802132607 3.5007879734039307 64 65 73
-1.2087897062301636 0.3851730525493622 3.433347463607788 22 24 34
-1.2841209173202515 0.39563968777656555 3.414062261581421 54 57 73
-1.2841392755508423 0.39564457535743713 3.4140877723693848 54 57 73
-1.2841321229934692 0.3956424593925476 3.4140777587890625 54 57 73
0.032470714300870895 0.4771767258644104 3.7276036739349365 58 59 69
1.5980675220489502 0.5814287662506104 4.042509078979492 48 48 54
0.017500413581728935 0.5512580871582031 3.7332239151000977 63 63 70
-0.05230044201016426 0.5592419505119324 3.7218236923217773 62 61 70
1.3053697347640991 0.6040990352630615 3.975553512573242 45 45 52
-1.0648047924041748 0.5380675196647644 3.503913164138794 39 40 49
-0.5321173667907715 0.5516445636749268 3.603712558746338 64 67 76
-0.6696816682815552 0.5631202459335327 3.5596542358398438 8 9 15
-1.0377517938613892 0.5414652228355408 3.5047247409820557 87 89 97
-0.6402231454849243 0.5461606979370117 3.5475916862487793 36 40 49
0.5078775882720947 1.3391612768173218 3.8696062564849854 34 36 44
0.2310371994972229 1.3498718738555908 3.7877070903778076 38 39 47
-0.5279327034950256 1.355373740196228 3.6923654079437256 84 85 92
-0.5698323845863342 1.348969578742981 3.6600232124328613 56 57 65
-0.5619195103645325 1.3612868785858154 3.6514077186584473 78 80 89
-0.26185789704322815 1.4060419797897339 3.7275941371917725 33 33 44
-0.20692473649978638 1.4125629663467407 3.7471864223480225 17 17 28
1.2466752529144287 1.5467040538787842 4.024938583374023 10 11 19
1.5260090827941895 1.5654325485229492 4.100124835968018 11 13 19
1.0182141065597534 1.5593383312225342 4.0044636726379395 7 7 16
1.0025057792663574 1.5360068082809448 3.942392110824585 35 36 44
0.5015390515327454 1.5607949495315552 3.9017555713653564 49 49 57
-0.3116413652896881 1.5234330892562866 3.728196144104004 43 45 53
-0.832103967666626 1.5243338346481323 3.649142026901245 14 15 23
-0.8043935298919678 1.527976393699646 3.6180083751678467 45 47 55
-0.6735570430755615 1.5617061853408813 3.668558120727539 14 17 27
-1.347297191619873 1.5376842021942139 3.530540704727173 85 87 95
-1.213309407234192 1.5537605285644531 3.5167460441589355 67 67 78
-1.2133113145828247 1.5537620782852173 3.5167489051818848 67 67 78
-1.2396599054336548 1.5680667161941528 3.5416436195373535 80 81 92
-1.1042330265045166 1.5822322368621826 3.5637402534484863 21 22 30
0.08962336927652359 1.7529094219207764 3.821284294128418 18 20 29
-1.1155376434326172 1.7162013053894043 3.578523635864258 47 47 54
-1.0801918506622314 1.7347569465637207 3.601853847503662 67 68 76
-1.3596398830413818 1.7351322174072266 3.5249812602996826 50 52 61
-1.3545023202896118 1.9301948547363281 3.553292989730835 42 43 51
-0.8473382592201233 2.147245407104492 3.6819114685058594 11 13 22
-1.0850061178207397 2.1394386291503906 3.6334457397460938 76 77 85
-0.6035711765289307 2.351287603378296 3.7497057914733887 13 12 20
-0.4554232954978943 -0.2696644961833954 3.532831907272339 23 25 35
-0.7426099181175232 1.0849264860153198 3.5947818756103516 74 75 87
-1.1138060092926025 1.7712984085083008 3.5999584197998047 81 83 91
-0.2549404203891754 1.005171298980713 3.708139181137085 71 72 82
-0.19135461747646332 -1.200154423713684 3.509295701980591 36 37 43
-1.1108183860778809 1.7606507539749146 3.59020733833313 32 34 43
-0.6458522081375122 1.7669169902801514 3.6903045177459717 73 74 84
-0.6498153209686279 -0.635016679763794 3.479867458343506 52 54 61
-1.0994945764541626 1.7499744892120361 3.5720529556274414 36 38 47
0.5473244190216064 1.9241797924041748 3.937138080596924 63 64 75
-0.6689901947975159 0.19343380630016327 3.5384559631347656 29 31 42
-0.04509671404957771 1.0138570070266724 3.734877586364746 49 49 63
-0.29689887166023254 0.18553775548934937 3.6541366577148438 79 80 90
-0.3215327262878418 0.7523739337921143 3.674776315689087 74 74 84
-1.1348727941513062 -1.874448299407959 3.2746760845184326 15 15 20
0.36566299200057983 0.8186677098274231 3.8268325328826904 22 23 33
-1.0693566799163818 0.43903282284736633 3.52759051322937 28 29 39
-0.8689602017402649 -0.3631601929664612 3.4462528228759766 48 49 62
0.4054647982120514 0.5373276472091675 3.795522689819336 59 59 70
-0.8946053981781006 0.5277377963066101 3.520350694656372 41 45 56
0.19797620177268982 0.023939743638038635 3.7266249656677246 66 69 74
-0.2929323613643646 0.031822457909584045 3.601086139678955 45 44 54
-0.11743956804275513 0.9626843929290771 3.7188024520874023 94 95 106
0.1254090666770935 0.05563649535179138 3.7040841579437256 63 64 74
-0.8074044585227966 0.1034255102276802 3.5057101249694824 59 58 70
1.0664628744125366 0.18143469095230103 3.8780601024627686 34 33 42
-1.156368613243103 -0.6311857104301453 3.374521255493164 12 13 24
-0.8962140083312988 1.9100712537765503 3.6296098232269287 53 54 64
-0.6827170252799988 1.9552656412124634 3.7027041912078857 19 20 30
-0.1508152186870575 -0.7977096438407898 3.562331199645996 45 47 54
-0.08935350924730301 1.037563681602478 3.733870506286621 43 44 58
0.7161708474159241 0.7640700936317444 3.868068218231201 50 51 59
-0.6031584143638611 0.3535188138484955 3.5745038986206055 48 49 59
-0.6386079788208008 -1.0118440389633179 3.456859827041626 35 37 45
0.06604839116334915 0.669922411441803 3.7456653118133545 48 48 62
0.4241953492164612 0.6125274300575256 3.783841133117676 25 26 40
-1.1114355325698853 0.9260979890823364 3.495492935180664 52 55 67
1.5418099164962769 1.1663448810577393 4.01768684387207 56 55 64
-0.7198725342750549 -1.2637593746185303 3.408648729324341 50 52 60
-0.4355042278766632 -1.2075440883636475 3.476522445678711 34 34 41
-1.0377659797668457 1.8870044946670532 3.509437322616577 54 56 63
-1.096510410308838 1.9441719055175781 3.604621171951294 40 42 49
-1.1105685234069824 1.9397153854370117 3.5970380306243896 57 58 67
-1.6635910272598267 -1.3126577138900757 4.072560787200928 14 19 38
-0.05900569260120392 1.9576538801193237 3.840224027633667 78 80 88
-0.29811564087867737 1.911803960800171 3.7662949562072754 60 62 71
-0.9338300824165344 1.7720847129821777 3.5750436782836914 64 64 76
-1.3596446514129639 1.7351372241973877 3.5249879360198975 50 52 61
-0.4412652552127838 -1.0381728410720825 3.493321180343628 18 18 24
-1.2526715993881226 -0.8420077562332153 3.3214032649993896 93 94 103
-1.0102192163467407 -0.8349498510360718 3.3816447257995605 35 36 46
-1.017431616783142 -0.8152373433113098 3.3829147815704346 37 39 47
-0.7386748194694519 -0.8186426758766174 3.4546058177948 78 79 88
-0.45988112688064575 -0.8080651164054871 3.5121655464172363 79 80 86
-0.4447753429412842 -0.8042563796043396 3.505439281463623 85 88 93
-0.47120141983032227 -0.7780589461326599 3.5214438438415527 21 23 31
-0.47120049595832825 -0.7780610918998718 3.52144455909729 21 23 31
-0.4712030589580536 -0.7780601382255554 3.5214507579803467 21 23 31
0.21716339886188507 -0.7820712327957153 3.6434226036071777 19 21 26
-0.47194820642471313 -0.6698189973831177 3.5080959796905518 3 5 13
-0.6666556596755981 -0.6342881321907043 3.4710404872894287 27 27 35
-1.290631651878357 -0.610940158367157 3.3388760089874268 87 88 98
-1.3472894430160522 1.5376789569854736 3.5305275917053223 85 87 95
-0.9780809283256531 -0.6223227977752686 3.401276111602783 44 46 55
-0.9480903148651123 -0.6229062080383301 3.4128031730651855 16 17 26
-0.5276085138320923 -0.6089245676994324 3.5038866996765137 48 48 56
0.07702285051345825 -0.6080672740936279 3.6231069564819336 35 36 41
-0.2073344588279724 -0.5974023938179016 3.594912052154541 20 23 28
-0.31238600611686707 1.5254545211791992 3.7301878929138184 43 45 53
-1.2712892293930054 -0.4361092150211334 3.3824400901794434 26 27 37
0.50154048204422 1.5607929229736328 3.9017467498779297 49 49 57
-1.1515741348266602 -0.4320347309112549 3.3858296871185303 25 27 36
-1.1651043891906738 -0.43625444173812866 3.4255306720733643 56 58 67
-1.3490060567855835 1.3431743383407593 3.4985511302948 9 10 19
-1.0943411588668823 -0.4236975610256195 3.3999276161193848 50 52 62
-1.0746712684631348 -0.4277624189853668 3.4117271900177 33 33 43
-1.0857317447662354 -0.4175775349140167 3.4029014110565186 12 13 23
-1.001489520072937 -0.4141373634338379 3.4092295169830322 93 94 103
-1.0827583074569702 -0.41123729944229126 3.403578519821167 100 104 113
-1.0277317762374878 -0.41909533739089966 3.4511375427246094 54 55 65
1.2780967950820923 1.5332937240600586 4.049849033355713 50 50 57
-0.8151318430900574 1.3593939542770386 3.617079496383667 72 73 83
-0.24020035564899445 -0.4206748306751251 3.59194278717041 47 49 57
-0.2068955898284912 1.4124653339385986 3.747074604034424 17 17 28
-0.5698337554931641 1.3489702939987183 3.660024881362915 56 57 65
-0.1953728199005127 -0.40333545207977295 3.5978293418884277 31 33 41
-0.5152226090431213 1.3256640434265137 3.6550164222717285 64 65 73
-0.5302512645721436 1.3191454410552979 3.6644065380096436 64 64 73
0.23123039305210114 1.3513679504394531 3.7894861698150635 23 23 32
0.6990728974342346 1.3582508563995361 3.912444591522217 20 21 29
-1.0781116485595703 1.1582143306732178 3.544039011001587 36 38 47
-1.078079342842102 1.1582000255584717 3.5439164638519287 36 38 47
-1.011511206626892 -0.23318544030189514 3.4454288482666016 47 49 56
-0.05413108691573143 1.1819543838500977 3.755742073059082 76 75 83
0.048261504620313644 -0.2175164520740509 3.668891429901123 28 28 34
-0.8025847673416138 1.1189420223236084 3.592107057571411 80 82 89
-0.7797061800956726 -0.20666231215000153 3.4840924739837646 13 13 23
0.5374811887741089 1.1938121318817139 3.8829874992370605 75 77 85
-1.0665597915649414 -0.19025862216949463 3.419166326522827 22 23 34
-0.27486929297447205 1.1333565711975098 3.6955673694610596 76 76 85
0.5155221819877625 1.195959210395813 3.937619209289551 84 86 94
-1.2382937669754028 -0.18918786942958832 3.382725954055786 72 73 85
0.25536635518074036 1.1404287815093994 3.8015851974487305 33 33 40
-0.7699928283691406 -0.18410354852676392 3.490797758102417 66 66 75
0.2788023054599762 -0.195638969540596 3.732856273651123 42 41 49
1.061079502105713 1.1733125448226929 3.978846788406372 5 5 13
0.8189220428466797 -0.16225233674049377 3.8034963607788086 24 25 31
-0.9919095635414124 -0.0656648799777031 3.444389581680298 34 36 51
-1.050980567932129 -0.02215287648141384 3.4458391666412354 92 93 102
-1.032205581665039 -0.0239673163741827 3.4530580043792725 13 12 21
-1.3570950031280518 0.9678522944450378 3.4604177474975586 10 11 19
-1.3375918865203857 0.9532004594802856 3.4621660709381104 86 88 96
-1.3375933170318604 0.9532004594802856 3.4621691703796387 86 88 96
-0.792296290397644 0.9794366955757141 3.5759387016296387 96 99 108
-0.8001258373260498 0.9726595878601074 3.580564498901367 31 33 42
-0.8253058195114136 0.9707137942314148 3.5886006355285645 43 45 53
-1.224927306175232 -0.013777971267700195 3.390819549560547 78 80 91
-0.5025737285614014 -0.01010678056627512 3.560694932937622 14 14 22
-0.4904177188873291 0.9578723311424255 3.6261253356933594 102 103 111
-0.28298377990722656 0.9751186370849609 3.708862066268921 18 20 28
-0.5214962363243103 0.9577488303184509 3.6510391235351562 59 61 68
1.7150400876998901 0.007289480417966843 4.009761333465576 26 26 33
-0.928712785243988 -0.0022395807318389416 3.444000720977783 53 55 63
0.011711985804140568 0.9676183462142944 3.7590370178222656 78 79 88
1.715085744857788 0.007281122729182243 4.009857177734375 26 26 33
0.03413661941885948 0.0029853887390345335 3.692859411239624 40 39 45
-0.529733419418335 0.9339621663093567 3.637237548828125 30 31 37
1.2961153984069824 0.9883342981338501 4.019864559173584 9 10 16
-1.034624695777893 0.11352050304412842 3.4667911529541016 95 97 105
1.2962040901184082 0.9883733987808228 4.020108222961426 9 10 16
-1.030674695968628 0.1624017208814621 3.49249529838562 21 21 28
-0.5178602337837219 0.7947155833244324 3.625673532485962 23 24 33
-0.7535166144371033 0.16982147097587585 3.5271425247192383 13 14 19
-0.4926268458366394 0.1792421042919159 3.542308807373047 95 97 105
-1.0589746236801147 0.7543194890022278 3.5138282775878906 21 21 29
-1.0779539346694946 0.7545434832572937 3.4915425777435303 114 115 123
-0.5898785591125488 0.17569008469581604 3.551370620727539 56 55 64
-0.49262315034866333 0.17923782765865326 3.5422451496124268 95 97 105
1.5713406801223755 0.8444522023200989 4.0438971519470215 12 14 22
-0.4926327168941498 0.17924001812934875 3.542274236679077 95 97 105
-0.7257987260818481 0.19218571484088898 3.5297040939331055 22 25 33
-0.7194930911064148 0.1955440193414688 3.531235933303833 82 84 93
-0.8330690264701843 0.1936676800251007 3.5008952617645264 46 49 64
-0.6254677772521973 0.20058123767375946 3.54252552986145 97 99 110
0.2621646523475647 0.77211993932724 3.7967379093170166 41 41 47
-0.2635495364665985 0.7458792328834534 3.682495355606079 73 73 80
1.0571074485778809 0.7915078997612 3.949073314666748 25 25 32
1.5749682188034058 0.8015723824501038 4.05104398727417 10 9 14
1.8204289674758911 0.7792648673057556 4.097577095031738 14 14 22
-0.6740766167640686 0.3454817831516266 3.5512099266052246 18 20 28
-0.674076497554779 0.34548336267471313 3.55121111869812 18 20 28
0.937619149684906 0.380573570728302 3.8813071250915527 81 81 91
-1.3876540660858154 0.5634481310844421 3.4283041954040527 81 83 92
-1.268046498298645 0.3411710560321808 3.438704490661621 73 74 84
-0.8116029500961304 0.5797167420387268 3.557509422302246 20 22 30
-1.2075575590133667 0.5575196743011475 3.457970142364502 68 70 80
0.0351620651781559 0.37764281034469604 3.659926176071167 69 71 79
0.035765308886766434 0.38382574915885925 3.7239902019500732 41 43 51
0.27111101150512695 0.5933868885040283 3.7727954387664795 35 37 45
1.0752532482147217 0.4127405285835266 3.921799898147583 22 24 30
0.2532518208026886 0.5852431058883667 3.7834315299987793 59 59 65
0.035767246037721634 0.38383257389068604 3.723991632461548 41 43 51
-1.0340584516525269 0.5406310558319092 3.4977500438690186 84 85 93
1.0752297639846802 0.4127562642097473 3.9218292236328125 22 24 30
1.0752545595169067 0.4127391278743744 3.9217939376831055 22 24 30
-1.2214034795761108 0.36201363801956177 3.450441598892212 78 78 88
-1.043507695198059 0.37254583835601807 3.49241042137146 43 44 51
1.8172658681869507 0.6142675280570984 4.078220844268799 8 8 15
1.8172465562820435 0.6142575144767761 4.078179836273193 8 8 15
0.012801011092960835 0.555859386920929 3.726942777633667 56 56 62
-1.213562250137329 0.4041202962398529 3.448800802230835 97 98 111
0.03381660580635071 0.5537257790565491 3.726590156555176 95 96 102
-1.1164439916610718 2.137852430343628 3.623492956161499 47 48 56
0.5682557821273804 0.9790619611740112 3.8694512844085693 87 87 93
1.0433359146118164 0.4083540737628937 3.8689029216766357 45 47 55
-0.4075768291950226 0.3832317292690277 3.612853527069092 75 76 84
-0.6301480531692505 0.5646162629127502 3.579223155975342 2 3 10
-0.42809778451919556 -0.8035831451416016 3.509195566177368 57 58 64
-0.34989133477211 -0.805906355381012 3.5282769203186035 19 19 27
-0.009482310153543949 1.7401474714279175 3.8233184814453125 49 51 59
-0.7288240790367126 0.22466455399990082 3.5291295051574707 11 12 25
-0.649235188961029 0.2136690467596054 3.5451083183288574 59 60 74
-0.32149145007133484 0.7523402571678162 3.674647808074951 74 74 84
-0.83135986328125 -0.6153216361999512 3.429030179977417 38 39 46
0.2613378167152405 0.7818449139595032 3.800400972366333 76 77 83
0.5364065766334534 0.197896808385849 3.808590888977051 34 34 43
0.09073090553283691 0.19115270674228668 3.7247371673583984 93 92 102
0.36566582322120667 0.8186600804328918 3.826814889907837 22 23 33
1.1116570234298706 -0.5758967399597168 3.8578155040740967 36 36 41
-0.3478216230869293 1.5408403873443604 3.722116231918335 28 29 38
-1.3598227500915527 0.8104463815689087 3.441478967666626 51 53 67
1.5770998001098633 0.9595412015914917 4.047278881072998 34 35 42
-0.4808433949947357 0.1592714637517929 3.6291918754577637 40 42 51
-0.2519373297691345 0.029621226713061333 3.6052896976470947 64 63 72
-0.2929478883743286 0.03182178735733032 3.6011271476745605 45 44 54
0.21963313221931458 1.549363136291504 3.8438265323638916 42 44 52
0.2165037840604782 0.9611342549324036 3.736924171447754 56 55 65
-1.2166446447372437 -0.4279751777648926 3.3591771125793457 102 102 113
-1.3474493026733398 1.398713231086731 3.500565767288208 24 24 33
-0.17609702050685883 -0.00971258245408535 3.624692440032959 51 50 59
-0.17609307169914246 -0.009714114479720592 3.6246891021728516 51 50 59
-1.1124482154846191 0.9259799122810364 3.4970736503601074 52 55 67
0.9591266512870789 1.5554907321929932 3.989656686782837 6 6 15
-0.2595270276069641 1.4080150127410889 3.72127628326416 57 58 69
-1.3375937938690186 0.9531993269920349 3.462169885635376 86 88 96
-0.5888599753379822 -0.41226643323898315 3.5422279834747314 60 63 71
-0.9240311980247498 -0.020222943276166916 3.4862515926361084 71 72 82
0.11341150850057602 -0.022100921720266342 3.7034666538238525 51 52 61
-0.7638123035430908 -0.026338309049606323 3.514756679534912 3 4 12
-0.8163444399833679 -0.02243763767182827 3.4923839569091797 46 49 58
-0.4211219251155853 -0.4015379846096039 3.527355670928955 82 83 94
-0.3169991672039032 -0.39902883768081665 3.549018383026123 52 51 60
-1.0064548254013062 -0.16471850872039795 3.4473094940185547 45 46 60
0.9487193822860718 1.1735118627548218 3.9580342769622803 66 66 76
0.21378274261951447 -0.19422155618667603 3.702859401702881 17 18 25
-0.2834167182445526 -0.4015723466873169 3.5695559978485107 22 23 30
0.12258920073509216 1.1591215133666992 3.7660577297210693 6 5 13
-0.737327516078949 -0.21145187318325043 3.490246534347534 78 79 88
-0.5272039771080017 1.355628490447998 3.6907198429107666 73 75 82
0.10168302804231644 -0.22699959576129913 3.657583713531494 58 59 67
-1.0371274948120117 -0.22637715935707092 3.4428114891052246 25 26 35
-1.0456535816192627 -0.2261263132095337 3.4120593070983887 23 24 32
-1.071601390838623 -0.2240547090768814 3.4290969371795654 110 113 121
-0.8689612150192261 -0.363160640001297 3.4462547302246094 48 49 62
-1.0694303512573242 1.2453633546829224 3.551440477371216 106 107 118
0.5465738773345947 1.9190016984939575 3.923055410385132 33 34 43
-1.1319116353988647 -1.0154805183410645 3.3416669368743896 98 96 106
-1.2352707386016846 -1.0158307552337646 3.3083009719848633 68 68 75
-0.8952352404594421 1.9093518257141113 3.6255042552948 36 37 47
-0.5609384775161743 -1.21067476272583 3.427795648574829 34 35 43
1.5974750518798828 0.5794445276260376 4.031423091888428 39 39 45
-1.0693453550338745 0.4387545585632324 3.5275795459747314 28 29 39
-1.284128189086914 0.395647794008255 3.4140679836273193 54 57 73
1.3053686618804932 0.6040982007980347 3.9755406379699707 45 45 52
-1.202088475227356 -0.028447195887565613 3.4162395000457764 120 122 132
-0.36445799469947815 0.7511278986930847 3.655973434448242 66 66 77
-0.39723077416419983 0.7629968523979187 3.661939859390259 32 31 40
-1.3263187408447266 -0.032476697117090225 3.398648500442505 46 48 56
-1.1875232458114624 -1.0091311931610107 3.298006772994995 53 50 60
-1.3172413110733032 0.7483125925064087 3.4582340717315674 88 88 94
-1.03127121925354 0.559233546257019 3.5106041431427 74 75 85
-0.1459142416715622 -0.009202667511999607 3.5357813835144043 89 88 97
-1.298593282699585 -0.03223864361643791 3.3276286125183105 56 58 67
-0.6001526117324829 -0.017021464183926582 3.5379135608673096 41 41 49
-1.1817635297775269 -0.42734724283218384 3.34086537361145 64 65 75
-0.8710519075393677 0.36998191475868225 3.5314292907714844 54 55 64
-0.4489460289478302 0.7599706649780273 3.636143445968628 100 99 109
-1.4175697565078735 1.3273708820343018 3.462367057800293 62 62 73
-0.7030729055404663 -1.4209189414978027 3.4072389602661133 42 43 51
-0.7183000445365906 -1.2652156352996826 3.4059789180755615 50 52 60
-0.44126370549201965 -1.0381678342819214 3.493317127227783 18 18 24
-0.7322372198104858 -1.014694333076477 3.4334867000579834 84 86 94
-1.0102063417434692 -0.8349440097808838 3.381624221801758 35 36 46
-1.0019936561584473 -0.8081067204475403 3.397458791732788 38 39 47
-0.7252141237258911 -0.8173103332519531 3.457247018814087 4 5 13
-0.4485577940940857 -0.8069993853569031 3.51418137550354 80 83 88
-0.3499159812927246 -0.8059156537055969 3.528323173522949 19 19 27
-0.4712022542953491 -0.7780589461326599 3.521446466445923 21 23 31
-1.0003926753997803 -0.7535542249679565 3.3931424617767334 49 50 60
0.8839141726493835 -0.7957404851913452 3.7805016040802 16 15 21
1.1306495666503906 -0.7660683989524841 3.845604181289673 35 36 41
-1.0268423557281494 -0.6414644718170166 3.4003517627716064 57 58 69
-0.9480830430984497 -0.6229043006896973 3.4127919673919678 16 17 26
-0.7656819224357605 -0.6133824586868286 3.482527017593384 41 41 48
0.8616920113563538 -0.5745832324028015 3.787355899810791 22 23 29
-1.2712894678115845 -0.4361092150211334 3.3824408054351807 26 27 37
-1.151581883430481 -0.43203938007354736 3.385859489440918 25 27 36
-1.1212337017059326 -0.42861780524253845 3.388645648956299 28 29 39
-1.0746790170669556 -0.42776456475257874 3.411743640899658 33 33 43
-1.1054577827453613 -0.4126519560813904 3.3947560787200928 18 20 30
-1.095238447189331 -0.414955735206604 3.3987889289855957 91 92 102
-1.0746726989746094 -0.4277626872062683 3.411724328994751 33 33 43
-0.2834448516368866 -0.4015796184539795 3.5696306228637695 22 23 30
-1.1350133419036865 -0.3759385645389557 3.3916730880737305 72 73 84
1.104584813117981 -0.36873987317085266 3.8596086502075195 35 35 40
-1.0893257856369019 -0.21345141530036926 3.4282443523406982 40 41 51
-1.0665435791015625 -0.19025543332099915 3.4191408157348633 22 23 34
-0.23658813536167145 -0.19309769570827484 3.5594658851623535 34 37 42
-0.24064500629901886 -0.19753175973892212 3.6216931343078613 7 8 13
0.27625855803489685 -0.19599491357803345 3.7457213401794434 47 46 54
-1.3352566957473755 -0.03266233950853348 3.377202272415161 79 80 90
-1.0514353513717651 -0.021489422768354416 3.4431064128875732 94 96 106
-0.6001516580581665 -0.017021622508764267 3.5379114151000977 41 41 49
-0.17359226942062378 -0.008659353479743004 3.573054552078247 59 58 67
0.8362491130828857 -0.0023119356483221054 3.8844709396362305 36 37 44
-0.2929394841194153 0.03182082250714302 3.6010913848876953 45 44 54
-0.2519313097000122 0.029622146859765053 3.605210781097412 64 63 72
-0.8777179718017578 0.06931065768003464 3.4738802909851074 68 68 80
-0.4955507218837738 0.15519198775291443 3.571967124938965 22 23 30
0.29281118512153625 0.1729080229997635 3.7417478561401367 69 71 79
-1.2934273481369019 0.16253195703029633 3.4142467975616455 7 7 16
-1.3140281438827515 0.16296730935573578 3.4099738597869873 14 14 23
0.27724823355674744 0.19027671217918396 3.759059429168701 88 88 98
-0.4926268458366394 0.17923851311206818 3.542253255844116 95 97 105
0.29495564103126526 0.19429023563861847 3.762803554534912 18 19 27
-0.6033143997192383 0.18613527715206146 3.54111909866333 5 5 14
-0.7236029505729675 0.18996533751487732 3.5255281925201416 24 26 34
-0.8330844044685364 0.19366678595542908 3.5009517669677734 46 49 64
-0.8330771923065186 0.19366687536239624 3.5009281635284424 46 49 64
-0.5037083625793457 0.25261569023132324 3.5792629718780518 51 52 62
0.2955475449562073 0.36250150203704834 3.7774007320404053 68 68 77
0.9375927448272705 0.38049793243408203 3.8841710090637207 81 81 91
0.5462778806686401 0.3923379182815552 3.8068366050720215 71 72 79
1.075252652168274 0.412740558385849 3.921795129776001 22 24 30
-0.5033427476882935 0.39992231130599976 3.595486879348755 18 20 28
-1.2841360569000244 0.39564988017082214 3.414079427719116 54 57 73
0.04849335551261902 0.4517691433429718 3.7300596237182617 17 19 31
1.5997165441513062 0.5814198851585388 4.044729709625244 41 41 47
0.5588058829307556 0.5594707727432251 3.8045477867126465 40 40 45
0.03577830642461777 0.5508091449737549 3.7141478061676025 96 97 103
0.0820237472653389 0.5563529133796692 3.7283153533935547 72 72 84
1.8172645568847656 0.6142679452896118 4.07821798324585 8 8 15
-0.5282164812088013 0.5479543805122375 3.5991098880767822 72 75 83
-0.5010818839073181 0.5488414764404297 3.607697010040283 87 89 95
-0.6713187098503113 0.56470787525177 3.5683956146240234 8 9 16
0.253253310918808 0.5852434635162354 3.783435821533203 59 59 65
-1.033086895942688 0.5592703819274902 3.5123558044433594 74 75 85
-1.3876636028289795 0.563457727432251 3.4283511638641357 81 83 92
1.8204302787780762 0.7792619466781616 4.097584247589111 14 14 22
1.5517723560333252 0.7867568135261536 3.991835594177246 46 47 52
0.23312406241893768 0.7591928839683533 3.798229455947876 19 20 28
-0.2624478042125702 0.7396746873855591 3.67486310005188 75 78 84
0.2627177834510803 0.770804762840271 3.7939064502716064 40 40 46
-0.2946072816848755 0.7472485303878784 3.664398431777954 74 75 85
0.5360071659088135 0.7884436845779419 3.8574209213256836 8 9 15
-0.3972287178039551 0.7629954218864441 3.6619346141815186 32 31 40
-0.004249840043485165 0.7666670083999634 3.685541868209839 85 86 93
-0.004311020020395517 0.778175413608551 3.740879535675049 84 84 92
1.571330189704895 0.844440221786499 4.043862819671631 12 14 22
-0.44915011525154114 0.7600868940353394 3.6366541385650635 100 99 109
-1.3242946863174438 0.730097770690918 3.457714080810547 87 90 95
0.21512286365032196 0.7986950278282166 3.7820494174957275 73 75 84
1.5764744281768799 0.9578717350959778 4.043598651885986 37 38 45
1.7824040651321411 0.9863171577453613 4.049976825714111 34 33 41
-0.09134571254253387 0.955826997756958 3.684337854385376 86 85 97
-0.8253065347671509 0.9707143306732178 3.58860182762146 43 45 53
-0.7973265051841736 0.9523047208786011 3.536667823791504 72 74 82
-1.05776846408844 0.9509578943252563 3.540661334991455 61 63 71
-0.7957863211631775 0.9816473126411438 3.5825135707855225 96 99 108
-1.3582569360733032 0.9526479840278625 3.4647841453552246 83 84 92
-0.8114096522331238 0.9998912811279297 3.5860698223114014 19 19 29
-1.3576539754867554 0.9683055877685547 3.463324785232544 19 20 28
-1.3487881422042847 0.9766335487365723 3.450650215148926 60 62 70
1.5500470399856567 1.1828593015670776 4.081807613372803 76 76 85
0.9486921429634094 1.176740288734436 3.9673280715942383 41 41 52
0.2548484802246094 1.140815019607544 3.804055690765381 33 33 40
-0.8008866310119629 1.1174869537353516 3.587723970413208 86 88 96
0.004407012835144997 1.1665021181106567 3.7679269313812256 10 10 18
-0.9413125514984131 1.141385555267334 3.5496973991394043 107 108 119
0.5304413437843323 1.3388408422470093 3.8782167434692383 58 57 66
-0.8151363134384155 1.359402060508728 3.617091655731201 72 73 83
-0.20689281821250916 1.4124621152877808 3.7470815181732178 17 17 28
-0.20692282915115356 1.4125568866729736 3.7471816539764404 17 17 28
1.0182087421417236 1.5593341588974 4.004445552825928 7 7 16
0.24822723865509033 1.56568443775177 3.899266242980957 66 68 75
-1.3477274179458618 1.4348927736282349 3.500431537628174 30 31 41
-0.9061755537986755 1.5320292711257935 3.608640193939209 4 4 13
-0.6716002821922302 1.5545170307159424 3.6518499851226807 9 11 21
0.48265546560287476 1.7261295318603516 3.914729118347168 33 32 41
-1.2059961557388306 1.543967366218567 3.495422124862671 63 64 75
-0.01879948005080223 1.7057099342346191 3.7910664081573486 30 32 41
-0.04040297120809555 1.7243025302886963 3.813979387283325 44 45 54
0.23406048119068146 1.915817379951477 3.8832709789276123 10 11 19
-0.933978259563446 1.772233486175537 3.575291872024536 64 64 76
-0.05908309295773506 1.987857460975647 3.8971035480499268 36 38 46
-0.8319377899169922 1.9095509052276611 3.652916193008423 58 58 67
0.7366306185722351 2.1597704887390137 4.003559112548828 25 25 32
0.7366817593574524 2.159881353378296 4.003684043884277 25 25 32
-1.3545196056365967 1.9302220344543457 3.5533394813537598 42 43 51
-0.028221409767866135 2.1389942169189453 3.849696397781372 43 44 53
-1.0982332229614258 2.1272151470184326 3.627695322036743 32 33 41
-1.1164557933807373 2.1378650665283203 3.623514175415039 47 48 56
-1.3748259544372559 2.1341140270233154 3.5536766052246094 24 24 31
-0.7030779719352722 -1.4209229946136475 3.407247543334961 42 43 51
-0.8674169182777405 -1.0192817449569702 3.429931640625 68 70 78
-0.715671718120575 -1.0069090127944946 3.4334142208099365 71 73 81
-0.18751047551631927 -0.9998937845230103 3.557959794998169 23 23 29
-1.0174250602722168 -0.8152335286140442 3.38289475440979 37 39 47
-1.0019893646240234 -0.8081035614013672 3.3974437713623047 38 39 47
-0.7386892437934875 -0.8186438679695129 3.454632043838501 78 79 88
-0.46091917157173157 -0.809921383857727 3.5201239585876465 74 75 81
0.0683552697300911 -0.7776867151260376 3.6092588901519775 36 37 43
0.8839127421379089 -0.7957361936569214 3.7805049419403076 16 15 21
-0.7444890141487122 -0.6055819988250732 3.475828170776367 26 27 32
-0.20719014108181 -0.5973696112632751 3.5945050716400146 20 23 28
0.6024567484855652 -0.6104946136474609 3.7310590744018555 54 55 60
0.30122479796409607 -0.5832988023757935 3.680943012237549 58 58 64
-1.2347187995910645 -0.432158499956131 3.3827900886535645 57 57 68
-1.2788443565368652 -0.4582882523536682 3.573413372039795 38 40 49
-1.0843459367752075 -0.41971105337142944 3.3980677127838135 22 23 33
-1.0746750831604004 -0.4277633726596832 3.411731719970703 33 33 43
-1.1093195676803589 -0.4185103476047516 3.4045915603637695 29 29 39
-1.101106882095337 -0.41417616605758667 3.4076108932495117 91 92 102
0.32390788197517395 -0.4079480469226837 3.7128958702087402 61 63 70
0.5893154144287109 -0.39099305868148804 3.7563114166259766 6 7 14
-1.0608994960784912 -0.2235911786556244 3.3819899559020996 76 77 86
-1.0655491352081299 -0.1920241117477417 3.416060447692871 9 10 21
0.8221663236618042 -0.17953495681285858 3.812345266342163 41 41 47
1.36375093460083 -0.17418639361858368 3.936673402786255 20 20 25
1.7367547750473022 -0.08685764670372009 3.975229501724243 71 71 78
-0.9919085502624512 -0.06566492468118668 3.444387674331665 34 36 51
-0.7953367233276367 -0.043845899403095245 3.4990179538726807 45 45 56
-0.7651140093803406 -0.04371156543493271 3.4904375076293945 83 83 93
-1.0537464618682861 -0.0215175561606884 3.448122978210449 85 86 96
-0.5025816559791565 -0.010107774287462234 3.5607125759124756 14 14 22
-0.19243313372135162 -0.008146621286869049 3.620582103729248 97 96 105
0.8409842252731323 -0.001183358603157103 3.8305153846740723 7 6 14
1.7150893211364746 0.007280570454895496 4.009878158569336 26 26 33
-0.25192904472351074 0.02962540276348591 3.6052446365356445 64 63 72
1.6001818180084229 0.03411293402314186 3.9297196865081787 23 25 29
-1.0391300916671753 0.1437915414571762 3.4771292209625244 78 78 85
0.5670629739761353 0.1715656816959381 3.7968344688415527 63 65 73
1.0900455713272095 0.18510201573371887 3.91426682472229 12 13 19
-0.6040705442428589 0.18493478000164032 3.5409603118896484 9 8 18
-0.23221848905086517 0.18967652320861816 3.6571567058563232 30 32 39
-0.03652860224246979 0.1909010261297226 3.672053337097168 92 91 100
0.2949554920196533 0.19429081678390503 3.7628040313720703 18 19 27
0.8177285194396973 0.20703580975532532 3.85410213470459 23 23 30
-0.8330735564231873 0.19366420805454254 3.5009193420410156 46 49 64
-0.5037095546722412 0.25261661410331726 3.579268455505371 51 52 62
-0.7609519958496094 0.3414742052555084 3.536529541015625 49 49 57
0.27327242493629456 0.36124202609062195 3.7735257148742676 40 42 50
0.2979871332645416 0.3586716055870056 3.764509916305542 67 67 76
0.03576550632715225 0.38382694125175476 3.723991632461548 41 43 51
1.075251579284668 0.4127398431301117 3.9217803478240967 22 24 30
0.03326859697699547 0.548523485660553 3.7204532623291016 83 82 89
1.8172645568847656 0.614267885684967 4.07821798324585 8 8 15
-0.6466385722160339 0.5506793260574341 3.564774990081787 12 16 26
0.25325295329093933 0.5852428674697876 3.783432722091675 59 59 65
-0.8163167238235474 0.567329466342926 3.5492348670959473 90 92 102
1.8204325437545776 0.7792640924453735 4.097588539123535 14 14 22
0.7804515957832336 0.7635605335235596 3.893097400665283 6 7 11
0.5360081791877747 0.7884424924850464 3.8574295043945312 8 9 15
-0.8137423396110535 0.7374248504638672 3.5517802238464355 11 11 18
0.07381593436002731 0.769050121307373 3.7357590198516846 70 70 78
-1.0844323635101318 0.7564952373504639 3.501845598220825 99 100 109
1.7908660173416138 0.9980936646461487 4.111293792724609 37 36 44
1.8188984394073486 0.9911523461341858 4.087165832519531 65 65 72
1.2715747356414795 0.985029399394989 3.9971890449523926 66 67 75
0.7695556879043579 0.9833171367645264 3.9122986793518066 25 26 34
0.01169312559068203 0.96763676404953 3.7591702938079834 78 79 88
-1.0612516403198242 0.921988308429718 3.519026279449463 81 81 89
-0.2829858064651489 0.9751203060150146 3.708869457244873 18 20 28
-1.057770013809204 0.9509587287902832 3.540663719177246 61 63 71
-1.3581050634384155 0.9514082074165344 3.464592218399048 104 105 113
1.2984836101531982 1.1459698677062988 4.013678073883057 45 46 53
1.5524227619171143 1.1866317987442017 4.097531795501709 44 44 52
0.25496646761894226 1.1383873224258423 3.8032329082489014 30 29 37
0.49866780638694763 1.174172282218933 3.863476276397705 96 97 105
0.004405422601848841 1.166503667831421 3.767932891845703 10 10 18
-0.5522397756576538 1.156630516052246 3.6403114795684814 92 94 101
-0.5399655103683472 1.1663037538528442 3.659550666809082 12 11 18
-1.078109860420227 1.1582120656967163 3.5440196990966797 36 38 47
0.53080815076828 1.329588532447815 3.8678860664367676 45 46 54
0.50520259141922 1.3349336385726929 3.8729443550109863 40 41 49
0.23467206954956055 1.3703913688659668 3.849478006362915 22 23 31
-0.28427717089653015 1.3541384935379028 3.7217607498168945 38 38 47
1.2773544788360596 1.5208402872085571 4.032715320587158 45 45 52
0.7576478719711304 1.5214722156524658 3.934587001800537 64 64 73
0.5015367269515991 1.560806155204773 3.9017770290374756 49 49 57
-0.2977105677127838 1.5195667743682861 3.7423501014709473 3 5 13
-0.3139511048793793 1.521024465560913 3.727808952331543 44 46 55
-0.841195821762085 1.513074278831482 3.6143360137939453 57 57 68
-1.3668822050094604 1.5016214847564697 3.4876580238342285 46 47 55
1.2845669984817505 1.7546952962875366 4.079798698425293 35 37 45
-1.3473109006881714 1.5376888513565063 3.53055477142334 85 87 95
0.7539800405502319 1.9225540161132812 3.984469175338745 14 14 23
-1.3594938516616821 1.7349722385406494 3.5247886180877686 50 52 61
-0.9339423775672913 1.7721996307373047 3.5752360820770264 64 64 76
-0.9691548347473145 1.80716872215271 3.636660575866699 72 72 84
-0.03301163390278816 2.106873035430908 3.8317790031433105 45 47 55
0.21952523291110992 2.152844190597534 3.9046380519866943 6 7 15
-0.8633264899253845 2.1391141414642334 3.6667556762695312 97 99 108
-1.1164441108703613 2.1378531455993652 3.6234941482543945 47 48 56
-1.3748412132263184 2.1341278553009033 3.553696393966675 24 24 31
-1.3841887712478638 2.1192829608917236 3.521415948867798 59 58 66
-0.703096866607666 -1.4209433794021606 3.4073004722595215 42 43 51
-0.7354770302772522 -0.9928593039512634 3.42217755317688 22 25 32
0.09697079658508301 -1.0190505981445312 3.603407382965088 22 23 28
0.3278319835662842 -0.9845795631408691 3.6563005447387695 55 55 61
-1.0019868612289429 -0.8081017136573792 3.397435188293457 38 39 47
-0.18187321722507477 -0.8244526386260986 3.5484886169433594 46 46 52
-1.0261174440383911 -0.6461696624755859 3.3938510417938232 53 55 65
-0.7746638059616089 -0.618659257888794 3.4992778301239014 39 39 45
-0.7444850206375122 -0.6055809259414673 3.475820541381836 26 27 32
-0.20875993371009827 -0.5977053046226501 3.598930597305298 20 23 28
0.6016657948493958 -0.6117879152297974 3.7386465072631836 51 51 56
0.8616911768913269 -0.5745841264724731 3.7873737812042236 22 23 29
-1.1851128339767456 -0.44343751668930054 3.4843266010284424 27 28 38
-1.1118587255477905 -0.4151823818683624 3.4036812782287598 25 27 37
-1.0903143882751465 -0.4110264480113983 3.371145725250244 48 50 60
-0.7559374570846558 -0.20383605360984802 3.4402458667755127 47 48 57
-1.066548466682434 -0.19025686383247375 3.419156074523926 22 23 34
0.2982408404350281 -0.18673458695411682 3.7487635612487793 6 8 12
0.822166383266449 -0.17953428626060486 3.812344551086426 41 41 47
-0.7961522340774536 -0.04629867896437645 3.4943196773529053 43 45 56
-1.0607935190200806 -0.024698957800865173 3.4347736835479736 116 117 127
-0.1976771354675293 -0.008638298138976097 3.627150535583496 99 98 107
0.8408341407775879 -0.0018085765186697245 3.8345277309417725 8 7 16
0.5620272159576416 0.007395502645522356 3.801035165786743 23 23 29
1.0907988548278809 0.018732858821749687 3.887856960296631 15 15 21
1.6002150774002075 0.03517357259988785 3.929798126220703 24 26 31
-0.8882895708084106 0.09085135161876678 3.4827001094818115 40 39 50
0.5610256791114807 0.16533714532852173 3.790592670440674 16 17 24
-1.293760061264038 0.16262154281139374 3.4146957397460938 7 7 16
-0.7535160183906555 0.1698213368654251 3.52713942527771 13 14 19
-0.5037103295326233 0.25261619687080383 3.5792770385742188 51 52 62
0.2672673463821411 0.3642619252204895 3.804029703140259 36 38 47
1.075258731842041 0.41273897886276245 3.9218108654022217 22 24 30
-1.038489580154419 0.5376320481300354 3.5097763538360596 69 71 79
-0.6436377167701721 0.5506600141525269 3.55861759185791 12 16 26
0.2532530725002289 0.5852429270744324 3.7834324836730957 59 59 65
-0.3054995834827423 0.5779352784156799 3.6518328189849854 92 93 101
-0.2649874985218048 0.5766036510467529 3.6468608379364014 83 82 90
-0.7973229885101318 0.5712491869926453 3.5604124069213867 6 5 14
0.25948914885520935 0.7389693856239319 3.7815983295440674 63 64 71
0.7804499864578247 0.763560950756073 3.8930931091308594 6 7 11
1.5749140977859497 0.8015654683113098 4.0507659912109375 10 9 14
1.0571073293685913 0.7915074825286865 3.9490725994110107 25 25 32
0.09925826638936996 0.7742497324943542 3.7464513778686523 84 86 94
1.2961955070495605 0.9883726835250854 4.020092010498047 9 10 16
0.7428423762321472 0.9858234524726868 3.9069454669952393 37 39 47
-0.8253127932548523 0.9707186818122864 3.5886170864105225 43 45 53
1.0326334238052368 1.1916005611419678 4.024993896484375 47 48 57
0.25493669509887695 1.1389594078063965 3.8034138679504395 30 29 37
0.528782069683075 1.3281100988388062 3.8679184913635254 47 47 56
-1.3477298021316528 1.4348928928375244 3.500438690185547 30 31 41
-0.007343675941228867 1.5458799600601196 3.794421434402466 10 10 19
-1.3755419254302979 1.5071394443511963 3.4996912479400635 46 47 56
1.284566879272461 1.754693627357483 4.079796314239502 35 37 45
0.7338830828666687 1.7549370527267456 3.9624600410461426 75 77 86
-0.01608933135867119 1.7015496492385864 3.781402111053467 32 34 42
-1.1135317087173462 1.70914888381958 3.5681841373443604 43 42 50
-1.080188512802124 1.7347525358200073 3.6018450260162354 67 68 76
-0.8355570435523987 1.911428689956665 3.6675541400909424 45 45 53
-0.03539716452360153 2.113469123840332 3.8443329334259033 41 43 51
-0.8670880198478699 2.1443943977355957 3.6737914085388184 88 90 99
-0.31165391206741333 2.308626890182495 3.7960407733917236 62 64 73
-0.09678176045417786 2.3422772884368896 3.826809883117676 64 66 75
-0.7030929923057556 -1.4209401607513428 3.4072933197021484 42 43 51
-0.7425634860992432 -0.9940584301948547 3.435133934020996 42 44 52
-0.49262601137161255 -0.8030356764793396 3.509437084197998 63 65 73
-0.4610050916671753 -0.809980571269989 3.5207712650299072 74 75 81
0.3486393690109253 -0.8296054005622864 3.6731882095336914 34 33 39
-1.002563714981079 -0.6555477976799011 3.410897731781006 88 89 99
-0.7444707751274109 -0.6055762767791748 3.475797176361084 26 27 32
-1.0225688219070435 -0.39717406034469604 3.433253288269043 10 12 22
0.29824474453926086 -0.1867334395647049 3.7487432956695557 6 8 12
0.8221673369407654 -0.17951470613479614 3.812321424484253 41 41 47
-0.2342967391014099 -0.041043639183044434 3.6300458908081055 36 36 42
-1.057887077331543 -0.019127175211906433 3.4397971630096436 82 83 93
-1.0322215557098389 -0.02396053448319435 3.453080415725708 13 12 21
-0.5025835633277893 -0.010107876732945442 3.5607168674468994 14 14 22
1.71503746509552 0.007293688599020243 4.0097479820251465 26 26 33
0.5620436072349548 0.007391359191387892 3.8011415004730225 23 23 29
1.6289223432540894 0.04024335741996765 3.993942975997925 42 44 48
-0.4939332902431488 0.13498474657535553 3.5685689449310303 96 98 106
0.03576851636171341 0.3838335871696472 3.723985195159912 41 43 51
-1.218040943145752 0.3614473342895508 3.4455440044403076 78 78 88
1.0752588510513306 0.412739098072052 3.9218125343322754 22 24 30
0.027708115056157112 0.5484738945960999 3.7538959980010986 44 45 52
-0.6528438925743103 0.548274040222168 3.5648417472839355 27 30 40
0.26612088084220886 0.5734274387359619 3.719667434692383 71 72 79
-0.8239124417304993 0.5738276839256287 3.555312156677246 62 64 75
1.5749152898788452 0.8015660643577576 4.050774097442627 10 9 14
-0.5287936925888062 0.7654919624328613 3.6297237873077393 38 38 45
-1.0632781982421875 0.9179351925849915 3.523857355117798 72 73 82
-1.0867377519607544 0.9267847537994385 3.510435104370117 19 19 28
-0.30775946378707886 0.963508129119873 3.664762496948242 91 91 101
-0.28298377990722656 0.9751186370849609 3.7088639736175537 18 20 28
0.48896750807762146 1.1849291324615479 3.882766008377075 60 61 69
0.7601947784423828 1.3746938705444336 3.9488093852996826 18 18 25
0.20694893598556519 1.3644895553588867 3.826202630996704 66 67 76
0.23467376828193665 1.3703926801681519 3.849477529525757 22 23 31
-0.2842625677585602 1.354122281074524 3.7217206954956055 38 38 47
-1.3490056991577148 1.3431799411773682 3.4985504150390625 9 10 19
0.759023129940033 1.52173912525177 3.952609062194824 62 62 71
0.501544713973999 1.5607818365097046 3.9017131328582764 49 49 57
-0.0073435138911008835 1.5458794832229614 3.7944207191467285 10 10 19
1.2845672369003296 1.7546958923339844 4.079799175262451 35 37 45
-1.0666202306747437 1.5242741107940674 3.534363269805908 52 54 62
-1.122531533241272 1.7156620025634766 3.582465887069702 41 40 48
-1.0801929235458374 1.734760046005249 3.601858377456665 67 68 76
-0.8361736536026001 1.9090783596038818 3.671243190765381 41 41 49
-1.0965065956115723 1.944169282913208 3.6046228408813477 40 42 49
-0.03141970932483673 2.108430862426758 3.8436431884765625 37 38 48
-0.3164442777633667 2.1512527465820312 3.7961230278015137 11 10 19
-0.8758836388587952 2.156346321105957 3.685844659805298 84 86 95
-1.3748430013656616 2.1341280937194824 3.5537009239196777 24 24 31
-0.9610004425048828 -1.6324719190597534 3.326674699783325 27 27 30
-0.6967064142227173 -1.2567408084869385 3.4192469120025635 47 49 57
-1.0174286365509033 -0.8152348399162292 3.3829147815704346 37 39 47
-1.0019923448562622 -0.8081048727035522 3.3974533081054688 38 39 47
-0.21796908974647522 -0.8389957547187805 3.5458667278289795 40 42 50
-0.491947740316391 -0.8039167523384094 3.49497652053833 82 81 90
-0.4627628028392792 -0.8138461709022522 3.534489154815674 78 80 85
-0.9901328086853027 -0.653312087059021 3.3864927291870117 78 79 89
-0.7544774413108826 -0.6144422888755798 3.522639513015747 55 56 61
-1.03006911277771 -0.39606085419654846 3.440406560897827 16 18 28
-0.4709109663963318 -0.40214231610298157 3.5372426509857178 27 28 35
-1.0126464366912842 -0.26310330629348755 3.4361319541931152 74 76 84
-0.4621914029121399 -0.2532989978790283 3.517256259918213 81 82 90
-0.2406497746706009 -0.19753064215183258 3.621696710586548 7 8 13
0.29823628067970276 -0.1867370754480362 3.7487757205963135 6 8 12
1.3637443780899048 -0.17419055104255676 3.936675786972046 20 20 25
0.30068573355674744 -0.041970569640398026 3.7181358337402344 81 84 89
0.5620430707931519 0.007388923782855272 3.8011462688446045 23 23 29
0.5636680722236633 0.1551957130432129 3.7951619625091553 69 71 79
-0.7535243630409241 0.1698264330625534 3.5271599292755127 13 14 19
-0.6327746510505676 0.17566847801208496 3.5533807277679443 73 75 83
0.03576028719544411 0.38381528854370117 3.7240095138549805 41 43 51
-1.078770637512207 0.3689054846763611 3.4943931102752686 97 98 108
-1.0435068607330322 0.3725450038909912 3.4924066066741943 43 44 51
0.03203137218952179 0.5366823673248291 3.7378225326538086 80 82 90
-1.059118390083313 0.5447672605514526 3.5105535984039307 9 11 19
-0.2572862207889557 0.5726132392883301 3.6256775856018066 71 71 78
-0.5191469788551331 0.9494405388832092 3.6292572021484375 40 42 49
-0.8051924705505371 0.9579113125801086 3.5835776329040527 64 65 73
-0.2712889015674591 1.1165484189987183 3.7087366580963135 57 60 66
