ply
format ascii 1.0
element vertex 112
property float x
property float y
property float z
property uchar red
property uchar green
property uchar blue
end_header
-20.34679412841797 10.285564422607422 41.42500305175781 70 67 79
-18.152231216430664 -4.670266151428223 36.877140045166016 144 146 157
-20.73281478881836 -6.099506378173828 42.335514068603516 95 99 111
-20.94788360595703 -11.523073196411133 42.8596305847168 114 119 134
-21.48653221130371 -9.652902603149414 43.98154830932617 89 89 100
-17.044273376464844 -14.467079162597656 34.95077133178711 103 104 117
-15.681085586547852 11.155871391296387 32.11530303955078 88 83 88
-19.314342498779297 -10.885236740112305 39.75876998901367 110 115 128
-15.937121391296387 -17.29837417602539 32.75762939453125 21 20 21
-17.803974151611328 -7.989499568939209 36.96550750732422 75 75 89
-16.293354034423828 -16.079851150512695 33.840736389160156 97 97 99
-15.056609153747559 -15.50089168548584 31.592628479003906 98 98 104
-15.041239738464355 -15.498778343200684 31.580047607421875 97 97 104
-16.771371841430664 -16.77315330505371 35.60449981689453 37 37 41
-16.771371841430664 -16.77315330505371 35.60449981689453 37 37 41
-20.29798698425293 -7.359151363372803 43.39452362060547 29 30 36
-18.65407943725586 -20.180248260498047 40.12531661987305 88 90 102
-16.685503005981445 -16.834754943847656 36.66923522949219 111 113 118
-17.76032829284668 -18.810482025146484 39.207801818847656 87 89 102
-16.75493621826172 -18.318452835083008 37.03653335571289 101 103 119
-19.890573501586914 -10.969724655151367 44.216068267822266 76 76 93
-18.160053253173828 -12.444981575012207 40.484500885009766 92 93 105
-16.712812423706055 -13.551437377929688 37.322303771972656 85 84 102
-13.637604713439941 -0.06851936131715775 30.528173446655273 64 63 72
-16.551746368408203 -19.755977630615234 37.34369659423828 101 104 110
-14.455538749694824 1.8541980981826782 32.5944938659668 128 127 134
-16.450637817382812 -10.952434539794922 37.56708526611328 66 67 73
-15.708199501037598 -13.616570472717285 35.7093391418457 74 73 92
-19.11919403076172 -15.288506507873535 43.895469665527344 28 27 35
-19.11919403076172 -15.288506507873535 43.895469665527344 28 27 35
-13.652771949768066 -13.387298583984375 31.186723709106445 76 76 92
-12.703712463378906 -5.152144908905029 29.244049072265625 35 34 42
-17.216487884521484 -16.962520599365234 39.875587463378906 95 95 111
-17.233455657958984 -16.48127555847168 39.98270034790039 83 83 95
-11.878740310668945 -1.6452335119247437 28.18892478942871 41 40 50
-15.295707702636719 -21.827655792236328 36.687034606933594 77 80 85
-17.617734909057617 -16.951148986816406 42.50927734375 106 112 124
-17.594608306884766 7.2410736083984375 42.746490478515625 90 88 102
-17.187726974487305 -5.3818793296813965 41.642051696777344 75 74 93
-13.99522590637207 -3.213491201400757 34.21003723144531 65 66 89
-16.488933563232422 -20.114116668701172 42.47626495361328 93 96 105
-13.058416366577148 -6.380296230316162 34.563316345214844 76 81 97
-12.553250312805176 -14.242087364196777 35.08675765991211 62 64 71
-16.208940505981445 -7.255873203277588 45.7142219543457 77 78 86
-12.625143051147461 -15.02159309387207 37.83633804321289 88 91 100
-15.283991813659668 -9.238533973693848 46.0027961730957 59 59 75
-15.27683162689209 -9.234204292297363 45.980873107910156 59 59 75
-14.17746353149414 -15.42302131652832 45.79094696044922 84 85 97
-7.8682146072387695 -1.878636360168457 31.973857879638672 79 78 89
-5.636102676391602 -1.769120216369629 30.271554946899414 38 37 49
-7.901367664337158 5.3276543617248535 45.796424865722656 80 79 84
-4.243248462677002 3.106210231781006 25.927021026611328 57 56 69
-2.607975721359253 1.9549754858016968 16.000715255737305 57 56 69
-4.30616569519043 -0.05568819120526314 28.704072952270508 18 18 29
-4.029176235198975 0.6477034687995911 27.77823257446289 67 66 81
-1.051218867301941 0.22289489209651947 8.549431800842285 76 76 86
-2.613152027130127 -2.3818418979644775 27.990808486938477 94 101 116
-2.8929295539855957 -1.978855013847351 32.71208572387695 49 53 64
-2.8929295539855957 -1.978855013847351 32.71208572387695 49 53 64
-3.380750894546509 1.7735379934310913 41.82904815673828 60 60 70
-15.066758155822754 -5.400378227233887 32.53657913208008 78 77 84
-20.279237747192383 -12.365472793579102 43.282772064208984 39 39 47
-20.285371780395508 -12.36904239654541 43.29591369628906 39 39 47
-8.313946723937988 2.8677189350128174 46.13433837890625 189 193 216
-15.084834098815918 3.7015743255615234 34.54435348510742 95 93 101
-17.617666244506836 -11.724481582641602 40.22516632080078 66 67 73
-14.396581649780273 -7.366973400115967 32.54696273803711 108 109 116
-12.121373176574707 -1.82109534740448 34.37268829345703 59 60 72
-12.83376407623291 1.6278678178787231 28.860177993774414 148 146 154
-17.980262756347656 -13.456377029418945 38.39216995239258 61 62 66
-19.146474838256836 -14.323525428771973 40.929439544677734 87 87 92
-18.877668380737305 -14.54328441619873 42.03324890136719 133 134 142
-9.828840255737305 2.3469884395599365 45.52056121826172 172 172 182
-18.25777816772461 -12.31714153289795 41.590030670166016 126 127 133
-17.616369247436523 -11.723628997802734 40.22216033935547 66 67 73
-19.306785583496094 -12.094329833984375 41.61231994628906 27 28 38
-20.28126335144043 -12.366637229919434 43.28714370727539 39 39 47
-19.699474334716797 -9.989213943481445 42.30796813964844 20 20 28
-19.227542877197266 -9.555399894714355 41.71031951904297 79 80 87
-15.478876113891602 -5.533270359039307 33.42916488647461 77 77 84
-17.987613677978516 -13.46182918548584 38.40816879272461 61 62 66
-17.478059768676758 -11.63148307800293 39.90654754638672 66 67 73
-14.167926788330078 -5.078836441040039 30.55207061767578 83 83 90
-15.037952423095703 2.4839627742767334 44.634403228759766 178 177 184
-16.571552276611328 -22.645343780517578 42.91156768798828 86 84 90
-19.697345733642578 -9.988127708435059 42.3033332824707 20 20 28
-18.283750534057617 -9.105647087097168 39.59929275512695 105 105 113
-11.585659980773926 -5.204740524291992 26.239362716674805 41 42 54
-17.386119842529297 -6.9914469718933105 40.34153366088867 93 94 102
-3.4077701568603516 1.299882173538208 28.469301223754883 72 71 76
-17.491682052612305 -11.808408737182617 39.82317352294922 122 123 129
-0.9929633736610413 -1.280052661895752 23.67203140258789 48 49 60
-14.937582969665527 -1.6103156805038452 33.00422286987305 68 70 77
-9.84803581237793 2.3514673709869385 45.60988235473633 172 172 182
-14.411669731140137 3.6001179218292236 33.342594146728516 99 98 106
-13.046966552734375 -18.60416603088379 44.992000579833984 118 119 126
-17.599517822265625 -11.712337493896484 40.18370819091797 66 67 73
-8.206625938415527 -4.967418670654297 40.67131805419922 88 90 100
-2.2036728858947754 -1.23038649559021 20.851591110229492 66 68 76
-4.806715488433838 -0.21592728793621063 24.210039138793945 119 121 133
-9.778120040893555 2.3348538875579834 45.283935546875 172 172 182
-18.383989334106445 7.098238468170166 44.91063690185547 45 41 49
-16.252803802490234 19.014925003051758 41.81775665283203 62 60 60
-3.1729185581207275 -0.7499794960021973 16.14862823486328 89 90 101
-10.141654014587402 -11.417597770690918 48.138248443603516 106 110 119
-7.1170477867126465 -4.68856143951416 25.88054656982422 70 71 80
-3.4174625873565674 -0.8024881482124329 17.401418685913086 89 90 101
-7.299075126647949 1.7552034854888916 33.833274841308594 179 179 189
-4.65251350402832 4.46042537689209 39.523033142089844 93 95 103
-6.761957168579102 8.874479293823242 39.07863998413086 17 20 38
-5.610044479370117 1.2334612607955933 24.5159969329834 70 68 81
-14.269259452819824 2.293750524520874 40.91094970703125 159 159 169
