ply
format ascii 1.0
element vertex 231
property float x
property float y
property float z
property uchar red
property uchar green
property uchar blue
end_header
-14.526369094848633 -3.5311615467071533 29.309965133666992 16 12 14
-19.628713607788086 -5.305825233459473 40.25576400756836 38 34 38
-15.475207328796387 -10.569669723510742 38.8515739440918 89 83 91
-14.470552444458008 -8.15181827545166 36.706573486328125 48 45 48
-16.45302963256836 -16.00136947631836 42.58946228027344 66 64 62
-15.535211563110352 -2.7036890983581543 42.88108444213867 117 110 105
-12.850592613220215 5.505155563354492 36.635231018066406 48 39 33
-10.578581809997559 3.4426767826080322 35.128692626953125 49 40 40
-7.947609901428223 -3.7102766036987305 40.23502731323242 68 62 66
-7.947609901428223 -3.7102766036987305 40.23502731323242 68 62 66
-3.853977680206299 -2.806190013885498 20.472444534301758 53 44 46
-5.219579219818115 -4.563316345214844 34.32632827758789 47 40 46
-4.597203254699707 -2.36103892326355 31.269548416137695 59 53 61
-5.884664058685303 -7.031452655792236 43.42689514160156 51 47 58
-3.7776057720184326 -1.8595870733261108 28.769668579101562 36 29 40
-5.610379695892334 -10.41659164428711 47.62082290649414 137 112 101
-5.610379695892334 -10.41659164428711 47.62082290649414 137 112 101
-5.610379695892334 -10.41659164428711 47.62082290649414 137 112 101
-4.702926158905029 -7.240699291229248 42.0711555480957 110 91 83
-2.1232047080993652 -3.922128200531006 20.615278244018555 152 136 130
-4.242844104766846 -6.733663082122803 43.76897430419922 61 46 40
-2.6088171005249023 -2.346259832382202 27.357196807861328 83 65 56
-2.6088171005249023 -2.346259832382202 27.357196807861328 83 65 56
-1.9101442098617554 -3.514401912689209 20.89160919189453 158 139 125
-3.2795321941375732 -4.643823146820068 36.57139205932617 32 18 16
-3.457183837890625 -5.195408344268799 39.42369079589844 109 94 95
-3.986318349838257 -3.6334965229034424 47.457942962646484 174 159 147
-3.3953754901885986 -6.128811359405518 46.961307525634766 65 51 52
-3.395085334777832 -6.1282525062561035 46.95712661743164 65 51 52
-3.0205376148223877 -4.790266513824463 41.845375061035156 131 116 115
-1.657533884048462 0.09911468625068665 24.193626403808594 184 168 161
-1.657533884048462 0.09911468625068665 24.193626403808594 184 168 161
-1.1068789958953857 -1.0707619190216064 16.485713958740234 63 47 41
-1.111829161643982 -3.483762741088867 18.430309295654297 123 116 117
-1.111829161643982 -3.483762741088867 18.430309295654297 123 116 117
-2.3376526832580566 -2.7661609649658203 38.85737991333008 28 16 11
-1.8295828104019165 -4.317711353302002 30.9992618560791 29 21 20
-1.5190812349319458 -2.920792818069458 26.521604537963867 64 49 49
-2.7448110580444336 -2.9997000694274902 48.316993713378906 57 45 41
-2.1401093006134033 -2.537243127822876 41.40525817871094 26 16 15
-1.4358363151550293 -3.3631064891815186 29.44626808166504 79 71 74
-1.2212615013122559 -3.5262067317962646 35.399295806884766 101 99 108
-0.9593725800514221 -3.1180644035339355 31.703102111816406 63 57 64
-0.15938031673431396 0.9824154376983643 10.247560501098633 44 38 39
-0.0438493937253952 -1.0663421154022217 15.844610214233398 66 64 67
0.07227563112974167 -1.3115711212158203 17.671545028686523 21 19 21
0.22049085795879364 -0.5605350136756897 23.679222106933594 103 104 104
0.21884585916996002 -0.9185677170753479 15.302803039550781 102 100 101
0.26252830028533936 -0.8178508281707764 14.359420776367188 116 114 115
0.26252830028533936 -0.8178508281707764 14.359420776367188 116 114 115
0.4137049913406372 -1.2764216661453247 19.99654197692871 8 7 7
0.03119570016860962 0.18728065490722656 1.4800561666488647 113 113 115
0.8653600215911865 -0.06894256174564362 25.566150665283203 28 27 32
1.0297534465789795 -0.6977213621139526 30.148757934570312 59 56 69
1.1012282371520996 -0.9110231995582581 32.017723083496094 46 43 57
0.3029349148273468 -0.6835724711418152 8.587905883789062 49 46 57
2.221750497817993 -0.7063407301902771 35.9169921875 46 44 55
1.4303810596466064 -2.0966413021087646 19.59490203857422 55 56 68
2.842813491821289 -6.617594242095947 32.24858474731445 102 98 90
6.685591220855713 7.102407455444336 47.416866302490234 127 126 113
6.685591220855713 7.102407455444336 47.416866302490234 127 126 113
-1.469605803489685 -1.6559735536575317 30.4654541015625 63 57 58
0.6166506409645081 -1.0412368774414062 18.765810012817383 37 36 39
-2.9904043674468994 -2.713822841644287 48.65940475463867 127 114 109
0.4472191035747528 -1.0213813781738281 16.94376564025879 26 24 25
0.44787129759788513 -1.0226998329162598 16.965917587280273 26 24 25
0.40561383962631226 -1.2418861389160156 19.46487045288086 8 7 7
0.4070543646812439 -1.2480806112289429 19.560367584228516 8 7 7
-1.4081274271011353 -1.3488357067108154 21.10321617126465 71 55 48
0.18612076342105865 -0.9988449215888977 14.60647201538086 89 88 89
2.730653762817383 -1.9713916778564453 28.84079360961914 72 67 54
0.16648800671100616 -0.9229514002799988 13.480696678161621 51 49 50
-2.7445664405822754 -1.8823752403259277 24.90870475769043 96 77 70
-1.2763508558273315 -1.1386828422546387 13.396161079406738 156 138 131
-3.1838784217834473 -3.7799232006073 40.761474609375 204 187 180
-2.906667709350586 -4.09409761428833 40.62652587890625 105 89 86
-6.923866271972656 -3.2960665225982666 32.583621978759766 104 95 97
-1.907568335533142 -3.5094218254089355 20.86159896850586 158 139 125
-3.024935722351074 -4.799968242645264 41.91277313232422 136 121 121
2.2898547649383545 -3.0806522369384766 25.521926879882812 105 102 92
-3.378931760787964 -6.098434925079346 46.731414794921875 65 51 52
-1.4482364654541016 -4.9738969802856445 38.178043365478516 14 11 17
-14.553925514221191 2.8710763454437256 43.82593536376953 95 96 97
0.5536727905273438 -0.9686251282691956 18.808116912841797 41 42 49
-1.5267791748046875 -1.1246256828308105 31.591421127319336 94 89 84
-2.713111400604248 -2.266104221343994 37.06888961791992 101 83 76
-14.469523429870605 3.248516798019409 43.59783935546875 169 162 155
-14.000494956970215 -5.5033087730407715 35.9144401550293 12 7 17
-8.994099617004395 -8.042852401733398 40.19685745239258 57 49 56
-8.99209213256836 -8.041011810302734 40.18761444091797 57 49 56
-1.7408087253570557 0.17332543432712555 27.826873779296875 86 72 67
-1.105736255645752 -2.488619565963745 32.08403778076172 30 27 34
0.41419100761413574 -1.2779545783996582 20.02037239074707 8 7 7
-3.0238070487976074 -4.7981414794921875 41.89704132080078 136 121 121
0.18617510795593262 -0.9991372227668762 14.610724449157715 89 88 89
0.21021831035614014 -1.267379879951477 10.928487777709961 24 22 23
-2.442767858505249 -1.6728923320770264 22.174348831176758 92 74 67
-6.209446430206299 -2.518259286880493 31.348045349121094 53 48 60
-16.460063934326172 -3.7528371810913086 43.73530578613281 28 23 31
-1.276390552520752 -1.138709545135498 13.396553993225098 156 138 131
-3.1357927322387695 -3.7019364833831787 42.17506408691406 45 29 24
-15.382912635803223 -9.70810317993164 42.260955810546875 91 89 98
-1.9616310596466064 -3.7909069061279297 21.383134841918945 253 252 243
-1.90691339969635 -3.5081281661987305 20.853883743286133 158 139 125
-6.385101318359375 -4.446620941162109 29.448026657104492 89 80 78
-2.1465883255004883 -2.1221859455108643 43.17329025268555 111 113 118
-5.716672897338867 -4.839986324310303 35.77637481689453 134 127 133
-0.7554144263267517 -2.563149929046631 19.44034767150879 56 53 59
-3.3956308364868164 -6.1292338371276855 46.96452713012695 65 51 52
2.1022729873657227 -2.844174861907959 23.418163299560547 122 119 110
0.4471004903316498 -1.0210996866226196 16.939258575439453 26 24 25
1.8948428630828857 -1.299715518951416 20.20064926147461 115 110 101
0.44834092259407043 -1.0238319635391235 16.984209060668945 26 24 25
0.048193469643592834 0.3313346207141876 0.9789035320281982 124 124 129
-2.3227412700653076 -3.5512046813964844 41.153053283691406 71 59 58
-1.498302698135376 -4.470370292663574 42.863548278808594 52 49 59
-1.4401319026947021 -3.2837696075439453 42.208702087402344 30 27 34
0.1664314717054367 -0.9227240085601807 13.477334022521973 51 49 50
-14.105659484863281 -1.9870144128799438 37.673213958740234 92 87 98
-11.283403396606445 -6.201504707336426 36.0934944152832 44 42 56
-1.4540256261825562 -5.828708171844482 30.570716857910156 69 63 65
-4.11762809753418 -7.975757598876953 44.61387252807617 253 252 245
-10.405875205993652 2.2490572929382324 33.30220413208008 174 168 161
-9.928610801696777 -4.12882137298584 31.131200790405273 18 18 27
-3.393594264984131 -6.125514030456543 46.93693542480469 65 51 52
-3.3802037239074707 -6.100772857666016 46.74934387207031 65 51 52
2.4514033794403076 -3.313302755355835 27.40250015258789 122 119 109
-3.02555775642395 -4.800901889801025 41.92125701904297 136 121 121
-4.38394832611084 -4.77482795715332 45.599021911621094 140 125 126
-5.430350303649902 -4.411037445068359 46.22225570678711 146 133 145
-2.9747838973999023 -3.5179283618927 38.086849212646484 193 176 169
-17.039438247680664 -3.1927120685577393 45.70012664794922 17 15 23
-1.139331340789795 -0.9478944540023804 14.168302536010742 158 143 134
0.4139779210090637 -1.2771658897399902 20.008176803588867 8 7 7
1.893941879272461 -1.299064040184021 20.190616607666016 115 110 101
0.44801414012908936 -1.0231188535690308 16.972429275512695 26 24 25
0.7042949795722961 -1.2468363046646118 22.027097702026367 15 14 17
0.5117693543434143 -0.8615276217460632 16.087623596191406 144 146 149
0.45746535062789917 -0.779800295829773 15.275060653686523 49 50 57
-8.647425651550293 -1.4250082969665527 30.271907806396484 28 27 40
-1.4585992097854614 -1.0750936269760132 30.13136100769043 94 89 84
0.10552288591861725 1.1554535627365112 2.152186870574951 75 74 75
0.06432314217090607 -0.9216333031654358 12.534462928771973 32 31 33
-2.2099039554595947 -3.175585985183716 36.094268798828125 89 77 74
-2.4114444255828857 -4.094161510467529 40.867958068847656 128 113 111
-17.700517654418945 3.5045816898345947 43.75016403198242 63 57 59
-13.587163925170898 0.9637695550918579 37.09075164794922 81 76 82
-15.080410957336426 3.575432062149048 37.97093963623047 22 17 19
-16.3009033203125 -0.617023229598999 41.470394134521484 47 43 54
-15.477473258972168 -9.778549194335938 42.53471374511719 91 89 98
-3.3853816986083984 -6.1103835105896 46.82183837890625 65 51 52
-3.38303542137146 -6.105996131896973 46.789405822753906 65 51 52
-3.025493860244751 -4.800840854644775 41.920467376708984 136 121 121
0.30383431911468506 -1.8191728591918945 15.687182426452637 15 14 14
-2.6067798137664795 -3.9102795124053955 36.86700439453125 122 107 105
-3.8404061794281006 -4.193578720092773 39.86851119995117 96 81 82
-2.911208391189575 -4.1006903648376465 40.69227600097656 105 89 86
-9.099854469299316 -2.815852642059326 30.144487380981445 53 52 70
-2.704185724258423 -2.4281668663024902 28.361549377441406 83 65 56
-14.459212303161621 -2.9417130947113037 35.7147216796875 92 84 96
0.06714347749948502 -1.5937780141830444 21.15300750732422 25 23 27
0.1664586216211319 -0.9228172302246094 13.478707313537598 51 49 50
0.44677790999412537 -1.0202827453613281 16.92607307434082 26 24 25
2.4782145023345947 -1.6777856349945068 26.574838638305664 81 75 68
-1.6365933418273926 -1.3163505792617798 21.919025421142578 108 90 83
-2.0089149475097656 -2.392246961593628 40.09856414794922 29 19 19
-1.4682211875915527 -1.654389500617981 30.436031341552734 63 57 58
0.8180603981018066 -1.1767158508300781 22.482872009277344 9 11 17
-1.9373854398727417 -1.1494801044464111 25.533823013305664 157 145 134
0.8682621717453003 -10.836946487426758 45.087764739990234 49 49 49
0.17156152427196503 -7.765890121459961 35.95811080932617 42 41 41
-8.992612838745117 -8.041484832763672 40.19000244140625 57 49 56
-1.5307135581970215 -6.117333889007568 32.13004684448242 62 55 57
-10.362946510314941 -5.723416328430176 33.361572265625 83 82 95
-2.8128387928009033 -2.849261999130249 16.51643943786621 77 67 73
-4.016112327575684 -5.461630344390869 36.434024810791016 243 238 234
-1.1196390390396118 -3.7739670276641846 30.75905990600586 128 125 132
-3.315213203430176 -3.34944748878479 27.7910099029541 146 133 144
0.30372610688209534 -1.8185052871704102 15.681377410888672 15 14 14
-2.3865904808044434 -4.105167865753174 45.175113677978516 37 25 24
-2.318680763244629 -3.544933557510376 41.07949447631836 71 59 58
-14.459176063537598 -2.9416801929473877 35.71463394165039 92 84 96
-2.850980281829834 -1.9727455377578735 25.844364166259766 101 81 72
-10.283487319946289 -2.1724259853363037 32.789093017578125 72 72 85
-1.2830157279968262 -1.0028291940689087 16.958566665649414 113 95 88
0.8087823390960693 -1.4667370319366455 25.559486389160156 38 37 40
-2.4424591064453125 -2.1754157543182373 39.86509323120117 131 119 115
2.41463303565979 -1.1542339324951172 26.866455078125 64 60 57
-12.17786693572998 2.366060733795166 37.33709716796875 81 78 76
-13.775130271911621 3.0641305446624756 42.01958465576172 160 156 151
-17.770593643188477 3.5141050815582275 43.92229080200195 63 57 59
4.553903102874756 6.424989700317383 43.52029800415039 121 118 106
-2.393721342086792 -3.9772257804870605 30.62818717956543 28 15 13
-3.382146120071411 -6.10435676574707 46.77619934082031 65 51 52
-3.3041164875030518 -3.0080573558807373 27.768796920776367 174 162 174
-0.9707798957824707 -1.2849936485290527 12.73929500579834 101 85 79
-2.470393180847168 -4.421490669250488 46.73045349121094 48 35 33
-9.566582679748535 -3.8718934059143066 45.556488037109375 52 47 55
-1.429938793182373 -0.9777775406837463 12.983242988586426 167 149 141
-2.8012328147888184 -2.754664182662964 36.84112548828125 163 147 138
-1.9699560403823853 -1.5619491338729858 23.17556381225586 148 132 120
2.151110887527466 -1.5367374420166016 26.706933975219727 133 131 130
-1.7594183683395386 -1.791913390159607 33.508567810058594 181 175 175
0.4689348042011261 -0.7887619137763977 14.648688316345215 138 138 141
-3.555549383163452 -2.021254301071167 45.4464225769043 193 181 170
-15.268491744995117 1.0175564289093018 41.75678253173828 41 36 43
-4.632089614868164 6.471640110015869 45.63045120239258 29 14 8
-15.676136016845703 -12.413762092590332 43.495811462402344 56 53 66
-12.271424293518066 -7.54583215713501 32.03114318847656 27 25 32
-6.2263898849487305 -5.598055839538574 28.619644165039062 91 85 94
0.9981363415718079 -7.95989990234375 42.8426399230957 83 83 83
-3.575615882873535 -7.458382606506348 41.12321853637695 106 93 86
-3.379808187484741 -6.1000494956970215 46.7435302734375 65 51 52
-2.9059057235717773 -4.093109130859375 40.6169319152832 105 89 86
-5.128782749176025 -4.22811222076416 43.68113708496094 157 144 157
-1.2764779329299927 -1.1387890577316284 13.397595405578613 156 138 131
-8.19106674194336 -3.3068504333496094 39.00865173339844 53 49 56
0.0051720235496759415 -0.47333240509033203 6.299182891845703 83 81 84
-1.4016094207763672 -1.1106209754943848 18.59828758239746 109 91 84
1.3189648389816284 -0.16052043437957764 42.31259536743164 30 30 34
-3.2541322708129883 0.3765537142753601 36.4791374206543 114 96 89
-4.139004230499268 -7.550261974334717 37.38829040527344 230 216 206
-4.525729179382324 -7.283247947692871 37.10594940185547 122 104 98
-4.02271842956543 -5.470320701599121 36.4921989440918 243 238 234
-3.4942798614501953 -4.339249610900879 35.07916259765625 95 80 81
-3.0783393383026123 -2.805913209915161 25.797515869140625 137 125 136
-2.6471824645996094 -2.0473718643188477 38.45083236694336 72 56 49
-3.03450608253479 -1.6943169832229614 37.973052978515625 202 191 180
-3.9962382316589355 -1.2941724061965942 30.615190505981445 190 183 177
0.8868331909179688 0.08360270410776138 31.034269332885742 122 124 125
-7.928234100341797 1.7364656925201416 25.121557235717773 194 188 183
