ply
format ascii 1.0
element vertex 715
property float x
property float y
property float z
property uchar red
property uchar green
property uchar blue
end_header
-0.9929217100143433 -0.9622373580932617 5.870995998382568 13 9 11
-0.9568220376968384 -0.390384703874588 5.772111415863037 44 39 39
-0.9847641587257385 2.63364315032959 5.873385906219482 61 58 50
-0.9808337688446045 0.6283116936683655 5.876020908355713 96 87 73
-0.9881598949432373 1.4231846332550049 5.942558288574219 105 98 81
-0.9835057854652405 0.8488398790359497 5.899844646453857 88 80 69
-0.8757432699203491 -2.5932021141052246 5.37710428237915 45 38 34
-0.9443296194076538 -0.6160313487052917 5.717200756072998 70 66 65
-0.9831673502922058 1.0254254341125488 5.922264575958252 58 51 37
-0.7814032435417175 2.657963752746582 4.780717849731445 148 141 130
-0.7733986377716064 2.677973985671997 4.797801971435547 86 81 70
-0.8969004154205322 -1.8412216901779175 5.669494152069092 77 74 76
-0.8969004154205322 -1.8412216901779175 5.669494152069092 77 74 76
-0.9228909015655518 -0.2485942840576172 5.742082595825195 58 53 59
-0.915034830570221 -2.508643865585327 5.6926703453063965 81 79 85
-0.9242857694625854 0.35190683603286743 5.80274772644043 52 49 53
-0.9531483054161072 1.4712787866592407 5.989445209503174 81 76 68
-0.9525063037872314 2.5514373779296875 6.008756637573242 80 73 64
-0.7585037350654602 2.6316871643066406 4.7802934646606445 151 144 133
-0.7585037350654602 2.6316871643066406 4.7802934646606445 151 144 133
-0.9429211020469666 1.0756967067718506 5.954928398132324 56 52 50
-0.9090665578842163 0.08456458896398544 5.770237922668457 55 50 56
-0.9525337219238281 2.5514516830444336 6.008799076080322 80 73 64
-0.883957028388977 2.4745359420776367 5.715629577636719 91 83 74
-0.9037275910377502 -1.6606041193008423 5.693612575531006 34 32 32
-0.9037275910377502 -1.6606041193008423 5.693612575531006 34 32 32
-0.8985413312911987 -1.3119415044784546 5.773784160614014 13 12 14
-0.8985413312911987 -1.3119415044784546 5.773784160614014 13 12 14
-0.897057294845581 -1.8421372175216675 5.6720290184021 77 74 76
-0.855819582939148 -1.1574116945266724 5.531544208526611 104 107 113
-0.9598730802536011 2.037245512008667 6.125016689300537 74 70 60
-0.8966152667999268 0.37041839957237244 5.814089298248291 48 45 53
-0.8966152667999268 0.37041839957237244 5.814089298248291 48 45 53
-0.9522189497947693 2.3064160346984863 6.061850547790527 58 54 44
-0.855466365814209 -1.527876853942871 5.568216800689697 118 117 120
-0.894420862197876 -2.396400213241577 5.837427139282227 49 45 48
-0.8742493987083435 -1.8482729196548462 5.727253437042236 37 36 39
-0.8742493987083435 -1.8482729196548462 5.727253437042236 37 36 39
-0.8579872846603394 -1.9193036556243896 5.65291166305542 96 93 101
-0.8971194624900818 2.594313144683838 5.8908820152282715 61 56 47
-0.9170177578926086 1.9623230695724487 6.026101112365723 49 46 42
-0.8635897636413574 0.9540774822235107 5.795046806335449 57 58 62
-0.7556087970733643 2.664047956466675 4.977077484130859 151 145 136
-0.8629184365272522 -0.9464225172996521 5.7518310546875 32 31 36
-0.8629184365272522 -0.9464225172996521 5.7518310546875 32 31 36
-0.8545749187469482 -1.7321479320526123 5.632513046264648 125 130 141
-0.8775684833526611 0.7781937122344971 5.821597576141357 39 35 40
-0.8295325040817261 -2.6296539306640625 5.536039352416992 48 42 36
-0.7676994800567627 2.6266231536865234 5.128427505493164 106 102 93
-0.861665666103363 -0.8732621073722839 5.67336368560791 105 105 114
-0.8883518576622009 1.7140311002731323 5.997472286224365 54 53 53
-0.8502150774002075 -0.40017443895339966 5.778067588806152 28 27 32
-0.8732509016990662 2.5731537342071533 5.919609546661377 108 101 91
-0.8339229822158813 -0.7197034358978271 5.673351287841797 121 122 130
-0.860619843006134 1.129467487335205 5.863149642944336 41 37 38
-0.835027277469635 -0.22063477337360382 5.755668640136719 27 25 32
-0.8335760235786438 -1.1955604553222656 5.686441421508789 101 102 112
-0.854462206363678 0.015473680570721626 5.86005163192749 50 50 61
-0.7859159111976624 0.12729570269584656 5.570250511169434 19 17 23
-0.7262194752693176 2.6578993797302246 4.949384689331055 134 128 118
-0.8693238496780396 -2.5371506214141846 5.939925193786621 72 66 71
-0.8261352181434631 -1.0389113426208496 5.760983467102051 120 121 131
-0.8275235891342163 -1.5470290184020996 5.773739337921143 102 102 108
-0.838996410369873 2.5723140239715576 5.850790023803711 59 55 46
-0.7200673818588257 2.648944139480591 5.040691375732422 80 74 65
-0.8621792197227478 2.496143341064453 6.052140712738037 54 49 45
-0.8149899244308472 0.13333943486213684 5.762188911437988 33 32 42
-0.8127564787864685 -0.011497932486236095 5.748745918273926 126 126 137
-0.8092184662818909 -1.6691172122955322 5.85362434387207 64 63 65
-0.8029110431671143 -0.842809796333313 5.748045444488525 91 91 104
-0.7992991209030151 -0.6801542639732361 5.798022747039795 117 121 133
-0.795822024345398 -2.238091230392456 5.783597946166992 102 101 107
-0.8153420686721802 -1.8725714683532715 5.909030437469482 24 23 26
-0.7940145134925842 1.0279260873794556 5.8108930587768555 134 130 134
-0.7863951325416565 0.4376709759235382 5.7856669425964355 119 119 131
-0.7727620601654053 -1.302898645401001 5.828394412994385 22 20 24
-0.7727620601654053 -1.302898645401001 5.828394412994385 22 20 24
-0.7928034067153931 -1.5241906642913818 5.835235595703125 111 110 116
-0.7806859612464905 -0.15108922123908997 5.749792575836182 71 70 87
-0.8448552489280701 -1.7400007247924805 6.107656478881836 57 55 57
-0.7845836281776428 0.0027559648733586073 5.803786277770996 119 123 139
-0.7908321619033813 -2.083950996398926 5.86003303527832 106 106 112
-0.7696009874343872 0.8760113716125488 5.720454692840576 95 94 104
-0.8045201897621155 0.675803542137146 5.829320907592773 45 43 52
-0.8045201897621155 0.675803542137146 5.829320907592773 45 43 52
-0.7884472012519836 -0.31754833459854126 5.877847671508789 109 111 119
-0.6516391038894653 2.6633622646331787 4.8582539558410645 86 83 75
-0.7587023973464966 1.2445063591003418 5.730813503265381 64 64 70
-0.7784331440925598 -0.7322548031806946 5.832638740539551 106 109 116
-0.6871030330657959 2.7000515460968018 5.162566661834717 144 137 129
-0.7996460199356079 2.074089765548706 6.009357452392578 52 51 50
-0.776105523109436 -0.32676267623901367 5.833688259124756 107 109 117
-0.7815492749214172 0.9814116954803467 5.892241477966309 80 77 88
-0.775891900062561 1.4061442613601685 5.866311073303223 59 55 62
-0.7661272287368774 0.40266159176826477 5.823201656341553 115 116 127
-0.7650431394577026 -1.4887498617172241 5.91550350189209 26 24 27
-0.7650431394577026 -1.4887498617172241 5.91550350189209 26 24 27
-0.7699882984161377 0.2249370962381363 5.858794212341309 94 93 113
-0.7669661045074463 1.1591123342514038 5.841697692871094 104 102 108
-0.7632693648338318 1.005792260169983 5.8483734130859375 20 17 20
-0.7902041077613831 2.5640642642974854 6.020999908447266 66 59 53
-0.759443461894989 -0.3006373643875122 5.866400241851807 192 193 201
-0.759443461894989 -0.3006373643875122 5.866400241851807 192 193 201
-0.7594520449638367 -0.30063992738723755 5.8664727210998535 192 193 201
-0.7609022855758667 -0.78729248046875 5.9648919105529785 9 9 15
-0.7713758945465088 -1.9709575176239014 6.056071758270264 87 88 96
-0.7486319541931152 -0.5094529986381531 5.893107891082764 99 97 109
-0.7486319541931152 -0.5094529986381531 5.893107891082764 99 97 109
-0.7492748498916626 0.04234397038817406 5.902884006500244 97 98 116
-0.6794505715370178 2.607795238494873 5.339105606079102 169 165 159
-0.7238122224807739 0.885084331035614 5.807027339935303 98 94 106
-0.7238122224807739 0.885084331035614 5.807027339935303 98 94 106
-0.7398937344551086 0.924254834651947 5.897183895111084 86 82 94
-0.7314637303352356 -1.863124966621399 5.976049900054932 86 86 89
-0.7477409839630127 0.7119709849357605 6.029608249664307 91 89 104
-0.7417561411857605 2.3969662189483643 5.962609767913818 51 47 46
-0.7217556834220886 -1.391431212425232 5.878051280975342 115 116 124
-0.7481063604354858 -2.003850221633911 5.960015773773193 94 93 103
-0.7269606590270996 -0.23607638478279114 5.859903812408447 28 27 37
-0.7268089652061462 -1.4247715473175049 5.961069583892822 122 122 130
-0.7271826267242432 1.774296522140503 5.95772123336792 95 92 98
-0.7199945449829102 -0.19088754057884216 5.955039024353027 74 73 86
-0.7224414348602295 -2.6974728107452393 5.87971830368042 51 46 42
-0.731438159942627 -1.8631093502044678 5.976009368896484 86 86 89
-0.7156148552894592 0.02983437292277813 5.957352161407471 65 65 76
-0.7156530022621155 2.232783555984497 5.9531097412109375 50 47 49
-0.7057114839553833 -1.19713294506073 5.956453323364258 86 85 94
-0.7083182334899902 1.4867191314697266 5.993959426879883 105 102 108
-0.7083182334899902 1.4867191314697266 5.993959426879883 105 102 108
-0.7025519609451294 0.2510314881801605 5.991940975189209 107 105 117
-0.6933254599571228 2.5723044872283936 5.921782493591309 59 51 44
-0.6982728838920593 0.43956196308135986 5.992030143737793 56 53 63
-0.6957336068153381 0.08075269311666489 6.019415855407715 104 103 115
-0.690945029258728 1.75733482837677 6.061004638671875 88 85 91
-0.6892828345298767 0.8149348497390747 5.986582279205322 100 95 101
-0.7311994433403015 -2.9184093475341797 6.26479434967041 70 66 60
-0.6410081386566162 -1.1707673072814941 5.820710182189941 96 96 105
-0.6851126551628113 0.11338811367750168 6.062602996826172 35 33 44
-0.6851126551628113 0.11338811367750168 6.062602996826172 35 33 44
-0.6714781522750854 -0.692781925201416 6.059329509735107 93 90 101
-0.6671527624130249 1.21660315990448 6.027810096740723 105 99 104
-0.6737290620803833 -1.645461082458496 6.081466197967529 127 127 136
-0.6750799417495728 1.1804146766662598 6.112551212310791 143 138 141
-0.6741060614585876 0.2879595160484314 6.066812515258789 69 65 74
-0.6748751401901245 -0.06822089850902557 6.116852283477783 27 25 35
-0.6705023646354675 2.0801050662994385 6.12033748626709 9 9 10
-0.6705023646354675 2.0801050662994385 6.12033748626709 9 9 10
-0.6627438068389893 -1.5322455167770386 6.069486618041992 82 81 90
-0.6605473756790161 1.3288178443908691 6.004819393157959 24 18 20
-0.6605473756790161 1.3288178443908691 6.004819393157959 24 18 20
-0.6688076257705688 0.1117224171757698 6.159175395965576 38 34 44
-0.6521008014678955 0.45952337980270386 6.058961391448975 63 59 69
-0.6886246800422668 -1.9376667737960815 6.315988063812256 25 24 29
-0.6886246800422668 -1.9376667737960815 6.315988063812256 25 24 29
-0.6633172035217285 2.4737212657928467 6.132755756378174 41 36 32
-0.6543698310852051 0.7592705488204956 6.072179317474365 96 93 105
-0.6521034240722656 0.4595278203487396 6.058988571166992 63 59 69
-0.6500557661056519 -0.529438316822052 6.0628557205200195 128 131 137
-0.6500557661056519 -0.529438316822052 6.0628557205200195 128 131 137
-0.6500557661056519 -0.529438316822052 6.0628557205200195 128 131 137
-0.5834759473800659 2.5154669284820557 5.490077018737793 98 95 89
-0.6508798003196716 1.4059650897979736 6.088125705718994 46 40 44
-0.6462237238883972 -1.212781548500061 6.062936305999756 86 86 95
-0.6513480544090271 1.517885446548462 6.107304096221924 131 125 127
-0.6461643576622009 1.3513141870498657 6.1030354499816895 147 140 143
-0.6473844051361084 -2.7443976402282715 6.096264362335205 60 52 47
-0.641564130783081 0.6314312815666199 6.087457180023193 75 71 81
-0.6433671116828918 1.252941608428955 6.124664306640625 114 108 113
-0.6372114419937134 0.9786788821220398 6.0965471267700195 76 71 74
-0.6515465974807739 -1.6812522411346436 6.110673427581787 71 71 76
-0.634994626045227 -0.756559431552887 6.131436824798584 96 96 101
-0.6335470080375671 1.0100619792938232 6.12288761138916 110 104 109
-0.6358271837234497 -1.8909938335418701 6.206016540527344 41 38 44
-0.6219660043716431 -0.5303016901016235 6.149309158325195 115 116 125
-0.6290498971939087 0.10048387944698334 6.1554388999938965 65 62 71
-0.6391213536262512 0.9818305373191833 6.115694522857666 76 71 74
-0.6216404438018799 -0.5300522446632385 6.147646903991699 115 116 125
-0.624351978302002 -0.1871887743473053 6.086026191711426 91 89 107
-0.618028461933136 -2.7351090908050537 6.120790958404541 50 42 37
-0.6037169098854065 1.6955844163894653 6.201780319213867 119 115 119
-0.5386698842048645 2.6158335208892822 5.387310028076172 83 80 73
-0.6067737340927124 1.6107999086380005 6.100762844085693 55 51 56
-0.6061494946479797 2.0665030479431152 6.271276950836182 53 51 51
-0.6125305891036987 -1.8080557584762573 6.213356018066406 83 83 90
-0.6166145205497742 1.8913497924804688 6.238327503204346 21 18 20
-0.6037452816963196 1.6956497430801392 6.2019782066345215 119 115 119
-0.600117564201355 -0.7745184302330017 6.15585470199585 86 84 89
-0.6039765477180481 0.671882152557373 6.191629886627197 107 104 114
-0.6017478704452515 0.31263670325279236 6.1881184577941895 115 114 125
-0.618462324142456 1.334958553314209 6.171875476837158 102 96 97
-0.5961304903030396 -1.3793562650680542 6.182133674621582 86 86 95
-0.6308507919311523 -1.0160092115402222 6.4169535636901855 58 56 59
-0.6308507919311523 -1.0160092115402222 6.4169535636901855 58 56 59
-0.5973435044288635 1.1921437978744507 6.260476589202881 130 125 132
-0.5438382625579834 0.25473108887672424 6.024385452270508 88 85 94
-0.5628146529197693 2.482950210571289 6.200138092041016 59 51 44
-0.5733109712600708 -0.2534252107143402 6.084840774536133 30 27 38
-0.5791277289390564 0.08368141204118729 6.2407941818237305 59 57 64
-0.57280433177948 -1.9034653902053833 6.352639198303223 30 29 35
-0.5671276450157166 1.428810715675354 6.225353240966797 61 56 58
-0.5830158591270447 1.1455957889556885 6.213235855102539 112 106 113
-0.5672144293785095 0.926903486251831 6.250882148742676 98 93 103
-0.5234658122062683 0.5841067433357239 6.028671741485596 50 47 55
-0.551922619342804 2.471529245376587 6.143576622009277 62 55 46
-0.559590220451355 -0.26743483543395996 6.306597709655762 45 42 53
-0.5479755401611328 0.13086062669754028 6.2590837478637695 108 105 112
-0.5447380542755127 -0.8947975635528564 6.266355037689209 89 87 96
-0.5340660214424133 0.4335792064666748 6.202784538269043 94 90 99
-0.5404819846153259 -0.7119318246841431 6.273088455200195 89 87 96
-0.5398260951042175 0.9002270698547363 6.271142482757568 111 106 116
-0.532080352306366 -1.5379846096038818 6.361240386962891 98 98 103
-0.532080352306366 -1.5379846096038818 6.361240386962891 98 98 103
-0.531507670879364 1.5388758182525635 6.198515892028809 51 47 48
-0.4574112296104431 2.594331979751587 5.393686294555664 76 73 66
-0.5311083197593689 -1.9822841882705688 6.325438022613525 108 115 115
-0.5226684808731079 -1.7943081855773926 6.282604694366455 78 76 85
-0.5235692858695984 -1.2981723546981812 6.307723045349121 131 130 137
-0.5208537578582764 1.2009087800979614 6.263910293579102 63 58 61
-0.5320778489112854 0.7814561128616333 6.322577953338623 83 79 86
-0.5193413496017456 -0.31901445984840393 6.324429988861084 97 96 106
-0.5180163979530334 -1.3845387697219849 6.3120436668396 89 89 99
-0.517062246799469 -0.000222767615923658 6.337520122528076 113 111 125
-0.5131552815437317 0.8277510404586792 6.296611309051514 112 107 116
-0.509758710861206 0.3833547532558441 6.288361072540283 119 115 126
-0.520401656627655 2.002439022064209 6.409397602081299 53 53 58
-0.4995592534542084 -0.09212996810674667 6.240412712097168 42 39 50
-0.505095899105072 0.7317833304405212 6.3424553871154785 111 107 116
-0.5065211057662964 1.0982640981674194 6.360882759094238 52 47 48
-0.5007196068763733 -2.099184274673462 6.326304912567139 65 63 65
-0.5057335495948792 -1.1550288200378418 6.304168701171875 59 59 64
-0.39661911129951477 2.6150527000427246 5.036327838897705 128 123 117
-0.504579484462738 0.8443270921707153 6.461059093475342 106 98 107
-0.49785885214805603 0.9925962686538696 6.377400875091553 102 97 97
-0.4353627562522888 2.523780345916748 5.664735794067383 118 114 109
-0.492512583732605 -0.20795777440071106 6.384819030761719 98 97 111
-0.4992441236972809 1.6745362281799316 6.4203314781188965 18 14 15
-0.4893452823162079 0.2554132044315338 6.451021194458008 31 28 37
-0.4864696264266968 -0.7657658457756042 6.375082015991211 111 110 114
-0.510975182056427 -2.422612190246582 6.493687152862549 33 29 32
-0.4818532168865204 0.6996614933013916 6.404152870178223 112 109 123
-0.4818532168865204 0.6996614933013916 6.404152870178223 112 109 123
-0.4818532168865204 0.6996614933013916 6.404152870178223 112 109 123
-0.46939346194267273 -1.2458949089050293 6.286458492279053 110 109 120
-0.46939346194267273 -1.2458949089050293 6.286458492279053 110 109 120
-0.4538252651691437 -1.5317491292953491 6.109207630157471 103 103 108
-0.4625793993473053 -1.5179520845413208 6.390272617340088 14 14 21
-0.4625793993473053 -1.5179520845413208 6.390272617340088 14 14 21
-0.4773532450199127 0.8768317103385925 6.4155120849609375 107 101 108
-0.46814242005348206 -2.0114500522613525 6.313079833984375 107 119 113
-0.473702073097229 -1.9276224374771118 6.400318145751953 30 32 34
-0.4767617881298065 0.5238494277000427 6.433603286743164 118 115 130
-0.4507494270801544 1.040111780166626 6.286638259887695 61 57 56
-0.44728583097457886 -1.9393882751464844 6.3390326499938965 85 93 93
-0.4503263831138611 -1.3983937501907349 6.433876037597656 84 85 96
-0.45330652594566345 0.8917953372001648 6.460122108459473 65 60 63
-0.45268046855926514 0.37076038122177124 6.4639129638671875 126 123 137
-0.38744375109672546 2.576634645462036 5.528608322143555 74 70 65
-0.38744375109672546 2.576634645462036 5.528608322143555 74 70 65
-0.41136065125465393 -2.665672540664673 5.955320358276367 74 72 63
-0.44175657629966736 2.557805299758911 6.491835594177246 67 62 56
-0.44175657629966736 2.557805299758911 6.491835594177246 67 62 56
-0.4462709128856659 -1.8609613180160522 6.45050048828125 122 121 123
-0.434966117143631 0.6283935904502869 6.487782001495361 136 134 147
-0.40614932775497437 2.538846969604492 6.056147575378418 109 104 98
-0.43056997656822205 -1.7316060066223145 6.487997531890869 96 94 96
-0.47545138001441956 -1.991999626159668 6.892424583435059 84 82 84
-0.42710748314857483 -1.720396637916565 6.553852558135986 21 19 20
-0.42102769017219543 -1.6284369230270386 6.505333423614502 89 88 93
-0.4114867150783539 2.5770657062530518 6.481494903564453 85 80 74
-0.40669384598731995 1.3991583585739136 6.511939525604248 56 51 51
-0.41487041115760803 -1.9586058855056763 6.67167329788208 41 38 40
-0.39510196447372437 -2.004969835281372 6.3870978355407715 102 103 92
-0.38636550307273865 -1.7031759023666382 6.5309014320373535 40 37 37
-0.38636550307273865 -1.7031759023666382 6.5309014320373535 40 37 37
-0.39803898334503174 -0.01524389535188675 6.5732831954956055 123 122 134
-0.398650586605072 -1.4964662790298462 6.634354591369629 96 95 99
-0.393371045589447 -1.5487174987792969 6.570411682128906 94 95 103
-0.3645729422569275 2.670522451400757 5.892599105834961 124 121 115
-0.3645729422569275 2.670522451400757 5.892599105834961 124 121 115
-0.36945536732673645 -1.9954031705856323 6.290685653686523 37 36 26
-0.36945536732673645 -1.9954031705856323 6.290685653686523 37 36 26
-0.37136557698249817 0.30364924669265747 6.579945087432861 130 130 148
-0.38817405700683594 1.9339873790740967 6.884637355804443 52 49 48
-0.3717522621154785 1.2404240369796753 6.59390115737915 76 71 72
-0.369835764169693 0.05269912630319595 6.591792106628418 73 72 81
-0.3701898753643036 0.9905254244804382 6.632114887237549 62 57 58
-0.3424886465072632 -0.30724966526031494 6.6352033615112305 39 38 44
-0.3476700484752655 -2.0283238887786865 6.294508457183838 125 124 121
-0.34915193915367126 2.5698277950286865 6.390623569488525 102 98 92
-0.3619520664215088 -2.9040939807891846 6.721429824829102 46 39 30
-0.35894909501075745 0.2572675347328186 6.6588921546936035 142 141 157
-0.35040611028671265 -0.12531667947769165 6.669958114624023 78 77 86
-0.35040611028671265 -0.12531667947769165 6.669958114624023 78 77 86
-0.3529410660266876 -1.2827225923538208 6.659080982208252 89 90 105
-0.34670016169548035 -1.1734040975570679 6.707170009613037 100 100 114
-0.34369975328445435 -1.7534350156784058 6.66940450668335 120 116 116
-0.34485185146331787 -0.5714793801307678 6.690329074859619 114 115 125
-0.34253379702568054 -0.3072829246520996 6.635711193084717 39 38 44
-0.2930116355419159 2.552464008331299 5.707242965698242 79 76 71
-0.3340110778808594 1.3542948961257935 6.589398384094238 54 50 50
-0.34118786454200745 -1.8289235830307007 6.751996994018555 78 74 75
-0.34434181451797485 0.6685951948165894 6.627470016479492 60 57 62
-0.3502444326877594 -0.12529531121253967 6.6683878898620605 78 77 86
-0.3309738337993622 -1.556336522102356 6.679108619689941 100 99 101
-0.321882963180542 -1.3906670808792114 6.81810188293457 68 67 79
-0.33162373304367065 0.8126412630081177 6.701205730438232 92 93 97
-0.32314690947532654 -1.912456750869751 6.740795135498047 41 39 41
-0.25242891907691956 2.5752298831939697 5.22735595703125 110 109 104
-0.32666051387786865 0.780815839767456 6.694355487823486 108 108 109
-0.3231421113014221 -1.9123408794403076 6.740440845489502 41 39 41
-0.320332795381546 0.43975335359573364 6.65075159072876 105 106 110
-0.32158204913139343 -1.4150409698486328 6.776952266693115 108 107 114
-0.3160233199596405 2.4006998538970947 6.635951042175293 53 46 40
-0.32395482063293457 0.8604058623313904 6.980595588684082 78 79 89
-0.30897462368011475 1.9951000213623047 6.809121608734131 22 18 16
-0.2753697633743286 2.545642137527466 6.0486297607421875 104 101 95
-0.3076622188091278 0.5245537161827087 6.733613967895508 106 106 111
-0.3062124252319336 -0.8952018618583679 6.725103855133057 103 103 117
-0.3059724271297455 -1.6865665912628174 6.8029022216796875 113 110 110
-0.3074023425579071 -1.5052380561828613 6.894906997680664 97 95 98
-0.29708078503608704 -1.2195457220077515 6.904262542724609 72 72 83
-0.30083706974983215 0.09041750431060791 6.780045509338379 109 109 119
-0.24896951019763947 2.554746150970459 5.931816101074219 127 125 120
-0.32281824946403503 -1.4705839157104492 6.914085865020752 100 99 104
-0.3010411858558655 -1.7812089920043945 6.969135284423828 55 50 50
-0.27486586570739746 2.569706439971924 5.899363040924072 106 103 99
-0.291142076253891 -1.507846713066101 6.800642013549805 80 78 81
-0.28288722038269043 -1.063119888305664 6.760320663452148 77 77 91
-0.2805914878845215 -1.9138665199279785 6.712526798248291 40 38 39
-0.2856442928314209 -1.4686309099197388 6.851713180541992 83 81 84
-0.2790629267692566 0.06710491329431534 6.7630696296691895 91 89 98
-0.30096128582954407 -1.7809984683990479 6.968410015106201 55 50 50
-0.30096128582954407 -1.7809984683990479 6.968410015106201 55 50 50
-0.27497103810310364 -1.7765077352523804 6.783591270446777 64 59 60
-0.27372848987579346 0.6143290400505066 6.7648773193359375 71 67 86
-0.2679491341114044 -0.9224966168403625 6.78811502456665 103 103 117
-0.2603771686553955 -0.26414456963539124 6.683637619018555 103 102 109
-0.2628006339073181 0.4827883839607239 6.812178134918213 61 59 74
-0.2623828649520874 0.3464050889015198 6.818029880523682 79 75 85
-0.1111610159277916 -0.21300017833709717 2.8548567295074463 52 52 58
-0.2566293478012085 1.1114604473114014 6.773078918457031 64 58 59
-0.2522186040878296 -0.9314907789230347 6.847837924957275 100 100 114
-0.2522186040878296 -0.9314907789230347 6.847837924957275 100 100 114
-0.1996443271636963 2.579507350921631 5.4003005027771 95 91 87
-0.28316420316696167 0.7582374811172485 7.029245853424072 12 10 24
-0.24800440669059753 -0.8917152881622314 6.8430495262146 99 98 114
-0.24682965874671936 -1.0953155755996704 6.833490371704102 108 108 119
-0.23579536378383636 0.6393641233444214 6.5892534255981445 71 67 86
-0.20927481353282928 2.5575311183929443 5.751490592956543 76 74 71
-0.24159158766269684 -2.039017677307129 6.737606525421143 152 149 136
-0.24159158766269684 -2.039017677307129 6.737606525421143 152 149 136
-0.25038525462150574 -1.5311201810836792 7.008667945861816 113 110 113
-0.24493494629859924 1.0076740980148315 6.891164779663086 81 72 68
-0.23748530447483063 -1.9263638257980347 6.825196743011475 37 31 30
-0.2382200062274933 -1.749695897102356 6.936820030212402 33 28 27
-0.23400060832500458 -1.4127366542816162 6.82916784286499 106 105 107
-0.22642266750335693 1.885550856590271 6.964062213897705 27 22 20
-0.21153250336647034 1.7976640462875366 6.622754096984863 24 20 19
-0.23265574872493744 1.7222920656204224 6.86055326461792 58 53 51
-0.22657810151576996 -2.724807024002075 6.68781042098999 46 36 29
-0.2671055495738983 -1.6805387735366821 7.258554935455322 64 60 63
-0.22740237414836884 -2.804854154586792 6.779487133026123 54 45 37
-0.2352178990840912 -0.1493273824453354 6.842785835266113 67 66 71
-0.2302277386188507 -0.44599825143814087 7.079462051391602 104 103 109
-0.22119416296482086 -2.196491241455078 6.836479187011719 54 47 44
-0.22069087624549866 0.8093880414962769 6.865487575531006 78 72 73
-0.2233014702796936 0.9807954430580139 6.963935375213623 79 70 66
-0.20872405171394348 -0.6443606615066528 6.853428363800049 88 88 99
-0.20581895112991333 0.5931569933891296 6.918439865112305 52 50 69
-0.20062929391860962 -0.8096256256103516 6.92579460144043 91 94 119
-0.18909116089344025 2.4630041122436523 6.741821765899658 53 47 41
-0.2010086327791214 1.5369257926940918 6.93353271484375 54 48 46
-0.197501078248024 -0.44558265805244446 6.944305419921875 111 110 116
-0.19631755352020264 -0.1813630759716034 6.920838832855225 113 112 120
-0.19560478627681732 -0.28169113397598267 6.918281555175781 119 119 126
-0.19560478627681732 -0.28169113397598267 6.918281555175781 119 119 126
-0.19473578035831451 -1.0595064163208008 6.920225620269775 91 87 96
-0.21969519555568695 -1.7133692502975464 7.264829635620117 54 49 47
-0.19191554188728333 -0.5113312602043152 6.942042350769043 73 72 80
-0.1683698296546936 2.4908769130706787 6.2480573654174805 89 85 79
-0.1903512179851532 -1.592470645904541 6.945857524871826 46 40 38
-0.1903512179851532 -1.592470645904541 6.945857524871826 46 40 38
-0.18965305387973785 -0.7331520318984985 6.907774448394775 96 96 116
-0.1838262677192688 0.3137626349925995 6.980101108551025 79 78 99
-0.1568766087293625 2.5354437828063965 5.98729133605957 74 71 69
-0.17795123159885406 0.15965886414051056 6.965690612792969 91 87 92
-0.12941128015518188 2.607492446899414 5.170281410217285 78 77 73
-0.13383470475673676 2.589975595474243 5.30292272567749 79 76 72
-0.15551598370075226 2.4689323902130127 6.190318584442139 100 96 89
-0.16795162856578827 -0.2513847351074219 6.929748058319092 107 106 115
-0.14504146575927734 1.1055538654327393 7.011965751647949 89 80 78
-0.14242902398109436 -1.6127341985702515 7.035323143005371 73 63 57
-0.14008355140686035 -1.1002880334854126 7.04018497467041 116 105 98
-0.1549900472164154 -1.4948484897613525 6.99809455871582 85 78 75
-0.13956177234649658 1.785746455192566 7.070405006408691 58 51 47
-0.13284866511821747 -1.677045226097107 7.069455146789551 68 57 52
-0.1332971453666687 -1.682961106300354 7.083449840545654 68 57 52
-0.10459695756435394 2.5245869159698486 5.7344183921813965 73 71 69
-0.10459695756435394 2.5245869159698486 5.7344183921813965 73 71 69
-0.12959975004196167 2.511579990386963 6.413896083831787 74 70 66
-0.1261657476425171 0.14523360133171082 7.053700923919678 105 100 108
-0.12210749089717865 0.6115023493766785 7.073235511779785 68 59 52
-0.09063288569450378 2.5868113040924072 5.253048419952393 133 130 126
-0.11225154995918274 0.058761656284332275 6.777374267578125 81 74 76
-0.11091740429401398 0.0667656883597374 7.108208179473877 71 64 65
-0.10252983868122101 1.2687768936157227 7.2174530029296875 56 50 48
-0.08612589538097382 -0.7051804065704346 7.203978061676025 98 86 84
-0.09449849277734756 0.12130026519298553 7.138510704040527 64 57 61
-0.08420517295598984 2.5051822662353516 6.338257789611816 65 62 59
-0.08450236171483994 1.013939619064331 7.071689128875732 35 30 32
-0.07339780032634735 0.08827347308397293 7.173580169677734 80 70 71
-0.07339780032634735 0.08827347308397293 7.173580169677734 80 70 71
-0.08127453923225403 0.8830910325050354 7.089215278625488 60 51 44
-0.04988384246826172 2.6228864192962646 4.876298427581787 125 123 118
-0.0986243188381195 0.4688358008861542 7.517238140106201 108 96 91
-0.05300850048661232 2.5638110637664795 5.123536586761475 69 67 64
-0.05873315781354904 -0.1821471005678177 7.210383415222168 84 73 70
-0.0577213317155838 0.5911397933959961 7.079834461212158 110 98 85
-0.05447614938020706 0.39955341815948486 7.219710826873779 61 49 44
-0.04852200299501419 1.2497200965881348 7.103282928466797 85 80 79
-0.032440606504678726 -1.5136728286743164 7.109922409057617 47 32 23
-0.033188529312610626 0.38253113627433777 7.235893726348877 73 61 55
-0.028686314821243286 2.533541440963745 6.163311958312988 115 112 106
-0.027127249166369438 0.8745421767234802 7.089593410491943 105 95 85
-0.023443175479769707 0.9574366807937622 7.047563076019287 70 63 70
-0.012895451858639717 2.6097888946533203 5.09588098526001 80 78 74
-0.014277924783527851 -1.8004493713378906 7.02402925491333 38 28 21
-0.01059006154537201 1.0280663967132568 7.071110725402832 22 15 17
-0.006608382798731327 0.2727605700492859 6.906601428985596 51 39 33
-0.005568886175751686 2.6119654178619385 4.987383842468262 79 78 73
-0.0015486138872802258 2.4940731525421143 6.531713962554932 51 48 46
0.00083049206295982 1.270418643951416 7.100829124450684 50 47 49
-0.0016077684704214334 -1.5363290309906006 7.145627975463867 51 37 28
0.007430474739521742 -1.9844125509262085 6.815258502960205 72 68 71
0.019228875637054443 0.8962112665176392 7.020688056945801 85 78 78
0.025796515867114067 -2.215371608734131 6.723401069641113 76 71 72
0.030250024050474167 0.6114472150802612 6.9737629890441895 57 46 32
0.03280477970838547 -2.4587645530700684 6.717146396636963 58 54 56
0.0432952456176281 -2.3794288635253906 6.707698345184326 73 68 70
0.04806485027074814 0.7685738801956177 7.011548042297363 80 68 56
0.04233573004603386 2.47491717338562 5.740451812744141 83 84 81
0.05436456575989723 -2.414794921875 6.672889232635498 35 29 31
0.03464716672897339 2.5991570949554443 5.44407844543457 112 108 105
0.05542588606476784 2.5255913734436035 6.055283069610596 116 113 108
0.04608393460512161 -1.7250608205795288 6.972671031951904 56 45 38
0.056656673550605774 2.630345106124878 5.592111587524414 130 128 123
0.06704246997833252 -1.9982588291168213 6.731229305267334 64 58 66
0.06412448734045029 2.4838414192199707 6.348193168640137 70 70 68
0.08681198954582214 0.6687982082366943 7.176355838775635 102 89 75
0.09715180844068527 0.9631189703941345 6.978445053100586 56 51 60
0.10938603430986404 1.0425652265548706 7.049234390258789 75 69 75
0.10120011866092682 0.6850022673606873 6.962444305419922 118 105 91
0.10553015023469925 0.17986905574798584 7.077866077423096 55 40 31
0.1290779858827591 1.3839285373687744 7.051727771759033 34 29 31
0.10679065436124802 2.339521646499634 6.926750659942627 31 22 19
0.13988097012043 0.7174451947212219 6.947022914886475 108 96 82
0.13993440568447113 -2.141374111175537 6.678989887237549 83 76 80
0.10969871282577515 2.612778663635254 4.889831066131592 68 66 62
0.17146551609039307 -1.984989047050476 6.694753646850586 68 62 67
0.11534804105758667 2.597275972366333 4.993147850036621 68 66 62
0.15674005448818207 -2.804579257965088 6.582460403442383 55 46 39
0.14370745420455933 2.5223162174224854 5.8034162521362305 79 79 77
0.16980421543121338 0.8513109683990479 6.932131290435791 107 98 90
0.16587303578853607 -2.231968402862549 6.610123157501221 59 54 54
0.12779070436954498 2.5026917457580566 5.171065330505371 96 94 91
0.1744169145822525 0.7956583499908447 6.945335388183594 61 50 39
0.13641653954982758 2.5623180866241455 5.133302211761475 69 68 64
0.17623506486415863 2.404675245285034 6.345419883728027 92 91 88
0.1910845786333084 0.7044621706008911 6.916460990905762 128 115 101
0.14909017086029053 2.623467206954956 5.196946144104004 51 50 45
0.20576122403144836 0.8255890011787415 6.873591899871826 32 21 14
0.17999470233917236 -2.4634077548980713 6.727491855621338 40 34 32
0.19706378877162933 -2.127458333969116 6.36953592300415 74 69 73
0.2195749580860138 0.7883244752883911 6.977330684661865 72 62 49
0.1934024840593338 0.6097739338874817 6.840835094451904 133 120 106
0.22447778284549713 1.1272867918014526 7.107239246368408 73 70 88
0.17183443903923035 2.567488193511963 5.055653095245361 68 67 64
0.22973063588142395 -1.9309883117675781 6.36284065246582 74 68 76
0.24321602284908295 0.5007017850875854 7.097261905670166 53 40 30
0.24431656301021576 0.6782258749008179 6.780677318572998 117 104 90
0.24903452396392822 -1.9609432220458984 6.887192249298096 37 30 28
0.2589770555496216 1.0037230253219604 6.963812828063965 68 63 77
0.19475549459457397 2.569582939147949 5.368703842163086 80 79 76
0.28945431113243103 0.8450916409492493 7.0438232421875 40 28 19
0.28146296739578247 -2.69765567779541 6.295472621917725 65 58 51
0.22415079176425934 2.572988986968994 5.337674140930176 78 76 73
0.23754410445690155 2.5428502559661865 5.626458644866943 64 64 61
0.2885935306549072 0.6019014120101929 6.795846462249756 131 119 105
0.21286559104919434 2.5964372158050537 5.000067710876465 71 71 68
0.2842217981815338 -2.4039900302886963 6.644867420196533 80 74 74
0.2858200669288635 -2.4901585578918457 6.503082752227783 64 59 63
0.29474595189094543 0.9585626125335693 6.831245422363281 51 47 59
0.2976877689361572 1.1552941799163818 6.884653091430664 60 55 70
0.2976877689361572 1.1552941799163818 6.884653091430664 60 55 70
0.2298736572265625 2.579066276550293 5.237673282623291 85 83 80
0.2442002296447754 2.541712760925293 5.567859172821045 63 61 59
0.31100815534591675 -2.267439126968384 6.573874473571777 69 64 64
0.31760209798812866 0.9804864525794983 6.880217552185059 90 86 97
0.31786465644836426 1.7665685415267944 6.882987976074219 58 54 55
0.3405762314796448 1.1979985237121582 7.128849983215332 64 58 69
0.24883677065372467 2.608031988143921 5.091622352600098 101 100 98
0.32644158601760864 -2.202639102935791 6.627364635467529 64 57 57
0.3218613862991333 1.1104763746261597 6.96993350982666 88 82 93
0.3473071753978729 1.2114818096160889 6.9213762283325195 13 10 18
0.2737897038459778 2.561424493789673 5.2994914054870605 66 65 61
0.35643771290779114 0.9544976353645325 6.873541355133057 77 73 78
0.35816749930381775 0.5562313199043274 6.8603315353393555 119 109 98
0.3619881868362427 1.1213072538375854 6.775355339050293 77 71 82
0.3537224531173706 -2.170813798904419 6.5827226638793945 81 74 76
0.3747861683368683 -2.00187349319458 6.919581413269043 59 53 51
0.28279179334640503 2.5610551834106445 5.454104900360107 99 98 95
0.3965935707092285 -0.2910657227039337 6.983307838439941 241 237 234
0.38943126797676086 0.9426575899124146 6.825462341308594 79 75 74
0.386385977268219 2.4833498001098633 6.888364315032959 84 78 71
0.40766629576683044 0.6980094909667969 6.787166595458984 79 68 54
0.36818933486938477 2.5489661693573 6.010534763336182 83 83 82
0.418491929769516 0.8087394833564758 6.815097808837891 104 94 81
0.42004746198654175 0.8493068814277649 6.830169677734375 124 115 106
0.4233655333518982 0.970192551612854 6.823703289031982 105 99 96
0.4217546582221985 0.7405626177787781 6.776339054107666 124 113 99
0.4041292369365692 -2.7457053661346436 6.385937690734863 58 49 42
0.4475862383842468 -0.2798560857772827 7.049192905426025 250 246 245
0.40770071744918823 2.3870465755462646 6.336277008056641 123 122 118
0.44475188851356506 1.2547104358673096 6.878556251525879 54 48 58
0.4445820152759552 1.9274888038635254 6.954531192779541 24 19 19
0.43664759397506714 -1.91921865940094 6.465670108795166 99 97 102
0.3755396008491516 2.624697208404541 5.694693088531494 101 100 95
0.47249361872673035 0.9070614576339722 6.804160118103027 58 52 63
0.45636823773384094 -2.2515640258789062 6.434473514556885 88 82 84
0.3483160436153412 2.593385696411133 4.9161272048950195 68 68 65
0.48476046323776245 1.4552316665649414 6.821425914764404 57 53 59
0.4733845293521881 1.0321553945541382 6.856930255889893 13 8 10
0.46561264991760254 -2.1569390296936035 6.5313239097595215 97 92 94
0.46936047077178955 -2.073941707611084 6.478726387023926 95 90 95
0.35552099347114563 2.6032755374908447 4.841972351074219 73 73 70
0.5029726028442383 0.6894546151161194 6.748955249786377 130 120 104
0.3977868854999542 2.6063718795776367 5.322447776794434 128 128 125
0.5009815096855164 -2.3690598011016846 6.697495937347412 69 64 65
0.48996320366859436 -2.060208559036255 6.369045734405518 70 67 69
0.5106913447380066 0.5717002153396606 6.725556373596191 150 138 124
0.43693313002586365 2.5255846977233887 5.499119281768799 61 58 54
0.5479539632797241 0.6288159489631653 6.819079399108887 139 128 114
0.5482406616210938 1.317844033241272 6.811944007873535 78 75 81
0.5696867108345032 0.5868192911148071 6.946925640106201 162 150 136
0.5567625761032104 1.394060730934143 6.870223522186279 28 24 27
0.5879032015800476 -0.1728229522705078 7.013679027557373 245 236 232
0.5234388113021851 -1.9828027486801147 6.621863842010498 49 45 46
0.5748538374900818 1.7461798191070557 6.84347677230835 20 15 16
0.5748538374900818 1.7461798191070557 6.84347677230835 20 15 16
0.42364105582237244 2.589508295059204 4.959835529327393 85 84 83
0.5908886194229126 0.9692306518554688 6.789453983306885 59 56 75
0.600549578666687 1.9427361488342285 6.911020278930664 24 20 19
0.6106134653091431 1.45834219455719 6.8133745193481445 53 48 53
0.6024873852729797 0.7473605275154114 6.70982027053833 82 69 53
0.6024873852729797 0.7473605275154114 6.70982027053833 82 69 53
0.6214885115623474 -0.24238060414791107 6.911344051361084 235 228 224
0.6059955954551697 -2.0666301250457764 6.452523231506348 94 91 101
0.6606220602989197 -0.036526553332805634 6.965330600738525 223 213 206
0.6111262440681458 -2.4020309448242188 6.4669389724731445 86 80 81
0.6291935443878174 1.1060209274291992 6.672149181365967 103 96 100
0.6291935443878174 1.1060209274291992 6.672149181365967 103 96 100
0.5346059203147888 2.522979736328125 5.605307102203369 118 114 110
0.5346059203147888 2.522979736328125 5.605307102203369 118 114 110
0.667521059513092 1.8269060850143433 6.897116184234619 54 49 50
0.4742816090583801 2.595391035079956 4.870317459106445 85 84 82
0.4742816090583801 2.595391035079956 4.870317459106445 85 84 82
0.4742816090583801 2.595391035079956 4.870317459106445 85 84 82
0.6512522101402283 -1.9671313762664795 6.493756294250488 95 90 90
0.6723487973213196 1.1096539497375488 6.762548446655273 100 94 97
0.6401067972183228 -2.3002495765686035 6.310574054718018 68 61 60
0.6457104086875916 -1.9661433696746826 6.321260452270508 83 77 75
0.6675159931182861 0.9116175174713135 6.437321186065674 59 57 72
0.7222049832344055 0.8482260704040527 6.838529109954834 31 22 14
0.7419465780258179 -0.565062403678894 7.138370037078857 243 240 235
0.700563907623291 -0.2353171706199646 6.637431621551514 230 222 216
0.700563907623291 -0.2353171706199646 6.637431621551514 230 222 216
0.7184714674949646 0.5329005718231201 6.770854473114014 80 62 47
0.7061745524406433 0.6965388655662537 6.626981735229492 88 75 59
0.7061745524406433 0.6965388655662537 6.626981735229492 88 75 59
0.7061745524406433 0.6965388655662537 6.626981735229492 88 75 59
0.7390700578689575 -0.9157567024230957 6.9058051109313965 225 223 215
0.6806691288948059 -2.397477149963379 6.337234020233154 86 80 80
0.7320547699928284 1.623641848564148 6.8190083503723145 57 54 57
0.7391049265861511 0.40508681535720825 6.836402893066406 64 46 34
0.6973122358322144 -2.0722250938415527 6.2041192054748535 100 95 100
0.736642062664032 0.32207560539245605 6.789748191833496 100 90 80
0.6107584238052368 2.5226781368255615 5.369246959686279 62 60 56
0.6331066489219666 2.4192683696746826 5.68474817276001 101 97 93
0.7468583583831787 1.072355031967163 6.6853346824646 72 68 77
0.7303029298782349 -2.194340705871582 6.478501796722412 100 95 100
0.7511781454086304 0.7654967904090881 6.62030553817749 164 152 137
0.7511781454086304 0.7654967904090881 6.62030553817749 164 152 137
0.7549949884414673 0.8748056888580322 6.65303373336792 92 86 90
0.7696340084075928 -0.8406542539596558 6.739777088165283 254 252 247
0.7839689254760742 0.5474173426628113 6.829833507537842 85 70 56
0.7612408399581909 0.8580164909362793 6.636828422546387 71 63 59
0.7612408399581909 0.8580164909362793 6.636828422546387 71 63 59
0.7399335503578186 -1.9956907033920288 6.426352500915527 101 97 99
0.6691136360168457 2.5341081619262695 5.709513187408447 124 121 115
0.6499903202056885 2.5079290866851807 5.572249889373779 54 53 48
0.7765320539474487 1.2096796035766602 6.6493000984191895 25 19 28
0.6338465213775635 2.5371718406677246 5.40056037902832 70 68 64
0.6338465213775635 2.5371718406677246 5.40056037902832 70 68 64
0.8130233883857727 -0.5573706030845642 6.885222434997559 255 253 246
0.7744417190551758 1.4412418603897095 6.605081558227539 53 48 52
0.7835655808448792 0.6596592664718628 6.59186315536499 108 98 84
0.7581784129142761 -2.737335205078125 6.3496479988098145 59 52 53
0.7962455749511719 1.4996061325073242 6.688732147216797 37 33 36
0.7962455749511719 1.4996061325073242 6.688732147216797 37 33 36
0.7585403919219971 -2.177156448364258 6.311304092407227 84 79 84
0.8403306603431702 0.31460604071617126 6.874871730804443 200 190 180
0.7729177474975586 -2.2392051219940186 6.293978214263916 102 97 100
0.7394038438796997 2.4819817543029785 6.074916839599609 124 123 121
0.8319411277770996 0.7941227555274963 6.654205799102783 94 83 69
0.8280854821205139 1.0816717147827148 6.595170974731445 71 69 82
0.798660159111023 -2.3799359798431396 6.2932000160217285 61 55 54
0.8407696485519409 1.138276219367981 6.592960357666016 74 71 87
0.8189294934272766 -2.1042215824127197 6.434474945068359 80 73 74
0.8189294934272766 -2.1042215824127197 6.434474945068359 80 73 74
0.7999128699302673 2.5574429035186768 6.245582103729248 112 107 102
0.8675016760826111 -1.6752712726593018 6.65146017074585 109 106 103
0.8675016760826111 -1.6752712726593018 6.65146017074585 109 106 103
0.844618558883667 1.3826318979263306 6.629249095916748 27 22 24
0.8078078627586365 -2.0559868812561035 6.189222812652588 97 92 92
0.6635295152664185 2.5852341651916504 5.075494289398193 121 118 115
0.8634911179542542 0.783163845539093 6.5580058097839355 83 72 58
0.8382751941680908 -2.3549680709838867 6.346250534057617 92 85 86
0.6989514827728271 2.542661428451538 5.289938449859619 70 69 64
0.6989514827728271 2.542661428451538 5.289938449859619 70 69 64
0.8630784749984741 1.131981372833252 6.45750617980957 112 110 123
0.6618491411209106 2.5773675441741943 4.944758892059326 132 129 126
0.8911478519439697 2.4422175884246826 6.5958967208862305 50 47 42
0.7265079617500305 2.536173105239868 5.331014156341553 67 64 60
0.9284225106239319 2.3469338417053223 6.794454574584961 61 54 48
0.8799532055854797 2.4837119579315186 6.355592727661133 68 67 62
0.8799532055854797 2.4837119579315186 6.355592727661133 68 67 62
0.895209550857544 1.1128989458084106 6.558387756347656 46 43 57
0.6879303455352783 2.5813751220703125 5.025625705718994 67 64 61
0.8895536065101624 1.8848716020584106 6.4761643409729 29 25 25
0.8720191717147827 -2.0680418014526367 6.3238372802734375 115 110 111
0.9223516583442688 -2.0187971591949463 6.666911602020264 55 47 43
0.9020779132843018 2.5604002475738525 6.511190891265869 50 49 44
0.9214312434196472 1.469109296798706 6.590938091278076 53 47 51
0.6962845921516418 2.5366432666778564 4.927389621734619 110 108 103
0.9560010433197021 2.0728507041931152 6.873477458953857 48 43 44
0.9401367902755737 -0.5768841505050659 6.616909980773926 104 84 66
0.8910801410675049 -1.983489751815796 6.248940944671631 107 103 104
0.8781740069389343 -2.185382127761841 6.143496513366699 102 102 106
0.9632692337036133 2.274186372756958 6.873775482177734 53 48 45
0.9484298825263977 -1.8548128604888916 6.612827777862549 67 50 38
0.8955219984054565 -2.5822558403015137 6.2173333168029785 73 66 66
0.7788123488426208 2.527297258377075 5.380273342132568 83 81 78
0.9776996970176697 2.0875778198242188 6.760510444641113 59 55 55
0.7279413342475891 2.5658469200134277 4.999446392059326 74 71 67
0.7279413342475891 2.5658469200134277 4.999446392059326 74 71 67
0.9650787115097046 0.4881882965564728 6.622217655181885 71 57 45
0.9256811738014221 2.423295021057129 6.3160905838012695 56 56 51
0.928747296333313 -2.243185043334961 6.275753021240234 105 104 107
0.8107101917266846 2.4393837451934814 5.435459613800049 69 65 59
0.974764347076416 0.9391481280326843 6.549348831176758 67 60 67
0.9699860215187073 1.0299845933914185 6.524434566497803 10 6 15
0.9702565670013428 1.2276721000671387 6.518020153045654 74 67 66
0.9672560691833496 0.6655815839767456 6.46679162979126 83 72 58
0.9381823539733887 -2.410728931427002 6.260450839996338 95 88 87
0.9599716067314148 2.440190553665161 6.310396671295166 59 57 52
0.9915840029716492 1.4351032972335815 6.489360332489014 81 73 66
1.0212838649749756 2.471752643585205 6.6846160888671875 71 67 61
1.0143228769302368 -0.7495759725570679 6.616787433624268 114 95 75
1.029763102531433 -0.8593226671218872 6.601964473724365 100 80 62
0.9510962963104248 -1.3268893957138062 6.180391788482666 75 56 40
1.0205718278884888 -2.0615649223327637 6.607336521148682 75 70 70
1.0111781358718872 1.074544906616211 6.548172473907471 40 36 48
0.9940713047981262 -1.7710509300231934 6.425924301147461 42 24 14
1.0443027019500732 0.7879688143730164 6.764305591583252 102 90 75
1.0250314474105835 1.4873631000518799 6.56884241104126 87 78 70
0.9778009057044983 -2.36000919342041 6.205151081085205 91 84 89
1.0352944135665894 -0.7424741387367249 6.56299352645874 96 77 59
1.116985559463501 0.5063158273696899 7.044671058654785 79 62 50
1.0569419860839844 2.391493558883667 6.7030792236328125 39 32 27
1.0454661846160889 -0.33011379837989807 6.605363845825195 73 53 40
1.0454661846160889 -0.33011379837989807 6.605363845825195 73 53 40
1.063915491104126 0.029884980991482735 6.684983253479004 54 36 26
0.9962322115898132 2.408322334289551 6.187638282775879 52 48 42
0.8239662647247314 2.543205738067627 5.162386894226074 66 64 59
1.024303913116455 -2.0647685527801514 6.387990951538086 103 97 102
1.0397294759750366 0.6324863433837891 6.4723801612854 85 72 59
1.06296968460083 -1.0203990936279297 6.65888786315918 94 72 57
1.058060884475708 1.2077237367630005 6.529315948486328 23 14 16
1.0817798376083374 -0.4761761426925659 6.568235874176025 75 58 45
0.9303629994392395 2.502819538116455 5.637632369995117 83 76 71
0.9303629994392395 2.502819538116455 5.637632369995117 83 76 71
1.0530993938446045 -2.2818567752838135 6.3786163330078125 70 63 62
1.0255333185195923 -1.9966970682144165 6.157024383544922 104 99 104
1.0255333185195923 -1.9966970682144165 6.157024383544922 104 99 104
1.075872540473938 0.7240481376647949 6.450814723968506 76 65 52
1.0999516248703003 -0.010338477790355682 6.589456081390381 62 45 37
1.076159119606018 -1.762035846710205 6.351670265197754 89 74 62
1.076159119606018 -1.762035846710205 6.351670265197754 89 74 62
1.0786802768707275 1.9608339071273804 6.465709209442139 69 63 59
1.0920847654342651 1.3069028854370117 6.5337018966674805 102 93 84
1.090626835823059 1.5037486553192139 6.528817653656006 128 117 106
1.0300040245056152 0.20686344802379608 6.12637996673584 60 46 37
1.0850205421447754 -1.4161550998687744 6.451257228851318 101 84 71
1.1225758790969849 -0.20842011272907257 6.5872883796691895 93 77 69
1.1284006834030151 -0.7478688955307007 6.612552642822266 250 245 241
1.111891508102417 1.2963435649871826 6.513516902923584 135 125 117
1.130661129951477 -0.04081074520945549 6.602694034576416 83 71 65
1.123605728149414 -1.6679831743240356 6.560089588165283 67 52 39
1.1331377029418945 -1.409555435180664 6.597817420959473 78 62 47
1.1377778053283691 -0.002145106438547373 6.608656406402588 83 72 65
1.1377778053283691 -0.002145106438547373 6.608656406402588 83 72 65
1.120110034942627 1.413096308708191 6.508944988250732 85 76 68
1.105870246887207 0.9065121412277222 6.401067733764648 47 43 51
1.144745945930481 0.5099738240242004 6.612082481384277 46 34 23
1.0498753786087036 -1.489237666130066 5.952478408813477 79 64 53
