ply
format ascii 1.0
element vertex 725
property float x
property float y
property float z
property uchar red
property uchar green
property uchar blue
end_header
0.0445266030728817 0.6939321756362915 4.656783103942871 43 43 57
0.0445266030728817 0.6939321756362915 4.656783103942871 43 43 57
0.033371634781360626 2.729055881500244 4.880856990814209 44 44 52
0.03901625797152519 1.2035472393035889 4.72893762588501 33 34 45
0.05218576639890671 -1.7837603092193604 4.35107421875 9 9 14
0.04292545095086098 2.7597854137420654 4.898902893066406 28 27 35
0.046904534101486206 -0.2802712619304657 4.634176254272461 46 46 55
0.06843329221010208 -0.7700585126876831 4.459507942199707 47 47 55
0.08105442672967911 0.5095478892326355 4.700911045074463 49 54 74
0.08105442672967911 0.5095478892326355 4.700911045074463 49 54 74
0.08099392056465149 0.2604905962944031 4.655280590057373 29 30 40
0.09256681799888611 2.5634021759033203 4.848216533660889 29 28 37
0.10305994749069214 -1.3806627988815308 4.40039587020874 15 15 24
0.09716256707906723 0.2946118712425232 4.666934013366699 38 40 54
0.0883699357509613 -2.4227542877197266 4.498797416687012 19 17 23
0.10814132541418076 2.6059682369232178 4.858347415924072 31 31 41
0.10814132541418076 2.6059682369232178 4.858347415924072 31 31 41
0.10814132541418076 2.6059682369232178 4.858347415924072 31 31 41
0.10864671319723129 -0.15847209095954895 4.626001358032227 29 29 42
0.10242871940135956 -1.5957913398742676 4.4821295738220215 22 24 29
0.11822614073753357 -1.2161234617233276 4.54097318649292 9 9 17
0.11850251257419586 -1.2156155109405518 4.5393452644348145 9 10 17
0.12080521881580353 -1.5822302103042603 4.499597549438477 25 26 31
0.140071302652359 -0.7796527147293091 4.586944103240967 62 64 73
0.15554019808769226 2.493134021759033 4.967804908752441 33 34 48
0.15256069600582123 -0.015075037255883217 4.640445709228516 56 56 65
0.15841715037822723 0.707429826259613 4.757029056549072 49 49 62
0.17673295736312866 2.1490581035614014 4.93431282043457 5 5 13
0.17705181241035461 2.5804450511932373 4.969395160675049 31 34 40
0.167937770485878 0.031085478141903877 4.696447849273682 33 33 43
0.18507559597492218 0.24803759157657623 4.747482776641846 33 35 47
0.20541639626026154 1.4824292659759521 4.710194110870361 44 45 54
0.20418299734592438 0.7530078887939453 4.8244123458862305 9 8 17
0.20108240842819214 0.3786751329898834 4.746335983276367 43 45 55
0.20742550492286682 1.1409491300582886 4.8362717628479 7 9 17
0.20870530605316162 -2.392418146133423 4.531935214996338 15 13 19
0.20907531678676605 0.5696751475334167 4.812436580657959 30 30 39
0.2220797836780548 1.7609363794326782 4.906685829162598 40 41 49
0.22398468852043152 -0.9811252355575562 4.647593975067139 43 45 59
0.21957698464393616 -2.3486032485961914 4.520953178405762 12 10 16
0.2409857213497162 0.3548301160335541 4.785027503967285 6 6 15
0.2439909130334854 -1.039463996887207 4.6870903968811035 28 29 36
0.2528213858604431 1.8061528205871582 4.91988468170166 38 39 50
0.2564983367919922 0.012733133509755135 4.758958339691162 28 27 36
0.25675496459007263 -0.0521518848836422 4.751694679260254 70 71 78
0.273765504360199 -0.3971673548221588 4.6792402267456055 30 30 38
0.27333158254623413 1.403856873512268 4.92746639251709 41 41 53
0.2832149565219879 2.7103676795959473 5.064579010009766 51 51 60
0.27375397086143494 -0.39715126156806946 4.6789655685424805 30 30 38
0.2598208487033844 -0.02668669819831848 4.780579566955566 10 11 17
0.26618582010269165 -0.9768583178520203 4.645986080169678 35 37 48
0.2883663773536682 -0.23417620360851288 4.719245910644531 41 42 51
0.3067437410354614 2.253706455230713 4.987069606781006 31 31 47
0.2873474955558777 -0.7813657522201538 4.594323635101318 39 39 45
0.3169153332710266 2.1621923446655273 5.020017623901367 41 40 51
0.3031069338321686 -0.6351088285446167 4.756073951721191 38 38 47
0.30378878116607666 -0.6334385871887207 4.7494611740112305 38 38 47
0.31232914328575134 -1.603819727897644 4.593898296356201 10 11 16
0.3232792019844055 1.0769132375717163 4.952206611633301 32 33 47
0.33530285954475403 1.2658995389938354 4.911492824554443 31 31 45
0.3295530080795288 -1.8060553073883057 4.658897399902344 21 22 27
0.367610901594162 2.3515102863311768 5.089251518249512 4 5 14
0.37230026721954346 2.5767531394958496 5.066222667694092 29 27 35
0.33980509638786316 -1.841844081878662 4.636087417602539 31 31 37
0.3571881949901581 0.28564590215682983 4.851624011993408 32 31 43
0.3584881126880646 0.48026618361473083 4.814363479614258 31 31 44
0.3606402575969696 -0.7195827960968018 4.753316402435303 45 47 60
0.38080400228500366 -0.4459466338157654 4.769664287567139 43 44 58
0.4136674702167511 2.1219701766967773 5.082468509674072 62 62 71
0.42322665452957153 1.5249392986297607 4.997357368469238 34 34 43
0.4240785241127014 1.5240206718444824 4.987823963165283 73 73 83
0.41682422161102295 0.3893774747848511 4.885556221008301 37 38 48
0.4267443120479584 0.34964796900749207 4.831595420837402 9 8 17
0.42487633228302 0.25570985674858093 4.88845157623291 33 32 43
0.4176662564277649 -0.5155978798866272 4.78969144821167 31 31 44
0.45049169659614563 2.593862295150757 5.16353178024292 40 39 47
0.45457637310028076 2.5375142097473145 5.1523308753967285 10 10 18
0.436381459236145 1.1507608890533447 5.008997440338135 74 74 84
0.4424379765987396 -0.43155544996261597 4.821290016174316 47 49 60
0.4808593690395355 2.758906602859497 5.202049732208252 51 51 56
0.469333678483963 0.5363315939903259 4.8651299476623535 7 7 16
0.476947546005249 1.5974371433258057 5.083362102508545 34 34 50
0.4783977270126343 0.1624838411808014 4.941737651824951 31 32 41
0.4596261978149414 -0.2814408540725708 4.858508586883545 42 44 54
0.4707958698272705 0.3553578555583954 4.938263893127441 6 6 14
0.48702272772789 -0.21996253728866577 4.8834919929504395 32 32 39
0.48894232511520386 0.7058195471763611 5.020153999328613 26 27 40
0.47651493549346924 -0.41579869389533997 4.876702308654785 13 14 23
0.47593772411346436 -0.47850051522254944 4.865686416625977 47 47 60
0.4789230227470398 0.4703180491924286 5.077025413513184 27 28 35
0.5014846324920654 -0.6163383722305298 4.884189605712891 6 7 14
0.5019139647483826 -0.8006914854049683 4.854034900665283 42 43 50
0.4979461431503296 -0.6415361166000366 4.872323989868164 5 6 11
0.5029431581497192 -0.5741285085678101 4.871800422668457 45 46 56
0.5240469574928284 1.0768492221832275 5.059165000915527 32 31 47
0.5250886678695679 0.029542019590735435 4.928655624389648 30 30 45
0.5168740749359131 -1.5926204919815063 4.789794921875 33 32 37
0.5295414924621582 -0.5460548400878906 4.866837978363037 30 29 39
0.565051794052124 2.584868907928467 5.176064968109131 32 31 38
0.5409209728240967 -1.025282382965088 4.8897552490234375 8 7 15
0.5499550104141235 0.48165163397789 5.005364418029785 28 28 38
0.6163414716720581 2.8032162189483643 5.300047397613525 13 12 17
0.550572395324707 -1.222904920578003 4.792258262634277 30 29 37
0.542919397354126 -1.6024374961853027 4.804826259613037 30 29 34
0.602005124092102 1.8626214265823364 5.195092678070068 47 49 62
0.5927225947380066 0.26773756742477417 5.003067970275879 31 31 43
0.5594766736030579 -2.259996175765991 4.865502834320068 30 32 39
0.5774062871932983 -2.2899768352508545 4.735601902008057 32 34 42
0.648894727230072 2.5418002605438232 5.295314311981201 62 63 69
0.624907374382019 -0.12413263320922852 5.0109543800354 52 55 68
0.6510676145553589 0.7268794178962708 5.027024745941162 32 34 39
0.6419477462768555 -0.13923794031143188 5.01423978805542 51 54 66
0.6996796131134033 2.6291165351867676 5.380020618438721 27 28 36
0.6639810800552368 0.5782994627952576 5.104025840759277 61 62 72
0.6950855255126953 2.204716444015503 5.312857627868652 30 30 46
0.648644208908081 -1.531433343887329 4.9324774742126465 25 27 36
0.7484379410743713 3.041260242462158 5.453260898590088 29 25 25
0.6945112347602844 -0.44843894243240356 5.020257472991943 39 37 47
0.688403844833374 -0.04116668552160263 5.080904006958008 32 33 42
0.7341415286064148 1.4368313550949097 5.179590702056885 28 28 41
0.762697160243988 2.460476875305176 5.403254985809326 38 40 57
0.7201293110847473 -0.6160517930984497 5.035766124725342 25 25 33
0.7445641160011292 0.9032418727874756 5.197052001953125 34 34 46
0.7780584692955017 2.530134916305542 5.393913269042969 9 10 19
0.7262515425682068 -0.15032002329826355 5.055633544921875 26 27 34
0.7683338522911072 1.201629877090454 5.224704265594482 34 35 49
0.7424352169036865 -0.6548596620559692 5.033805847167969 45 46 59
0.7498083710670471 -0.7134295701980591 4.960699081420898 41 43 57
0.7397564053535461 -1.0010432004928589 4.976430892944336 37 37 43
0.8142447471618652 2.9079315662384033 5.426814556121826 43 41 45
0.8147132396697998 2.7696444988250732 5.414316177368164 46 45 54
0.8130335807800293 2.314978837966919 5.370296955108643 47 47 58
0.7688749432563782 -0.10707969963550568 4.996302127838135 38 37 48
0.8137573599815369 2.187804937362671 5.371002197265625 27 27 41
0.8325902819633484 1.9007725715637207 5.332335472106934 53 52 61
0.8137892484664917 2.060020685195923 5.267702102661133 52 52 61
0.8389603495597839 2.3888051509857178 5.5446882247924805 71 72 83
0.8137844800949097 2.060015916824341 5.267688274383545 52 52 61
0.7999778389930725 0.04730915650725365 5.138058662414551 28 28 41
0.8467327952384949 2.039461851119995 5.367949962615967 36 37 47
0.8587966561317444 1.7268168926239014 5.43863582611084 9 10 20
0.8685453534126282 3.0214757919311523 5.493444919586182 56 50 50
0.8456429839134216 1.5077946186065674 5.313204765319824 2 2 11
0.9002691507339478 2.442674398422241 5.440324783325195 31 32 45
0.8565745949745178 -0.7961257100105286 5.111220836639404 38 40 50
0.8890195488929749 0.35250672698020935 5.266358375549316 7 7 17
0.8933650851249695 0.5343599319458008 5.262315273284912 7 8 17
0.9407567977905273 2.4011154174804688 5.529956340789795 25 27 43
0.8965225219726562 -0.1049344465136528 5.2286834716796875 39 37 50
0.9537544250488281 2.631324291229248 5.52187967300415 48 48 57
0.9036255478858948 0.14784947037696838 5.266812324523926 4 5 13
0.8868960738182068 -1.5875767469406128 5.0699310302734375 37 41 52
0.9459640383720398 1.4394572973251343 5.385222911834717 30 29 41
0.9234384894371033 -0.6210464835166931 5.171026706695557 35 35 42
0.9863836169242859 2.4298815727233887 5.504774570465088 41 42 58
0.9034603834152222 -2.2230517864227295 5.005676746368408 29 28 36
0.9629917740821838 0.34252625703811646 5.303616046905518 8 8 18
0.9546531438827515 0.02685847133398056 5.253443241119385 27 26 35
0.9086613655090332 -2.3084261417388916 4.984147548675537 24 23 32
0.9937686324119568 1.0728087425231934 5.374340534210205 38 39 53
1.0332247018814087 1.8598313331604004 5.582479476928711 43 43 55
0.9843451976776123 0.17234525084495544 5.295569896697998 20 21 30
1.0335828065872192 2.351414203643799 5.545010089874268 29 30 42
0.930838942527771 -1.5417286157608032 4.890503883361816 20 21 29
0.9634145498275757 -1.0307910442352295 5.159698486328125 11 10 15
1.0062083005905151 1.1997299194335938 5.384796142578125 27 28 42
0.9797369837760925 -0.34415435791015625 5.220973491668701 22 22 33
1.0349409580230713 2.2987313270568848 5.536220550537109 9 10 19
0.9769517779350281 -0.9848840832710266 5.158589839935303 32 34 43
0.9755487442016602 -0.6876150965690613 5.115981101989746 22 22 31
1.078849196434021 2.255702257156372 5.585483551025391 43 45 55
1.0939550399780273 2.4978833198547363 5.619811058044434 8 7 16
0.990267276763916 -1.776529312133789 5.02324104309082 19 19 25
1.1192848682403564 0.9009101390838623 5.713613986968994 31 29 44
1.0097579956054688 -1.3855286836624146 5.14581298828125 33 34 44
1.0660316944122314 0.7086275219917297 5.4058990478515625 33 33 44
1.0214813947677612 -1.637794852256775 5.172059535980225 17 18 23
1.1356157064437866 2.9130642414093018 5.675009250640869 43 40 45
1.1057707071304321 1.1751785278320312 5.458895683288574 45 50 69
1.1115227937698364 2.9533584117889404 5.3772406578063965 52 50 54
1.119765281677246 0.5896269679069519 5.446412563323975 29 28 38
1.1373517513275146 2.138568162918091 5.517796993255615 27 28 43
1.1476117372512817 1.139814853668213 5.519392013549805 48 49 58
1.1211767196655273 -0.22986237704753876 5.3470354080200195 8 8 17
1.1763944625854492 2.327944278717041 5.613719463348389 28 29 43
1.1937007904052734 1.6063988208770752 5.573636531829834 35 34 49
1.1847193241119385 1.3689717054367065 5.524391174316406 47 45 57
1.2307729721069336 2.6460957527160645 5.727128982543945 39 39 47
1.259217619895935 2.569558620452881 5.901446342468262 22 23 32
1.2269724607467651 2.286134719848633 5.6727614402771 5 5 15
1.1926991939544678 0.8130471110343933 5.470642566680908 45 48 62
1.124423861503601 -2.372594118118286 5.098289966583252 26 24 29
1.2118175029754639 0.7504197955131531 5.4932942390441895 62 64 75
1.1669753789901733 -1.6346566677093506 5.224205017089844 23 23 29
1.1826398372650146 -0.7793316841125488 5.279414176940918 31 32 40
1.170536756515503 -1.8141919374465942 5.21938943862915 11 10 14
1.170536756515503 -1.8141919374465942 5.21938943862915 11 10 14
1.2366509437561035 0.7805684208869934 5.501939296722412 44 47 61
1.2366509437561035 0.7805684208869934 5.501939296722412 44 47 61
1.2503275871276855 0.6911071538925171 5.527531147003174 57 58 70
1.2839570045471191 1.9954980611801147 5.675262928009033 31 32 46
1.2724716663360596 1.273134708404541 5.603351593017578 32 32 42
1.2612587213516235 0.8101649284362793 5.5304274559021 36 39 53
1.2961835861206055 0.6207777261734009 5.529868125915527 27 26 38
1.3157479763031006 1.141879677772522 5.593594074249268 30 31 41
1.331036925315857 0.5328543186187744 5.612053871154785 3 3 12
1.3728382587432861 2.9949684143066406 5.806508541107178 49 43 44
1.3219603300094604 2.9799866676330566 5.493130683898926 56 53 59
1.3289554119110107 0.13700108230113983 5.527392864227295 6 7 15
1.4482522010803223 2.975011110305786 5.963011741638184 32 28 32
1.3892768621444702 1.3485150337219238 5.666611671447754 29 28 42
1.353499174118042 3.0018889904022217 5.467425346374512 57 54 59
1.336159586906433 -0.7962045669555664 5.42845344543457 28 28 37
1.451562762260437 3.0402281284332275 5.852924346923828 105 100 103
1.3246028423309326 -1.2467457056045532 5.348706245422363 33 36 51
1.3267775774002075 -1.3566710948944092 5.345643520355225 41 45 58
1.3242021799087524 -2.3560004234313965 5.290035247802734 13 11 15
1.3033658266067505 -2.348940372467041 5.114243984222412 24 24 34
1.3673052787780762 -0.8065266609191895 5.4272613525390625 28 28 34
1.3997681140899658 -1.609334111213684 5.426601886749268 18 18 22
1.5297355651855469 2.967231512069702 5.955693244934082 35 30 31
1.5271940231323242 2.0682640075683594 5.877175807952881 9 10 21
1.4884759187698364 1.0433954000473022 5.719111919403076 6 6 16
1.451168179512024 -0.18562524020671844 5.570143222808838 77 76 85
1.451168179512024 -0.18562524020671844 5.570143222808838 77 76 85
1.5593746900558472 2.7428884506225586 5.976594924926758 14 13 21
1.4844130277633667 0.694623589515686 5.680726528167725 33 32 41
1.458404779434204 0.09402353316545486 5.561323642730713 25 25 36
1.458404779434204 0.09402353316545486 5.561323642730713 25 25 36
1.4973081350326538 0.528931736946106 5.649206161499023 23 24 33
1.5166945457458496 -0.15495328605175018 5.617964744567871 27 27 35
1.5603607892990112 0.97674959897995 5.772506237030029 30 31 47
1.5313642024993896 -0.0500875748693943 5.665092945098877 24 24 32
1.5812971591949463 3.0330536365509033 5.708774089813232 41 39 45
1.6090807914733887 0.9496161937713623 5.782163619995117 49 51 68
1.6649465560913086 2.392383337020874 5.894567966461182 14 14 23
1.5593390464782715 -1.4167035818099976 5.528668403625488 11 10 17
1.6727627515792847 1.493534803390503 5.934694766998291 10 10 19
1.592252492904663 -1.0027769804000854 5.579751968383789 18 17 24
1.590988039970398 -1.7893403768539429 5.53291654586792 25 24 29
1.7458909749984741 2.325740098953247 6.032712936401367 27 27 42
1.6238478422164917 -0.8596698641777039 5.6027302742004395 36 38 47
1.6708173751831055 0.9645400643348694 5.750270843505859 27 29 44
1.6222714185714722 -1.814840316772461 5.551028251647949 10 9 13
1.7780407667160034 1.843015432357788 6.055419921875 44 47 57
1.753866195678711 1.526782512664795 5.982680320739746 39 40 51
1.7165658473968506 1.009044885635376 5.756722927093506 26 26 41
1.643787145614624 -1.3355730772018433 5.4859161376953125 26 26 33
1.7445820569992065 0.12890250980854034 5.795060157775879 7 8 17
1.8050488233566284 1.266140103340149 5.915266036987305 40 41 49
1.6102817058563232 -0.9328176975250244 5.263499736785889 20 20 26
1.8390896320343018 1.331426739692688 6.007034778594971 32 33 44
1.7394840717315674 -1.209049940109253 5.659096717834473 13 13 19
1.9096083641052246 2.094644784927368 6.2149434089660645 22 22 32
1.8661320209503174 1.8500292301177979 6.070592403411865 20 22 32
1.7838844060897827 -0.2824464440345764 5.757684707641602 36 38 47
1.915077567100525 1.7101967334747314 6.221765518188477 49 50 61
1.915077567100525 1.7101967334747314 6.221765518188477 49 50 61
1.9009305238723755 1.28463876247406 6.054626941680908 6 7 15
1.7719447612762451 -0.9769940376281738 5.571037769317627 18 18 24
1.8909190893173218 -1.3918136358261108 5.967259407043457 29 31 40
1.9130412340164185 -1.4434328079223633 5.862619400024414 10 10 14
1.938918948173523 -0.5715605020523071 5.90128755569458 33 34 45
1.9580683708190918 0.18342609703540802 5.945583820343018 44 45 56
1.9233208894729614 3.0152640342712402 5.778362274169922 69 66 72
2.052380084991455 0.5724852085113525 6.060079097747803 30 32 42
2.0385172367095947 -0.8289374709129333 5.99177360534668 17 18 25
2.021350860595703 -1.2650610208511353 5.910084247589111 31 30 36
2.0876035690307617 0.5997193455696106 6.098041534423828 55 57 71
2.042719841003418 -1.235124111175537 5.897043228149414 11 11 17
2.1908977031707764 0.5875640511512756 6.385420799255371 39 39 50
1.9876301288604736 -1.731558918952942 5.678800582885742 20 20 25
2.1185107231140137 0.008843537420034409 6.064221382141113 25 25 39
1.8757137060165405 -2.6228482723236084 5.30806827545166 29 30 37
2.205721378326416 0.18355818092823029 6.156834602355957 35 36 46
2.1692452430725098 -0.06178426370024681 6.097633361816406 15 15 25
2.268785238265991 -0.8757571578025818 6.355778217315674 13 13 20
2.1874263286590576 -0.2493455559015274 6.084128379821777 28 28 36
2.219527244567871 -0.4353817403316498 6.196841239929199 16 17 26
2.187476634979248 -0.24935480952262878 6.084322452545166 28 28 36
2.174849033355713 -0.7962700724601746 6.014517307281494 37 35 44
2.184457778930664 -1.011791467666626 5.994945049285889 21 20 28
2.2309110164642334 -0.007308328989893198 6.112478733062744 28 28 39
2.2596657276153564 0.46683236956596375 6.171144485473633 28 29 41
1.7964606285095215 3.0002710819244385 5.843271255493164 80 79 86
-0.5108343958854675 0.21526195108890533 4.218513488769531 106 106 119
-0.567473828792572 -1.827930212020874 4.044427871704102 48 49 55
-0.5607029795646667 -1.80133056640625 3.990454912185669 34 36 41
-0.8556087613105774 0.19044770300388336 3.998624801635742 21 20 29
-0.19876258075237274 0.2124214470386505 4.463451862335205 6 7 17
-0.620854377746582 0.19560104608535767 4.092024326324463 67 66 75
-0.5727906227111816 -1.6362900733947754 4.018975734710693 53 53 60
1.5172946453094482 1.7184339761734009 5.933252334594727 38 39 49
-1.0530226230621338 -0.2228906899690628 3.8181114196777344 89 90 103
-1.3130289316177368 -0.20952314138412476 3.6454906463623047 109 110 120
-1.2114497423171997 0.22676387429237366 3.7628190517425537 10 11 21
0.18730205297470093 1.5311839580535889 4.8417887687683105 66 67 78
-1.1471935510635376 2.0055532455444336 3.9776320457458496 44 44 50
-0.48498639464378357 0.18897321820259094 4.247568607330322 52 52 60
-0.17127014696598053 0.19627662003040314 4.47393274307251 30 30 38
-1.225648283958435 0.23386095464229584 3.744220018386841 5 6 15
-0.41139087080955505 0.26190659403800964 4.310643672943115 58 58 69
1.2999818325042725 0.727289080619812 5.540289878845215 3 3 9
0.24835161864757538 0.16955193877220154 4.7704291343688965 4 4 13
-0.42844563722610474 0.16746823489665985 4.28444766998291 63 64 73
-0.5077167749404907 2.4273862838745117 4.46737003326416 17 18 27
-0.06432787328958511 2.3683745861053467 4.773698329925537 7 6 15
-1.0985616445541382 -0.18938523530960083 3.8029403686523438 11 11 21
0.6843446493148804 0.32940492033958435 5.063244342803955 43 44 52
1.6734331846237183 1.4945282936096191 5.938777923583984 10 10 19
-0.19888067245483398 0.5723870396614075 4.45393705368042 89 88 97
0.014675550162792206 0.15593941509723663 4.689162254333496 38 37 46
0.6826367378234863 0.1651257574558258 5.021734714508057 76 75 84
0.032284874469041824 0.14936402440071106 4.595746040344238 58 57 66
-0.46556776762008667 0.9622026085853577 4.35028600692749 71 70 80
-0.5850760340690613 -1.25187349319458 4.04750919342041 59 61 69
0.05037382245063782 -0.23026496171951294 4.6057891845703125 71 71 80
-0.5113806128501892 2.3930814266204834 4.465867519378662 8 9 17
-0.5764508247375488 -1.2347832918167114 4.05898380279541 34 35 42
-0.6547052264213562 0.3740299642086029 4.169167995452881 51 52 61
-0.4198422133922577 0.3946744501590729 4.318276882171631 104 103 114
-0.3785863518714905 -0.20116563141345978 4.315455436706543 26 27 35
-0.9291079640388489 2.1789071559906006 4.103774547576904 53 52 59
1.33103609085083 0.5328516960144043 5.612034320831299 3 3 12
-0.9361076951026917 2.200796365737915 4.169164180755615 31 31 37
-0.4726871848106384 2.1698522567749023 4.476212024688721 69 68 76
-0.24179641902446747 1.5467784404754639 4.532053470611572 91 92 101
-0.3456445336341858 -1.2033265829086304 4.210691928863525 87 87 95
-0.9072373509407043 1.2072917222976685 4.070643424987793 65 66 76
-0.4198138117790222 0.39468327164649963 4.318193435668945 104 103 114
-0.9361063241958618 2.2007851600646973 4.1691575050354 31 31 37
1.6424660682678223 3.0208723545074463 5.780132293701172 90 89 95
-1.3407577276229858 1.238054633140564 3.7457547187805176 83 85 92
0.6211060285568237 2.5252060890197754 5.267709255218506 8 8 14
-1.1006613969802856 -0.16478334367275238 3.7870333194732666 106 107 117
-1.3687089681625366 1.8133156299591064 3.8046183586120605 55 54 62
-1.3726180791854858 1.8151297569274902 3.8099052906036377 82 81 89
1.489514708518982 3.014655828475952 5.85595703125 102 97 100
-0.9373908042907715 -1.0641230344772339 4.1215362548828125 66 67 80
0.6903210282325745 -0.2203107327222824 5.025138854980469 34 34 41
0.030743302777409554 0.45289263129234314 4.654162406921387 9 9 19
0.6275783181190491 1.118727684020996 5.148767948150635 62 62 72
-1.098253846168518 0.26965707540512085 3.8408687114715576 109 111 121
0.6451969742774963 1.1069587469100952 5.128059387207031 74 75 85
-0.2716938257217407 2.17885684967041 4.631375312805176 14 13 22
-0.409004271030426 -0.0007119126967154443 4.278256416320801 48 48 57
-0.4090195298194885 -0.000589295057579875 4.278390884399414 48 48 57
0.090098075568676 -1.0312856435775757 4.545999526977539 10 10 16
-1.090316653251648 0.39988943934440613 3.876429557800293 121 121 130
0.02544877491891384 0.530800461769104 4.65473747253418 6 6 14
-1.011958360671997 0.4018172025680542 3.889133930206299 78 79 89
-1.3146196603775024 0.4137735664844513 3.653273344039917 76 76 86
-1.1252790689468384 1.3869926929473877 3.8695974349975586 50 51 60
-0.6996660232543945 1.9604136943817139 4.2837300300598145 94 95 102
-1.2913217544555664 -0.779007077217102 3.5954909324645996 63 64 74
0.2598280608654022 -0.02667916752398014 4.78071928024292 10 11 17
-1.2028603553771973 0.23636354506015778 3.720024347305298 67 68 79
-0.7613279223442078 1.490965485572815 4.201371192932129 92 93 108
-1.0157055854797363 0.4303518533706665 3.9118354320526123 72 74 85
-0.9462257623672485 1.2112725973129272 4.024404525756836 12 12 24
0.688265860080719 -0.041702549904584885 5.079663276672363 32 33 42
-1.015677571296692 0.42962193489074707 3.9116201400756836 72 74 85
0.21551106870174408 1.1304560899734497 4.84012508392334 60 60 69
0.6383777260780334 0.5436728596687317 4.997993469238281 53 52 61
0.6252062320709229 1.338250756263733 5.145760536193848 3 2 12
0.2490827888250351 -0.05013671889901161 4.756800174713135 73 74 80
0.6882660388946533 -0.04169867932796478 5.0797343254089355 32 33 42
-1.366683006286621 -0.33574026823043823 3.614847183227539 34 35 47
-1.3008733987808228 -0.19774065911769867 3.657315492630005 117 119 130
-1.3411846160888672 0.03553971275687218 3.660292625427246 17 18 27
-0.6059131622314453 -0.804865300655365 4.077538967132568 88 90 98
-0.47989630699157715 1.9804656505584717 4.44709587097168 10 10 19
-0.3759150803089142 -0.794593334197998 4.224668025970459 29 30 39
-0.3463265597820282 -0.7969223856925964 4.2404632568359375 57 58 67
-0.3463267683982849 -0.79692542552948 4.2404561042785645 57 58 67
-0.4798808693885803 1.9804023504257202 4.4469523429870605 10 10 19
-0.3759143650531769 -0.7945896983146667 4.224653720855713 29 30 39
-1.137025237083435 1.0253429412841797 3.870811700820923 12 13 22
-1.1912944316864014 -0.3865734934806824 3.6372365951538086 50 50 60
0.2996898889541626 -0.8267438411712646 4.709329605102539 21 21 27
-0.39713457226753235 0.021117115393280983 4.307563781738281 43 44 55
0.6413136124610901 0.9450180530548096 5.1362504959106445 78 78 88
-1.1458725929260254 1.2063323259353638 3.905245065689087 112 113 121
-0.4511123597621918 0.793035626411438 4.3661417961120605 7 8 16
-1.2800358533859253 -0.6001489758491516 3.655045509338379 45 46 56
0.8130084276199341 2.3149075508117676 5.3701491355896 47 47 58
-0.9135596752166748 1.7912421226501465 4.129254341125488 5 5 10
-1.0728390216827393 -0.5929594039916992 3.786299228668213 17 18 27
-0.06432721018791199 2.3683791160583496 4.773700714111328 7 6 15
-0.23641517758369446 1.7726471424102783 4.584221839904785 47 47 57
0.0627882108092308 0.7680553793907166 4.718508720397949 115 115 125
-1.343660593032837 1.0036983489990234 3.7339000701904297 33 32 41
-0.37969139218330383 -0.6322551369667053 4.242730617523193 17 17 26
-0.7969831228256226 -1.2355732917785645 3.9046566486358643 44 47 55
-0.6036174297332764 -0.5816876888275146 4.024221897125244 39 40 48
-0.6145244836807251 -0.5889154672622681 4.094287872314453 7 7 15
1.2712438106536865 1.666740894317627 5.652754306793213 50 49 59
-0.6145170331001282 -0.5889091491699219 4.094245433807373 7 7 15
-1.131243109703064 1.0539100170135498 3.896411418914795 86 87 97
-0.6732495427131653 1.1260653734207153 4.165682315826416 49 50 62
0.6597331762313843 0.3520181179046631 4.993250370025635 2 2 10
-1.324893832206726 0.8762714862823486 3.68687105178833 20 21 30
-0.8472992181777954 -0.3911357820034027 3.95009183883667 84 86 95
0.0006929645896889269 0.7702518701553345 4.655404090881348 84 83 92
-1.3443344831466675 0.621175229549408 3.7033581733703613 127 128 135
-0.7153314352035522 2.3945534229278564 4.3318190574646 83 82 90
1.048560619354248 1.4932602643966675 5.454512119293213 13 13 22
0.07342205196619034 0.7709364295005798 4.681016445159912 57 57 67
0.612172544002533 2.113098621368408 5.197948455810547 12 12 19
-1.3208427429199219 -0.4122117757797241 3.608438014984131 35 36 46
0.6524770855903625 0.55796217918396 5.107330799102783 24 25 32
-0.9060014486312866 1.2348365783691406 4.081045150756836 7 7 17
-1.3208588361740112 -0.41220733523368835 3.608513593673706 35 36 46
0.6966185569763184 0.3409103453159332 5.124480247497559 48 50 58
-1.0849944353103638 -0.4242725074291229 3.7836620807647705 65 67 74
-0.9066247344017029 1.6274042129516602 4.042344093322754 43 43 52
1.226892352104187 2.28579044342041 5.671939373016357 5 5 15
-1.305208683013916 -0.3899807929992676 3.6433701515197754 124 124 133
-1.1564968824386597 -0.38824838399887085 3.6681857109069824 106 107 117
-1.0567909479141235 -0.39874035120010376 3.7950987815856934 60 61 70
-1.137711524963379 1.5779122114181519 3.9361634254455566 71 71 80
-1.305201530456543 -0.3899743854999542 3.6433470249176025 124 124 133
-0.9049619436264038 -0.397796630859375 3.8995933532714844 81 81 92
-0.9200115203857422 -0.38640516996383667 3.899186372756958 9 9 19
-0.9092560410499573 -0.38561776280403137 3.8922228813171387 119 119 130
-1.295406699180603 -0.34647470712661743 3.5921194553375244 7 7 17
-1.276222586631775 0.24834637343883514 3.7041983604431152 56 56 70
-0.1725325584411621 -0.42363396286964417 4.402087688446045 19 21 30
0.44386693835258484 0.7565280199050903 4.97010612487793 6 5 14
-0.8462496399879456 -0.37165480852127075 3.9385995864868164 10 11 23
-1.3635247945785522 -0.33393141627311707 3.606255531311035 27 28 41
-0.002492537721991539 1.1825666427612305 4.757702350616455 7 7 15
-1.317995309829712 0.5470667481422424 3.6997697353363037 112 114 123
-1.4147757291793823 -0.30882519483566284 3.603257656097412 46 46 61
-0.6690412759780884 0.5991747379302979 4.1850152015686035 9 9 19
0.053689464926719666 -0.3940131664276123 4.561822891235352 67 68 76
1.4755553007125854 1.30054771900177 5.748373985290527 25 26 34
0.6584060788154602 0.7205656170845032 5.1088128089904785 68 69 75
-0.9521167278289795 2.393641233444214 4.087049961090088 30 30 35
0.8320204019546509 2.075254201889038 5.383975982666016 63 63 72
-0.25677627325057983 1.770113229751587 4.589659690856934 7 7 15
1.263972282409668 2.0580625534057617 5.676153182983398 51 52 63
1.6659386157989502 1.867238163948059 5.94193696975708 10 11 22
-0.5277495980262756 0.5675235986709595 4.248524188995361 61 63 74
-0.828840970993042 0.17957516014575958 4.003438949584961 78 77 86
-0.24330617487430573 -0.39111509919166565 4.318776607513428 33 34 43
-0.06943457573652267 2.5226614475250244 4.799492359161377 8 7 17
-1.3232566118240356 0.2498498558998108 3.699464797973633 61 62 77
1.3811438083648682 3.036716938018799 5.709542274475098 85 82 86
-1.3547767400741577 -0.29797887802124023 3.5940399169921875 95 95 111
-1.316050410270691 0.8053582906723022 3.73445725440979 3 3 12
-1.2417446374893188 -0.37503373622894287 3.6705679893493652 14 14 25
-0.8889795541763306 -0.16933374106884003 3.9068899154663086 78 80 90
-0.906619668006897 1.6265665292739868 4.042060375213623 42 42 52
1.3097656965255737 0.7743783593177795 5.5803117752075195 2 2 8
-0.10380541533231735 -0.7965933680534363 4.394222736358643 57 57 66
0.03202071785926819 -0.22747188806533813 4.560327053070068 46 47 54
-1.1308773756027222 -0.24870286881923676 3.7693748474121094 83 83 98
-0.5959948301315308 0.20927171409130096 4.168709754943848 25 27 35
-1.3237439393997192 0.24997228384017944 3.7008721828460693 29 30 45
-0.1671276092529297 -0.5904819369316101 4.396378040313721 21 23 31
-0.8865159153938293 0.5739398002624512 4.023527145385742 54 55 65
1.571054220199585 2.4863359928131104 5.983194828033447 9 9 19
-0.5300971269607544 0.2738901674747467 4.219670295715332 55 55 69
0.049701642245054245 0.1742076724767685 4.614021301269531 59 59 68
-0.13793297111988068 -0.6053763031959534 4.479278087615967 32 32 41
-1.0100293159484863 1.1896885633468628 3.9608006477355957 43 43 51
-0.9611769914627075 -0.4050581157207489 3.8749589920043945 10 10 20
0.10243169963359833 -1.5958051681518555 4.4821343421936035 22 24 29
-1.0286424160003662 -0.15420444309711456 3.8244638442993164 96 97 110
-0.8971762657165527 1.8635081052780151 4.136862754821777 35 36 47
-0.8971743583679199 1.8635019063949585 4.136849880218506 35 36 47
1.44746732711792 3.022156238555908 5.822402000427246 77 72 76
0.17673151195049286 2.1490609645843506 4.934321403503418 5 5 13
-0.7178108096122742 0.09851261973381042 4.042959690093994 66 66 78
-0.7310320734977722 0.11648310720920563 4.06212043762207 58 58 69
-0.9059897065162659 1.2348403930664062 4.081024169921875 7 7 17
-1.21144437789917 0.22676445543766022 3.762803077697754 10 11 21
-0.1640987992286682 1.4144340753555298 4.587604522705078 22 23 33
-0.9060252904891968 1.233616590499878 4.080381393432617 7 7 17
0.2421790212392807 0.16486766934394836 4.651800632476807 20 21 30
-0.5022842288017273 2.3535499572753906 4.389981269836426 48 49 57
1.7964444160461426 3.0002238750457764 5.843176364898682 80 79 86
-0.9071938395500183 0.8058733940124512 4.0785932540893555 11 11 18
0.4363783001899719 1.1507552862167358 5.008962631225586 74 74 84
0.21586927771568298 1.1283578872680664 4.831523418426514 60 60 69
-0.055123500525951385 2.574270009994507 4.8133864402771 90 90 97
-1.0839262008666992 0.20636512339115143 3.8065268993377686 17 17 27
-1.1364718675613403 1.1758103370666504 3.8688626289367676 57 58 67
-0.06432699412107468 2.368375062942505 4.773696422576904 7 6 15
-1.4551631212234497 -1.2705252170562744 4.457838535308838 5 5 10
0.4232361912727356 1.524975061416626 4.997500419616699 34 34 43
-0.5083590149879456 0.20390886068344116 4.258509635925293 7 7 16
-0.9373570084571838 -1.064099669456482 4.121466636657715 66 67 80
-0.7554156184196472 -1.0085687637329102 3.961674213409424 67 67 76
-0.7765689492225647 -1.0002528429031372 3.9458682537078857 61 63 73
-1.368712067604065 1.8133143186569214 3.8046178817749023 55 54 62
-1.372512698173523 1.8150814771652222 3.809760093688965 82 81 89
-0.6999992728233337 -0.9831508994102478 3.9635074138641357 99 101 111
-0.35682305693626404 -1.039166808128357 4.238044738769531 8 9 16
-1.3700402975082397 1.7890654802322388 3.7925384044647217 65 65 72
-0.889008641242981 -0.16934029757976532 3.906949758529663 78 80 90
-0.37591758370399475 -0.7945989370346069 4.224693298339844 29 30 39
-0.14423926174640656 -0.9985435605049133 4.377315044403076 31 33 39
-0.22869952023029327 0.5842236280441284 4.47613000869751 77 78 86
-0.6981404423713684 1.9836872816085815 4.293960094451904 80 80 87
0.36760690808296204 2.351471424102783 5.089156150817871 4 5 14
-1.1502788066864014 1.8086830377578735 3.9479594230651855 50 50 59
-0.6995025277137756 1.95657479763031 4.277812957763672 89 89 96
-1.147969126701355 1.8090673685073853 3.9628567695617676 62 62 71
-0.9442498087882996 -0.34767112135887146 3.882913827896118 86 87 100
-1.3025600910186768 -0.1975242793560028 3.662153720855713 117 119 130
-0.028688151389360428 2.1261892318725586 4.775286674499512 62 62 72
-0.6059139370918274 -0.8048681020736694 4.077546119689941 88 90 98
-0.6057877540588379 -0.8048040866851807 4.077230453491211 88 90 98
0.4363827705383301 1.150769591331482 5.009022235870361 74 74 84
-0.847627580165863 -0.7497729063034058 3.9978384971618652 72 72 83
-0.8307574391365051 -0.3894067108631134 3.9489426612854004 110 112 122
0.2996883988380432 -0.826721727848053 4.709317684173584 21 21 27
0.8685091137886047 1.1348750591278076 5.306063652038574 14 14 24
-1.3801296949386597 1.6159170866012573 3.761894941329956 112 113 119
0.03373473882675171 0.3693206012248993 4.644991874694824 7 7 15
0.20930668711662292 0.9581329822540283 4.811005115509033 77 78 89
-0.5388221144676208 -0.6202763915061951 4.119238376617432 38 37 46
0.6852788329124451 0.3311446011066437 5.018424987792969 27 27 36
-0.6145229339599609 -0.5889138579368591 4.0942840576171875 7 7 15
1.6594157218933105 2.386826276779175 5.868129730224609 44 45 53
-0.16712209582328796 -0.5904857516288757 4.396388530731201 21 23 31
-1.0317199230194092 1.6212018728256226 3.995671510696411 67 68 78
0.2733928859233856 -0.5982423424720764 4.70459508895874 43 43 50
0.27340206503868103 -0.5982308387756348 4.704529285430908 43 43 50
-1.1391406059265137 1.602021336555481 3.9494686126708984 59 58 66
-1.153029441833496 1.8268258571624756 3.9506640434265137 35 35 44
-1.0567957162857056 -0.3987421691417694 3.7951083183288574 60 61 70
-1.1719812154769897 -0.39372527599334717 3.7174105644226074 100 101 112
-1.0567978620529175 -0.3987419903278351 3.7951130867004395 60 61 70
-0.8645492196083069 0.5940947532653809 4.03804349899292 27 28 35
-0.9004162549972534 -0.3894892930984497 3.898531913757324 30 31 42
-0.8875375986099243 0.572860836982727 4.0225510597229 54 55 65
0.2003203183412552 1.9032444953918457 4.906711101531982 55 57 65
-0.2522147595882416 1.7348510026931763 4.50193452835083 42 42 50
-0.1725272238254547 -0.42363330721855164 4.402060031890869 19 21 30
-0.2567787170410156 1.7701208591461182 4.58967924118042 7 7 15
-1.1908138990402222 0.986872136592865 3.8446407318115234 18 19 32
-0.8170677423477173 -0.37878164649009705 3.956085443496704 89 91 102
-0.18709467351436615 -0.4220549464225769 4.406038761138916 67 68 78
-0.002502206712961197 1.1825783252716064 4.757751941680908 7 7 15
-1.1284441947937012 1.0123133659362793 3.8922863006591797 98 101 109
0.6252080202102661 1.3382408618927002 5.145727157592773 3 2 12
-1.3635802268981934 -0.3339415490627289 3.6063332557678223 27 28 41
-0.4349636435508728 0.5635574460029602 4.32239294052124 85 87 96
-0.19888046383857727 0.5723810791969299 4.453893661499023 89 88 97
0.44826963543891907 1.307233452796936 5.001988887786865 44 45 54
-0.15673333406448364 -0.40426909923553467 4.436614513397217 39 40 50
-1.1185302734375 0.6145951747894287 3.86395001411438 48 48 56
0.053685884922742844 -0.39400503039360046 4.561838626861572 67 68 76
-1.350968599319458 1.4055501222610474 3.7743637561798096 90 89 98
0.05368562787771225 -0.3940083384513855 4.561840057373047 67 68 76
0.02028573490679264 0.5397889614105225 4.63802433013916 69 71 79
0.029135212302207947 0.5382668972015381 4.665192604064941 89 91 99
-1.2999999523162842 -0.21385717391967773 3.655257225036621 22 23 33
-1.3167887926101685 -0.21042406558990479 3.654311418533325 111 112 122
-1.3455601930618286 1.0039889812469482 3.7365939617156982 33 32 41
-0.8401439189910889 -0.22264626622200012 3.9596266746520996 89 91 99
0.8285084366798401 1.937589168548584 5.368842601776123 11 12 19
-0.6720386147499084 1.123058557510376 4.157432556152344 39 41 54
-0.45101580023765564 1.1884400844573975 4.388529300689697 35 34 42
-1.3184423446655273 0.9951565861701965 3.697458505630493 88 89 98
-1.0985721349716187 -0.18938283622264862 3.802957534790039 11 11 21
-0.758685290813446 1.511795997619629 4.193830490112305 77 77 93
0.6345510482788086 0.5399290323257446 4.968207836151123 54 53 62
0.1890912503004074 1.7456623315811157 4.8950395584106445 6 5 15
-0.8889800906181335 -0.16933389008045197 3.906890869140625 78 80 90
-1.1023491621017456 -0.16516338288784027 3.7887072563171387 106 107 117
0.6903243064880371 -0.2203182578086853 5.025277137756348 34 34 41
-0.6917845606803894 1.1666557788848877 4.207117080688477 50 51 62
-0.8896792531013489 0.4116459786891937 4.073232173919678 65 64 73
0.19595304131507874 1.3576172590255737 4.86118221282959 4 3 12
-0.8931043148040771 0.9716570377349854 4.047800064086914 97 99 104
0.03073153831064701 0.45289936661720276 4.654234409332275 9 9 19
1.9095607995986938 2.0945568084716797 6.214691162109375 22 22 32
-0.39069756865501404 0.40176263451576233 4.325916290283203 23 25 35
-0.4198133945465088 0.39468249678611755 4.3181891441345215 104 103 114
0.011755733750760555 1.329080581665039 4.707561492919922 90 90 100
1.1194372177124023 -0.050644341856241226 5.395064830780029 38 39 47
-1.1169723272323608 0.8011754751205444 3.8918464183807373 39 39 46
0.6884015202522278 -0.0411602258682251 5.081027030944824 32 33 42
0.6882655620574951 -0.04170229658484459 5.079671859741211 32 33 42
-0.20416657626628876 -0.03081413358449936 4.416862487792969 52 53 62
-0.5515904426574707 0.3633652329444885 4.214999675750732 20 19 29
0.2598169445991516 -0.026695681735873222 4.7806196212768555 10 11 17
0.03330763801932335 0.3871745467185974 4.635263442993164 7 6 15
-0.01550479419529438 1.563535213470459 4.733948707580566 10 9 18
0.6413183212280273 0.9450266361236572 5.1363115310668945 78 78 88
0.02723722718656063 -0.002724549500271678 4.611151695251465 3 2 8
0.47073233127593994 0.3554462790489197 4.939157009124756 6 6 14
0.19290003180503845 1.4194155931472778 4.869896411895752 7 8 17
-1.3378591537475586 1.1963704824447632 3.6897380352020264 64 64 72
-0.8913134932518005 1.1968746185302734 4.074954509735107 134 133 144
-0.9072308540344238 1.20728600025177 4.070624351501465 65 66 76
-0.5077183246612549 2.427374839782715 4.467357635498047 17 18 27
-0.8889292478561401 1.2122563123703003 4.0803728103637695 45 46 56
0.6846609115600586 0.3284015953540802 5.0480780601501465 31 32 40
-1.2226133346557617 0.24209366738796234 3.7068846225738525 59 61 72
-1.2314435243606567 0.2414514422416687 3.7204713821411133 20 22 32
2.1183228492736816 0.7015141844749451 6.099437236785889 27 28 36
0.03330254554748535 0.5224922299385071 4.6121602058410645 52 52 61
-0.1874881088733673 0.277112752199173 4.483474254608154 5 5 12
0.6270880699157715 0.9248994588851929 5.021636962890625 78 78 89
1.5172984600067139 1.7184429168701172 5.933279514312744 38 39 49
-0.5114308595657349 0.21454168856143951 4.217989921569824 106 106 119
1.3006113767623901 1.2724334001541138 5.600905418395996 34 34 43
-0.825070321559906 0.17855285108089447 3.994259834289551 62 61 70
0.04967978224158287 0.1746644526720047 4.614602088928223 59 59 68
-0.16410337388515472 1.4144405126571655 4.587623119354248 22 23 33
-0.4113925099372864 0.261905699968338 4.310675621032715 58 58 69
-0.8147382736206055 -0.0359124056994915 3.9729416370391846 92 92 111
-0.6891337633132935 -0.5265567898750305 4.025432586669922 49 50 63
-0.42205101251602173 0.7977805137634277 4.357219696044922 32 34 42
-0.9442594051361084 -0.3476749658584595 3.8829307556152344 86 87 100
-1.0925575494766235 0.004762959200888872 3.837198495864868 72 73 82
-1.3024914264678955 0.84980708360672 3.761500835418701 74 75 89
-1.3036746978759766 -0.5951518416404724 3.6075191497802734 60 61 72
-0.9620887637138367 -0.40475690364837646 3.876570463180542 11 11 21
1.592453122138977 3.0209105014801025 5.8000993728637695 107 105 111
-0.4160361588001251 -0.22980530560016632 4.2922539710998535 68 70 80
-0.6136589646339417 -0.8193099498748779 4.05565881729126 36 38 47
0.47080546617507935 0.3553473651409149 4.938133239746094 6 6 14
-0.3992021679878235 0.5185450315475464 4.331564903259277 25 26 36
-0.7868173122406006 0.0275805052369833 4.047875881195068 41 41 50
1.719944715499878 1.9265727996826172 6.136290073394775 8 9 20
1.4918402433395386 1.0615513324737549 5.690493583679199 42 43 53
-0.5199114084243774 0.3677290380001068 4.255044460296631 74 73 84
-0.10373479872941971 -0.7965233325958252 4.393918991088867 57 57 66
-0.2775101065635681 -0.5991554260253906 4.272494316101074 11 11 19
-1.0803149938583374 -0.014396589249372482 3.75108003616333 7 9 16
-1.0157074928283691 0.42962872982025146 3.9116780757904053 72 74 85
-1.278482437133789 -1.8528214693069458 3.475473403930664 40 40 46
-1.2586581707000732 -1.8565765619277954 3.514286994934082 22 23 30
-0.9061221480369568 1.573620319366455 4.021065711975098 54 55 62
-0.773857831954956 -1.8363292217254639 3.861546754837036 24 24 27
0.02908666618168354 0.537255585193634 4.680400848388672 87 89 97
-1.3315789699554443 0.41786128282546997 3.700256586074829 90 89 99
-0.8177437782287598 -1.4397631883621216 3.9652037620544434 45 47 54
-0.5761547088623047 -1.409825325012207 4.044687271118164 58 58 67
-0.12421932071447372 -1.4114946126937866 4.367281436920166 34 37 45
-0.5671343207359314 -1.2174724340438843 3.9964728355407715 26 27 33
-0.5764493346214294 -1.2347811460494995 4.058976650238037 34 35 42
-0.4106859862804413 0.5562365651130676 4.322264671325684 90 90 99
-0.22865450382232666 0.5842022895812988 4.475961208343506 77 78 86
-0.4589381217956543 1.5446038246154785 4.3343186378479 38 38 46
-1.1141451597213745 1.3745837211608887 3.8320400714874268 21 22 31
-0.9374462366104126 -1.064162254333496 4.121650218963623 66 67 80
-0.69081050157547 1.4033160209655762 4.246310234069824 4 4 14
-0.7080861330032349 1.394905924797058 4.2391862869262695 107 109 119
0.09010244905948639 -1.031273603439331 4.545970916748047 10 10 16
0.005892213433980942 1.5313100814819336 4.691681861877441 48 48 58
-0.6903682351112366 1.4036521911621094 4.244685173034668 4 4 14
0.18984529376029968 1.5047962665557861 4.87206506729126 3 2 12
-0.6058627963066101 -0.8048458695411682 4.077423572540283 88 90 98
0.4530867338180542 0.7703024744987488 5.075459003448486 14 14 23
-0.36920714378356934 -0.7810004353523254 4.150131702423096 70 70 80
-0.37934526801109314 -0.8072725534439087 4.271162509918213 62 64 73
-0.3759148418903351 -0.7946003079414368 4.224686145782471 29 30 39
-1.07283616065979 -0.5929616689682007 3.786295175552368 17 18 27
-1.352445125579834 0.5963400602340698 3.6938369274139404 61 64 72
-0.4408760666847229 1.1612015962600708 4.289310932159424 56 56 65
-0.1671210378408432 -0.5904832482337952 4.3963775634765625 21 23 31
-1.3052473068237305 -0.38996264338493347 3.643467664718628 124 124 133
-1.171987533569336 -0.39372918009757996 3.7174274921417236 100 101 112
-1.1284441947937012 1.0123133659362793 3.8922863006591797 98 101 109
-0.8897250890731812 -0.4012323021888733 3.918351650238037 24 24 35
-0.9018914103507996 -0.39306408166885376 3.9025092124938965 20 21 32
-0.9171347618103027 -0.38733816146850586 3.8925206661224365 13 14 24
-0.1840221881866455 -0.4206099212169647 4.370850563049316 59 61 70
-0.8452053070068359 -0.3748455047607422 3.945147752761841 12 15 24
-0.6613110303878784 1.011143445968628 4.185853481292725 91 93 102
0.05368615314364433 -0.3940046727657318 4.561835765838623 67 68 76
0.049144212156534195 -0.37734857201576233 4.5684123039245605 11 12 20
-1.3352876901626587 -0.21981507539749146 3.6361968517303467 68 70 80
-1.302537202835083 -0.1975240856409073 3.6621108055114746 117 119 130
-1.0986156463623047 -0.18938131630420685 3.803041934967041 11 11 21
0.43637901544570923 1.1507741212844849 5.009041786193848 74 74 84
-1.0985991954803467 -0.18938913941383362 3.8030121326446533 11 11 21
-0.8955380916595459 -0.18090416491031647 3.9124553203582764 49 51 61
-0.2374214082956314 0.9827019572257996 4.527517318725586 3 3 13
-0.23314467072486877 0.9607736468315125 4.4391865730285645 11 10 20
-0.6401749849319458 -0.16954803466796875 4.110858917236328 17 18 27
-0.18128974735736847 -0.039003510028123856 4.424384593963623 79 81 88
-0.2062910497188568 -0.032573167234659195 4.425342082977295 45 46 57
-1.1017645597457886 -0.01658526249229908 3.82578444480896 35 36 44
0.25982046127319336 -0.026685800403356552 4.780588150024414 10 11 17
0.026762347668409348 -0.00656851613894105 4.503902912139893 46 45 54
0.02723800390958786 -0.0027259818743914366 4.611147403717041 3 2 8
-0.40900176763534546 -0.0007338577415794134 4.278217315673828 48 48 57
-0.39316728711128235 0.031089648604393005 4.291388034820557 83 83 94
-1.329239845275879 0.06621459871530533 3.6416385173797607 16 17 27
0.2532757818698883 0.17273205518722534 4.8648905754089355 42 42 51
-0.8328045606613159 0.17979493737220764 4.013503551483154 74 73 82
0.1406533271074295 2.503518581390381 4.847809314727783 46 47 54
-1.1482921838760376 1.9794262647628784 3.9651882648468018 91 91 97
-0.06414010375738144 2.3245434761047363 4.690600395202637 47 46 55
-1.2136510610580444 0.2281237542629242 3.766278028488159 35 36 46
-1.2216498851776123 0.23364274203777313 3.725973129272461 15 17 27
-1.2084013223648071 0.2371375858783722 3.7372729778289795 13 13 24
-1.2309746742248535 0.24152550101280212 3.719749927520752 20 22 32
0.6211109161376953 2.5252256393432617 5.267751216888428 8 8 14
-1.3725214004516602 1.8150914907455444 3.8097777366638184 82 81 89
-0.2676304578781128 2.141406536102295 4.554548740386963 58 59 68
0.25574931502342224 0.33779171109199524 4.780038833618164 77 78 87
-1.3665764331817627 1.7822946310043335 3.789125442504883 68 67 75
-0.698128342628479 1.9836663007736206 4.293935298919678 80 80 87
0.03374782204627991 0.3693138360977173 4.64493465423584 7 7 15
-0.47993338108062744 1.980566382408142 4.447356224060059 10 10 19
-0.4798802435398102 1.980404019355774 4.446950435638428 10 10 19
-0.3925198018550873 0.40415117144584656 4.337562561035156 30 32 42
1.497406244277954 0.5289651155471802 5.649685859680176 23 24 33
-0.6916514039039612 1.7562623023986816 4.176836013793945 48 49 57
0.4107440412044525 2.1054420471191406 5.107914924621582 55 56 66
-0.8764380812644958 0.409200519323349 4.013214588165283 9 8 18
-0.876451313495636 0.40919366478919983 4.0132365226745605 9 8 18
-1.1321532726287842 1.5673950910568237 3.922656774520874 62 62 71
-0.8033175468444824 0.603789746761322 4.046909809112549 106 106 118
0.7557849287986755 -1.2430298328399658 4.980930328369141 13 12 20
-0.7033560872077942 -0.9870439767837524 3.9692604541778564 95 98 106
