ply
format ascii 1.0
element vertex 711
property float x
property float y
property float z
property uchar red
property uchar green
property uchar blue
end_header
1.652453899383545 -0.5965994596481323 6.586171627044678 121 122 126
-0.4440677762031555 0.5566216707229614 5.81522798538208 28 27 36
-0.5948841571807861 0.2394411712884903 5.634934902191162 164 161 168
1.7054550647735596 -0.33171728253364563 6.6556077003479 73 72 74
1.7054437398910522 -0.3317175805568695 6.6555352210998535 73 72 74
-0.5574117302894592 -0.6647781133651733 5.284461975097656 93 89 93
-1.0449856519699097 -0.44541022181510925 5.04750919342041 29 22 15
0.7818384170532227 1.060376763343811 5.8396220207214355 88 83 87
0.7818333506584167 1.0603535175323486 5.839510917663574 88 83 87
-0.44407519698143005 0.5566518306732178 5.815399646759033 28 27 36
-0.8953371644020081 -2.156899929046631 4.674381256103516 165 161 164
-0.5800748467445374 0.22767846286296844 5.482685565948486 96 93 100
-0.9080474376678467 -2.1501643657684326 4.710237503051758 45 41 44
-0.7210618853569031 0.23840193450450897 5.211423397064209 141 136 144
-0.8469198346138 -0.43257275223731995 4.845411777496338 27 26 28
-1.0689846277236938 -0.6603933572769165 5.018155574798584 150 140 125
-0.8650655746459961 1.153630256652832 5.119813442230225 135 131 135
-0.8695225715637207 -0.6469051241874695 4.9029741287231445 161 158 160
0.7733479738235474 2.4766736030578613 5.190011978149414 126 123 120
-0.7573868632316589 -0.45217421650886536 5.125467300415039 29 28 32
-0.5592408776283264 0.25684913992881775 5.503623008728027 191 188 194
1.1446285247802734 1.226700782775879 5.529202461242676 140 134 140
-1.0286353826522827 -1.8494797945022583 4.4551005363464355 83 80 81
2.35514497756958 -0.33060380816459656 5.812839031219482 69 75 88
-1.0482529401779175 -1.8798882961273193 4.537447452545166 71 69 70
1.2923606634140015 -0.7859228253364563 5.845171928405762 228 224 227
1.8661808967590332 -0.5715769529342651 6.670469284057617 126 124 126
1.380005121231079 -0.7866195440292358 5.8300981521606445 186 184 196
1.8662291765213013 -0.5716195106506348 6.67072057723999 126 124 126
1.8215667009353638 -0.3851982057094574 6.735529899597168 60 56 58
-0.3199566602706909 0.5357333421707153 6.020021915435791 115 114 120
-0.8621235489845276 0.45472002029418945 4.979090690612793 9 6 13
1.3448402881622314 0.4759708642959595 6.284241676330566 174 168 164
1.635255217552185 -0.7763121128082275 5.704339504241943 100 105 125
1.8160641193389893 1.4697294235229492 5.121083736419678 39 28 20
2.092804431915283 -0.7740713357925415 5.606297492980957 156 156 166
-0.3497200906276703 0.3689846098423004 5.967480182647705 55 55 73
-1.025269627571106 0.2511926293373108 5.064775466918945 139 131 120
-0.6950399279594421 1.135957956314087 5.394211292266846 49 43 48
1.6882516145706177 -0.7712345719337463 5.628291130065918 157 163 183
1.5867313146591187 -0.8044107556343079 5.83560848236084 38 42 64
1.936283826828003 -0.7892168760299683 5.697079658508301 185 191 212
-0.7290958166122437 0.2626357078552246 5.183668613433838 189 185 190
-0.7551038861274719 0.25808870792388916 5.212161540985107 65 60 66
2.021808385848999 0.4741014838218689 5.506361961364746 204 210 221
-0.18944211304187775 -2.1981613636016846 5.881322383880615 94 94 91
1.178659200668335 1.6280043125152588 5.616845607757568 57 47 39
1.9581948518753052 -0.5000093579292297 6.683320045471191 153 168 179
-0.19226303696632385 -2.2039794921875 5.898277282714844 79 78 77
-0.13195131719112396 -2.2328994274139404 5.974468231201172 58 53 44
-0.3223351836204529 -0.37786394357681274 5.893675327301025 30 28 34
-0.3229598104953766 -2.046525001525879 5.553589820861816 120 127 120
-0.25617873668670654 -2.06742525100708 5.5772881507873535 33 34 27
-0.7507169842720032 -1.0100473165512085 5.075436592102051 59 57 60
2.1604504585266113 0.49774184823036194 5.740352630615234 223 228 236
1.970615267753601 -0.800954282283783 5.5807576179504395 76 78 92
0.5273078680038452 1.2315566539764404 5.998903751373291 104 97 107
1.1791362762451172 1.9844691753387451 5.6196088790893555 47 38 34
2.2375338077545166 -0.42692264914512634 6.61287784576416 83 79 78
1.9440350532531738 1.4744324684143066 5.032341003417969 67 55 48
2.326028823852539 -0.4352271556854248 6.5972466468811035 238 235 234
2.2652976512908936 -0.4639054536819458 6.55977725982666 94 90 91
-0.7507111430168152 -1.0100394487380981 5.075408935546875 59 57 60
-0.8596506714820862 -1.8919657468795776 4.8221845626831055 99 95 96
-0.7412056922912598 0.4337451756000519 5.2180705070495605 138 135 141
-0.4413679838180542 -0.15169306099414825 5.673507213592529 56 53 59
-0.6924086809158325 0.42469823360443115 5.2950592041015625 72 68 76
1.9876309633255005 1.469746708869934 4.941821098327637 40 30 26
-1.0354148149490356 -1.7024641036987305 4.904730796813965 59 53 47
-0.09610235691070557 -2.0558433532714844 5.94847297668457 139 136 127
-0.01851443015038967 -2.0627355575561523 5.977597713470459 93 87 81
-0.09647536277770996 -2.060826539993286 5.963790416717529 139 136 127
-0.5843238234519958 0.04264063015580177 5.427957057952881 41 39 44
-0.2963436543941498 0.6926555037498474 5.810798168182373 64 63 68
-0.1634223908185959 -1.7597241401672363 5.855596542358398 51 45 45
-0.2013189196586609 -2.0398614406585693 5.964996814727783 112 115 114
-0.32637158036231995 0.013765107840299606 5.976082801818848 103 102 112
-0.0855943039059639 0.8393853306770325 6.404652118682861 135 126 121
1.3129973411560059 -1.8403130769729614 5.425335884094238 121 111 103
-0.3194487690925598 0.3551088571548462 5.939228534698486 121 121 133
-0.7447463870048523 0.4350396692752838 5.230479717254639 138 135 141
-1.064002513885498 0.2780882716178894 5.120355129241943 72 63 48
-1.0590652227401733 -0.09101255983114243 5.08017635345459 81 72 60
-0.5848942399024963 -0.11725164949893951 5.415546417236328 36 32 42
0.9663887619972229 0.3284794092178345 5.8664870262146 211 200 192
1.270150899887085 -1.8489118814468384 5.490329742431641 78 64 55
1.3630393743515015 -1.9105547666549683 5.645618915557861 132 123 115
-0.7532895803451538 0.7848267555236816 5.241381645202637 76 72 75
0.4916345775127411 2.466033697128296 4.831486701965332 92 91 90
-1.0720133781433105 0.9911702275276184 5.22985315322876 61 54 38
1.6214133501052856 1.4622949361801147 5.311038017272949 86 76 67
1.6902821063995361 -0.6235024333000183 6.615881443023682 158 155 157
-0.6209318041801453 -1.4063599109649658 5.4084696769714355 11 10 15
-0.8658312559127808 -0.815121054649353 4.899954795837402 24 22 25
1.6587320566177368 1.1655884981155396 5.528635025024414 58 56 62
-0.6950600743293762 1.1359771490097046 5.39430046081543 49 43 48
1.1415021419525146 2.501617908477783 4.976279258728027 101 99 97
-0.5973040461540222 -1.753825306892395 5.330050945281982 86 83 86
1.7213431596755981 0.13398617506027222 6.694528102874756 194 188 188
-0.5616258382797241 0.6255457997322083 5.54832124710083 111 105 113
2.127739191055298 0.06977397948503494 5.098995685577393 181 171 166
0.8121830224990845 0.655835747718811 5.764321327209473 161 151 137
1.9565731287002563 0.4246669411659241 5.1473708152771 223 227 234
2.0702261924743652 1.3223378658294678 4.894924163818359 110 102 100
-0.622471272945404 -1.4104605913162231 5.422683238983154 11 10 15
-0.7465998530387878 0.6172404289245605 5.2335357666015625 51 46 54
-0.7465558052062988 0.617179811000824 5.233179092407227 51 46 54
-0.30710434913635254 0.7212455868721008 6.03685188293457 112 110 117
-0.7721068263053894 -1.5439666509628296 5.082682132720947 19 16 17
-0.5800681114196777 0.22767843306064606 5.482659339904785 96 93 100
-0.4413706362247467 -0.15169604122638702 5.673541069030762 56 53 59
-0.8698107004165649 -0.831261396408081 4.882987022399902 148 146 148
-0.32638993859291077 0.01376903522759676 5.976542949676514 103 102 112
1.679343581199646 -0.4634087383747101 6.517174243927002 60 57 59
-0.8585866689682007 0.6319858431816101 4.993509292602539 119 116 123
-0.1674092710018158 -1.7949527502059937 5.978555202484131 73 68 67
-0.5652778744697571 0.7485108971595764 5.54598331451416 64 60 66
1.630466341972351 -1.2853820323944092 5.392765522003174 130 116 105
2.199455738067627 -0.055118054151535034 6.306262493133545 232 234 240
0.3683601915836334 0.841288149356842 6.077709197998047 38 30 22
-0.714318573474884 1.515733003616333 5.483135223388672 20 15 16
-0.4408637583255768 0.3862228989601135 5.798452854156494 157 156 167
2.365204334259033 -0.0927240327000618 6.4167304039001465 179 184 191
-1.0590227842330933 -0.09098929166793823 5.079965591430664 81 72 60
1.8814966678619385 0.0081950593739748 6.666645050048828 212 209 207
-1.0590318441390991 -0.09099221974611282 5.080028533935547 81 72 60
1.9784873723983765 -0.7079460024833679 6.600011348724365 48 51 58
-0.7145872712135315 -0.110197514295578 5.269633769989014 67 62 70
1.6965867280960083 1.797253966331482 5.277809143066406 70 60 52
1.2750474214553833 1.4113540649414062 5.455862045288086 69 59 55
-0.5848534107208252 -0.11722985655069351 5.415341377258301 36 32 42
-0.7699128985404968 0.8060284852981567 5.364213943481445 42 37 41
2.4601457118988037 -0.14305844902992249 6.422942638397217 231 229 229
0.8389104008674622 0.8822357654571533 5.746251583099365 158 147 140
1.7981809377670288 1.296397089958191 5.139805316925049 95 86 82
-1.0710217952728271 0.44918954372406006 5.146398544311523 97 88 73
1.1124573945999146 1.2451056241989136 5.546504020690918 38 29 30
1.290913462638855 0.3791964650154114 5.8979668617248535 133 126 122
-0.44631439447402954 -1.5469611883163452 5.3728508949279785 56 54 56
-0.5693473219871521 1.667480707168579 5.706815242767334 22 18 20
-0.8802317976951599 -1.5199040174484253 4.797423839569092 65 60 60
-1.0710608959197998 -1.0807678699493408 4.969287872314453 38 30 14
1.8014920949935913 -0.20448091626167297 5.734391689300537 133 130 131
-0.4029255211353302 0.5552704334259033 5.859941482543945 67 66 76
-0.06482129544019699 -1.1110684871673584 6.259781360626221 34 24 21
-0.7767996191978455 -0.3423723876476288 5.064297199249268 195 195 201
1.790294885635376 0.06713800877332687 6.765027046203613 102 95 93
1.4871472120285034 -0.7913259267807007 5.659738063812256 131 132 146
-0.6321201324462891 0.5866609215736389 5.399564266204834 63 58 67
0.9734487533569336 1.785619854927063 5.7423810958862305 35 26 24
-0.43764734268188477 -2.1281399726867676 5.507986545562744 29 33 31
1.2487637996673584 1.8276933431625366 5.659163475036621 32 23 17
-0.43763262033462524 -2.1281325817108154 5.507895469665527 29 33 31
1.0702077150344849 2.4946682453155518 5.304710388183594 64 60 54
1.9958792924880981 1.5348093509674072 4.98061466217041 122 111 106
2.344702959060669 -0.7480596899986267 6.1654462814331055 207 212 224
-0.58488929271698 -0.11724363267421722 5.415523052215576 36 32 42
1.2915703058242798 -0.8182058930397034 5.875443935394287 129 119 115
0.32910045981407166 2.481849193572998 5.7148003578186035 115 113 111
2.161807060241699 -0.6757367253303528 5.827975273132324 143 154 173
1.5720007419586182 -0.7647706270217896 5.730008602142334 124 127 144
-1.0751806497573853 2.5825841426849365 5.118837833404541 98 94 85
-0.3238011300563812 -0.38231125473976135 5.920560359954834 24 22 28
-0.895224928855896 -2.1530208587646484 4.666192531585693 135 130 134
-0.8939987421035767 -2.1357369422912598 4.627047538757324 34 30 31
-0.9079503417015076 -2.150017738342285 4.709967136383057 45 41 44
1.1442080736160278 1.2243037223815918 5.514697074890137 129 123 128
-1.2154239416122437 -1.8361914157867432 4.1743292808532715 91 87 91
-0.8655574917793274 -0.2664453983306885 4.964573383331299 28 25 30
1.866188883781433 -0.5715799927711487 6.670498371124268 126 124 126
-0.721367359161377 -0.28274399042129517 5.020308017730713 19 19 27
-0.7708513736724854 -1.9102834463119507 4.999028205871582 44 41 43
-0.5967303514480591 -0.30250298976898193 5.466273307800293 45 42 52
-0.2589229941368103 -2.105835199356079 5.503425598144531 111 111 103
-0.1894439309835434 -2.198164463043213 5.881332874298096 94 94 91
1.9671722650527954 -0.7670044302940369 5.454580783843994 176 181 200
-0.31951528787612915 -2.0753252506256104 5.497957229614258 104 108 93
-0.1894485205411911 -2.198172092437744 5.881357669830322 94 94 91
-0.13195382058620453 -2.232975721359253 5.974651336669922 58 53 44
-0.25776079297065735 -2.067023515701294 5.570786476135254 45 45 37
-0.8596410751342773 -1.891955018043518 4.822157859802246 99 95 96
-0.5843430757522583 0.04262060672044754 5.428068161010742 41 39 44
1.9705593585968018 -0.800927996635437 5.580562591552734 76 78 92
-0.4101082980632782 0.5621320605278015 5.922603607177734 103 102 112
1.5104488134384155 0.3658030331134796 5.885583400726318 209 205 201
-1.059123158454895 -1.715316891670227 4.899136066436768 146 138 125
-1.0832691192626953 -1.7475415468215942 5.004310607910156 125 118 107
-0.018885325640439987 -2.0637776851654053 5.980743408203125 93 87 81
-0.09647347778081894 -2.060821533203125 5.963778018951416 139 136 127
2.237147092819214 -0.42677465081214905 6.611743450164795 83 79 78
-0.09646714478731155 -2.0607833862304688 5.96368408203125 139 136 127
-0.2013205885887146 -2.0398752689361572 5.965033531188965 112 115 114
1.3129924535751343 -1.8403022289276123 5.425304412841797 121 111 103
1.2945318222045898 -1.8362700939178467 5.435112953186035 31 21 14
1.2701704502105713 -1.848939299583435 5.490421295166016 78 64 55
1.3630428314208984 -1.9105619192123413 5.645638465881348 132 123 115
1.6564383506774902 -0.6102939248085022 6.4793548583984375 146 144 146
2.2376468181610107 -0.4269517958164215 6.613219261169434 83 79 78
1.9114340543746948 -0.7572101950645447 5.2442402839660645 45 43 48
-0.5973231792449951 -1.7538557052612305 5.3301310539245605 86 83 86
2.2653467655181885 -0.4639151394367218 6.559933185577393 94 90 91
1.8268077373504639 -0.7389563918113708 5.1772236824035645 160 166 178
-0.3395841121673584 -0.7185127139091492 5.894222736358643 81 81 87
-1.0668554306030273 -0.4675314426422119 5.048349380493164 32 24 16
2.3652255535125732 -0.09272506088018417 6.416794776916504 179 184 191
-1.0623536109924316 -0.8262990713119507 5.003384113311768 103 97 84
-0.5849574208259583 -1.045858383178711 5.457263469696045 76 72 74
-1.0730416774749756 -1.0057945251464844 4.989337921142578 82 74 59
0.6240085363388062 2.5193893909454346 5.201816558837891 143 143 143
1.6524525880813599 -0.596603512763977 6.586172580718994 121 122 126
-0.7298495173454285 1.3354319334030151 5.383049488067627 134 128 130
-0.8853933215141296 -1.52581787109375 4.812640190124512 71 66 66
0.9535772800445557 2.495243787765503 5.196225166320801 95 91 88
1.6587698459625244 1.1656243801116943 5.528561115264893 58 56 62
1.7982150316238403 1.296434760093689 5.139918804168701 95 86 82
-0.5800691843032837 0.22767916321754456 5.4826812744140625 96 93 100
0.8609955310821533 1.2419110536575317 5.7349534034729 24 20 30
1.7982187271118164 1.2964376211166382 5.139929294586182 95 86 82
-1.0820719003677368 -1.5584921836853027 5.033435344696045 51 45 37
2.024411916732788 1.2477465867996216 4.903358459472656 115 109 110
-1.062889575958252 -0.4652736485004425 5.037749767303467 32 24 16
-0.20704211294651031 -0.9180412292480469 6.07505464553833 58 58 71
1.8136321306228638 -0.250548392534256 6.781445026397705 118 114 119
2.198174238204956 -0.07625231146812439 6.376621246337891 176 177 184
-0.7528548240661621 -0.6546028852462769 5.10390567779541 75 73 77
0.7818207144737244 1.0603370666503906 5.839410305023193 88 83 87
-0.18904095888137817 -0.19138112664222717 6.158329010009766 54 53 57
1.0702118873596191 2.4946768283843994 5.304722309112549 64 60 54
1.1953712701797485 -0.7551242709159851 5.753259658813477 232 226 215
-0.28529998660087585 1.0603424310684204 6.062819957733154 18 13 13
1.3829779624938965 0.9395580887794495 5.419676303863525 145 137 133
2.389317512512207 -0.47956472635269165 6.060306549072266 117 128 148
-0.44136843085289 -0.1516929566860199 5.67350959777832 56 53 59
-0.6928773522377014 -0.1254722625017166 5.263599872589111 124 120 129
1.5593973398208618 -0.7629358172416687 5.626059055328369 41 48 68
2.4811975955963135 -0.14433057606220245 6.481705665588379 231 229 229
1.7693266868591309 -0.8137039542198181 5.2693986892700195 82 72 60
1.2388815879821777 -0.784809410572052 5.779000282287598 250 248 245
2.10204815864563 -0.03164730221033096 6.518284797668457 204 202 199
-0.5849000811576843 -0.11724694073200226 5.415574550628662 36 32 42
-0.6045404076576233 -0.1219489723443985 5.596404552459717 82 78 88
1.3839495182037354 1.4473024606704712 5.423784255981445 42 31 26
1.598665475845337 -0.7824435830116272 5.708922863006592 20 26 47
1.5688506364822388 -0.7835831642150879 5.737767696380615 147 153 174
0.7981690168380737 0.8613767623901367 5.7955498695373535 157 147 136
-0.250712513923645 0.8899716734886169 6.138780117034912 24 18 20
0.7666282653808594 0.8457990288734436 5.782981872558594 45 35 26
1.4252947568893433 -1.042998194694519 5.588501453399658 164 151 139
-0.7194969058036804 0.23805731534957886 5.2058424949646 141 136 144
1.6213855743408203 1.4622620344161987 5.310936450958252 86 76 67
0.2950754165649414 -1.82014799118042 6.42363977432251 81 79 79
-0.5595054030418396 0.25737956166267395 5.505245208740234 191 188 194
0.29507124423980713 -1.8201305866241455 6.423580169677734 81 79 79
-1.0915628671646118 0.24804279208183289 5.220615386962891 75 67 52
-0.6981539726257324 0.24802452325820923 5.21961784362793 80 76 82
-0.7322225570678711 0.2633762061595917 5.194667816162109 189 185 190
1.9762791395187378 1.82119882106781 5.014458656311035 148 138 127
-0.4694303274154663 0.7613186240196228 5.984367847442627 20 17 19
-1.0671194791793823 0.6177774667739868 5.155432224273682 87 78 64
-1.035486102104187 -1.3538256883621216 4.9466657638549805 106 101 98
-0.29631543159484863 0.6926404237747192 5.810642719268799 64 63 68
-0.7466950416564941 0.6172114014625549 5.2336320877075195 51 46 54
0.9934313893318176 0.330414354801178 5.878616809844971 121 109 102
-0.7528432607650757 -1.360846996307373 5.027307510375977 51 47 48
1.6369414329528809 0.6053131222724915 5.504786491394043 153 142 135
-1.0640003681182861 0.27808859944343567 5.120351314544678 72 63 48
0.9934379458427429 0.3304206132888794 5.878644943237305 121 109 102
-0.5589994788169861 0.5919093489646912 5.600013732910156 159 154 162
-0.3709568381309509 0.19627593457698822 5.889272212982178 129 128 138
1.3274732828140259 0.35047242045402527 5.9064202308654785 186 180 177
1.3554713726043701 0.5558397769927979 5.671760559082031 130 120 111
-0.5843556523323059 0.04260506108403206 5.428109169006348 41 39 44
1.8706763982772827 1.4880865812301636 5.113303184509277 215 205 194
-0.4440692663192749 0.5566228628158569 5.8152360916137695 28 27 36
1.0744882822036743 0.5430408120155334 5.7736968994140625 134 122 110
1.9358490705490112 -0.5224474668502808 6.687039852142334 189 198 211
2.325732946395874 -0.5286899209022522 6.542332172393799 66 63 63
2.2223448753356934 0.470098614692688 5.3909149169921875 124 123 126
-1.070994257926941 0.44920220971107483 5.146337032318115 97 88 73
2.0547142028808594 1.5210161209106445 5.119472026824951 80 68 64
2.1845450401306152 0.4576345682144165 5.293610572814941 175 174 176
2.0256967544555664 0.4745620787143707 5.518802165985107 200 207 219
2.1277337074279785 0.06977348774671555 5.098981857299805 181 171 166
1.9873813390731812 1.4694130420684814 4.940881729125977 40 30 26
-0.8658045530319214 -0.8151003122329712 4.899813652038574 24 22 25
1.7758296728134155 2.025453567504883 5.18932580947876 50 43 38
1.0774154663085938 0.48384377360343933 5.8559041023254395 48 31 23
-0.6924121379852295 0.4246987998485565 5.295071125030518 72 68 76
-0.7409949898719788 0.43366843461990356 5.217360973358154 138 135 141
1.0773612260818481 0.48382118344306946 5.8555989265441895 48 31 23
1.4903526306152344 -1.23671293258667 5.535810947418213 158 143 131
1.9357308149337769 -0.5224230289459229 6.686633586883545 189 198 211
1.8660017251968384 -0.5715816617012024 6.669788360595703 126 124 126
-0.5697073936462402 0.4037536680698395 5.506214618682861 67 63 70
1.3539247512817383 1.2546278238296509 5.349000930786133 76 68 64
1.9485405683517456 -0.227891743183136 6.006256103515625 173 165 165
1.9438800811767578 1.4742368459701538 5.031803607940674 67 55 48
1.2236263751983643 1.8717490434646606 5.84859037399292 86 76 71
-0.5747513175010681 0.2501286268234253 5.498848915100098 68 65 72
-1.2220574617385864 -1.6444625854492188 4.87568473815918 179 169 151
-0.7512437105178833 -0.3032979965209961 5.125006198883057 168 167 175
0.9680811166763306 0.33010298013687134 5.88291597366333 211 200 192
-0.3393095135688782 0.5458377003669739 5.9945502281188965 12 10 16
1.5871094465255737 0.3473426103591919 6.05275821685791 168 162 158
-0.4376503825187683 -2.1281583309173584 5.508017063140869 29 33 31
1.647600531578064 -0.8489136695861816 5.461308002471924 99 85 73
1.352088212966919 0.3485226333141327 5.823787212371826 208 203 199
0.6129217743873596 2.4760820865631104 5.155815124511719 101 102 102
-0.440868616104126 0.38622525334358215 5.798511981964111 157 156 167
0.5590535998344421 1.5791118144989014 5.996367931365967 27 22 25
2.015110492706299 1.335147738456726 5.008100986480713 118 109 104
1.3706650733947754 1.2820061445236206 5.445197582244873 93 84 81
-0.7531844973564148 -0.3036566972732544 5.131701946258545 168 167 175
-1.067111611366272 0.6177716255187988 5.15540885925293 87 78 64
-0.3363279104232788 0.7277176380157471 6.055243492126465 18 16 20
-1.0682293176651 -0.10981446504592896 5.066004753112793 97 89 70
-0.3073421120643616 0.721455991268158 6.038393497467041 112 110 117
2.0265371799468994 1.30634343624115 4.913538932800293 31 23 20
-1.0623506307601929 -0.826296865940094 5.003376007080078 103 97 84
-0.28294798731803894 0.19443343579769135 6.06370210647583 164 164 178
-0.6864096522331238 0.5980730056762695 5.318892955780029 112 108 115
-0.43254849314689636 0.41205865144729614 5.779733657836914 60 59 69
1.992610216140747 1.482222080230713 5.039727687835693 57 46 40
-0.44406792521476746 0.5566456317901611 5.8153486251831055 28 27 36
-1.220592975616455 -1.8293744325637817 4.135244846343994 74 69 72
2.2118542194366455 -0.7700514197349548 6.152705669403076 149 159 181
-1.0483882427215576 -1.8800853490829468 4.537989139556885 71 69 70
-0.5857778191566467 0.04192454367876053 5.439908504486084 41 39 44
-0.8366971611976624 -1.9009747505187988 4.818974018096924 137 133 136
-0.6792842745780945 0.4355684220790863 5.363607883453369 164 161 169
1.9113318920135498 -0.7571646571159363 5.243927955627441 45 43 48
1.6213887929916382 1.4622613191604614 5.3109331130981445 86 76 67
1.577689290046692 -0.7735310792922974 5.508129119873047 123 125 137
1.6902490854263306 -0.7993743419647217 5.675452709197998 96 98 114
-0.5535258054733276 0.3803775906562805 5.498363018035889 130 125 133
-0.8926107287406921 1.3829851150512695 5.258349895477295 127 124 127
-0.13195382058620453 -2.232975721359253 5.974651336669922 58 53 44
-0.4358656704425812 -2.0377681255340576 5.499687194824219 20 26 25
-0.3229588568210602 -2.0465259552001953 5.553590774536133 120 127 120
1.2915606498718262 -0.8182021379470825 5.875394344329834 129 119 115
1.5844937562942505 -0.7989196181297302 5.781835556030273 140 145 165
-0.34971752762794495 0.368976354598999 5.967373847961426 55 55 73
1.6138687133789062 -0.7910257577896118 5.770552635192871 48 54 75
1.5447250604629517 -0.7357597351074219 5.394275665283203 124 130 151
1.2385060787200928 -0.7834427356719971 5.776920318603516 242 239 235
1.3885486125946045 -0.795772910118103 5.8613152503967285 160 158 170
0.9934378862380981 0.33041754364967346 5.878687858581543 121 109 102
2.0262014865875244 -0.6928648948669434 6.307345867156982 159 170 185
-1.126952052116394 -1.7320762872695923 4.837582588195801 94 86 75
-1.126947283744812 -1.7320674657821655 4.837573051452637 94 86 75
1.195266842842102 -0.7550332546234131 5.752604961395264 232 226 215
-0.6981187462806702 0.248003289103508 5.219340801239014 80 76 82
-1.0591219663619995 -1.7153180837631226 4.899135589599609 146 138 125
-1.0689868927001953 -0.6603946685791016 5.01816463470459 150 140 125
-0.4408685266971588 0.3862250745296478 5.798511505126953 157 156 167
-0.2012949436903 -2.0395021438598633 5.964000225067139 112 115 114
-0.09646903723478317 -2.060791015625 5.963702201843262 139 136 127
2.462951898574829 0.24808058142662048 6.486433982849121 240 237 237
2.0991625785827637 0.20872081816196442 6.4656081199646 163 158 154
1.7981677055358887 1.2963889837265015 5.1397705078125 95 86 82
1.2269805669784546 -0.7070796489715576 5.492838382720947 95 88 89
1.309043526649475 -1.8672902584075928 5.517125606536865 42 31 24
1.3129551410675049 -1.8402544260025024 5.425177097320557 121 111 103
1.270168662071228 -1.8489387035369873 5.490406036376953 78 64 55
1.815675973892212 1.2968007326126099 5.133082389831543 34 25 20
-1.0701450109481812 0.08948362618684769 5.106935501098633 91 81 67
-0.7465973496437073 0.6172394752502441 5.233525276184082 51 46 54
1.3212995529174805 -1.800657868385315 5.457625389099121 41 31 22
1.9873651266098022 1.4693807363510132 4.940795421600342 40 30 26
2.3539652824401855 -0.04359281435608864 6.4407525062561035 79 84 96
2.335625171661377 -0.09277501702308655 6.338303089141846 169 173 182
2.3370704650878906 -0.11094429343938828 6.483564376831055 113 115 122
2.4347753524780273 -0.13826818764209747 6.344264984130859 173 171 172
-0.5675634145736694 -0.11534525454044342 5.453684329986572 157 154 164
-0.5849042534828186 -0.1172519102692604 5.415589332580566 36 32 42
-1.0639402866363525 0.27807608246803284 5.120147228240967 72 63 48
2.387803077697754 -0.29520362615585327 6.265677452087402 253 252 252
0.9351064562797546 1.7842670679092407 5.766490936279297 23 17 17
-0.7755299210548401 -1.4002188444137573 5.177075386047363 27 26 26
2.326751232147217 -0.43522369861602783 6.599396228790283 238 235 234
0.9915184378623962 -1.6935263872146606 5.7975006103515625 107 104 100
2.265251636505127 -0.46389514207839966 6.559630870819092 94 90 91
-0.18903608620166779 -0.19138042628765106 6.158143520355225 54 53 57
0.29507675766944885 -1.8201303482055664 6.423586845397949 81 79 79
-1.0386340618133545 -0.4458024501800537 5.032403945922852 20 13 7
-0.876686155796051 -1.3499369621276855 4.828077793121338 123 120 122
0.968718409538269 1.77720046043396 5.715617656707764 36 27 25
1.114908218383789 1.200150489807129 5.5844197273254395 129 121 132
2.3078691959381104 -0.4425775110721588 5.88344144821167 18 20 30
1.799633264541626 1.6427289247512817 5.149334907531738 70 60 51
1.6587793827056885 1.1656337976455688 5.52881383895874 58 56 62
-0.6950705647468567 1.1359840631484985 5.394340515136719 49 43 48
-1.035404086112976 -1.3537198305130005 4.946275234222412 106 101 98
-0.441366970539093 -0.15169639885425568 5.673483848571777 56 53 59
-1.0718944072723389 0.9911341071128845 5.229559898376465 61 54 38
-0.7305442094802856 0.9716244339942932 5.294069290161133 173 167 172
-0.6980781555175781 0.950025200843811 5.340211391448975 120 115 117
-0.6842471957206726 0.9275957345962524 5.350630283355713 134 128 130
-0.771916389465332 0.26806408166885376 5.335357189178467 130 125 131
-0.705193817615509 0.7799257040023804 5.334022521972656 48 45 50
-0.7380333542823792 0.7645541429519653 5.2634172439575195 152 148 153
1.6438201665878296 -0.8066686987876892 6.049854278564453 110 113 130
1.2236391305923462 1.8717832565307617 5.848677635192871 104 95 89
-0.5691423416137695 0.7583057880401611 5.595523357391357 66 61 67
-0.7248746156692505 1.3311628103256226 5.438401222229004 71 64 66
-1.0579502582550049 -0.6483162045478821 5.0707316398620605 46 39 29
-0.580078125 0.22768187522888184 5.482719898223877 96 93 100
-1.0336915254592896 -0.6352843046188354 5.004328727722168 91 85 75
-0.9041891694068909 -2.1533453464508057 4.6626763343811035 39 35 38
1.8624742031097412 -1.0214799642562866 5.339250564575195 147 133 121
0.7666340470314026 0.8458176255226135 5.783091068267822 45 35 26
0.7818392515182495 1.0603760480880737 5.83962345123291 88 83 87
-0.5968070030212402 -0.30251258611679077 5.466602325439453 45 42 52
1.599902629852295 1.4499821662902832 5.3305230140686035 128 119 108
-0.8957109451293945 -2.1589362621307373 4.674032688140869 157 153 156
1.1180046796798706 1.225022315979004 5.571102619171143 117 109 114
-0.7394533157348633 -0.8280279636383057 5.082409381866455 8 7 11
0.9639906287193298 1.302609920501709 5.9788360595703125 41 34 38
1.987613558769226 1.469731330871582 4.941776275634766 40 30 26
-0.6950502991676331 1.1359663009643555 5.39426326751709 49 43 48
1.9829784631729126 -0.8157007098197937 5.863958835601807 113 120 141
-0.5849552154541016 -1.0458577871322632 5.457254409790039 76 72 74
0.5546373128890991 1.233441710472107 6.084137916564941 54 49 59
0.3179837763309479 2.420194625854492 5.579758167266846 88 87 85
1.491003394126892 -1.8840384483337402 4.958000183105469 112 107 105
-0.7533208131790161 0.7848411202430725 5.241487979888916 76 72 75
-0.5973197221755981 -1.75384521484375 5.330083847045898 86 83 86
-0.5843493342399597 0.04260506480932236 5.4280829429626465 41 39 44
-0.7143330574035645 1.5157554149627686 5.483209609985352 20 15 16
-0.6744168996810913 0.5706093311309814 5.325280666351318 115 112 118
1.3357635736465454 1.4294774532318115 5.512432098388672 138 129 124
0.7969670295715332 0.8638571500778198 5.81615686416626 156 146 135
-0.34184029698371887 0.3860439956188202 5.892809867858887 182 187 205
-0.2727428376674652 -1.9547160863876343 5.818108558654785 77 71 73
0.9418748617172241 2.5512442588806152 5.04494047164917 121 117 114
2.1758453845977783 0.553085446357727 5.462316036224365 237 229 222
-0.20703719556331635 -0.9180213212966919 6.07501220703125 58 58 71
-0.9481156468391418 -1.8745521306991577 4.644784927368164 119 116 117
-0.8607954382896423 0.8006649613380432 5.0793137550354 11 8 14
1.0773613452911377 0.4838217496871948 5.855597496032715 48 31 23
-0.4376303255558014 -2.128098964691162 5.507863521575928 29 33 31
1.3492963314056396 0.35633379220962524 6.009079933166504 186 179 175
2.2075510025024414 0.3562413156032562 6.142052173614502 146 152 164
2.024399757385254 1.2477223873138428 4.903326034545898 115 109 110
1.9946458339691162 1.1408050060272217 5.067351341247559 25 19 18
1.696595549583435 1.7972657680511475 5.2778401374816895 70 60 52
1.0398454666137695 1.9845669269561768 5.729172229766846 72 65 62
-0.7820034623146057 -1.3672895431518555 5.05714225769043 35 33 35
1.7233797311782837 -0.8700529932975769 5.420321941375732 148 134 122
1.2695938348770142 1.3138549327850342 5.52769136428833 124 115 119
1.2054553031921387 1.319217562675476 5.557370662689209 143 135 131
1.630971074104309 1.3117289543151855 5.258578777313232 161 150 142
0.5902768969535828 0.8393283486366272 5.924474239349365 48 38 30
-0.9481745362281799 -1.8746517896652222 4.645045280456543 119 116 117
1.8005907535552979 1.6412670612335205 5.212857246398926 123 113 104
-1.0913373231887817 -1.7587424516677856 4.928767204284668 119 111 97
-0.32865211367607117 0.20054353773593903 6.2768120765686035 106 106 121
-0.025077661499381065 -2.213534355163574 6.037060260772705 69 61 54
1.1826198101043701 0.5061350464820862 5.736562252044678 42 28 20
1.807443618774414 -1.8293102979660034 5.145827293395996 66 54 41
-0.09940445423126221 0.37900564074516296 6.27637243270874 138 126 123
-0.48730626702308655 0.7337266206741333 5.626277446746826 54 50 55
-0.6802782416343689 0.9180724620819092 5.339584827423096 128 123 126
1.274290680885315 1.4116369485855103 5.433804035186768 72 62 58
2.0740768909454346 0.20289160311222076 6.381529808044434 170 165 162
1.8062479496002197 1.288835883140564 5.097935676574707 29 19 14
-1.2205986976623535 -1.8293797969818115 4.135255813598633 74 69 72
1.7981948852539062 1.2964138984680176 5.13985538482666 95 86 82
-0.9481691122055054 -1.8746471405029297 4.6450324058532715 119 116 117
-0.3286774456501007 0.2005540132522583 6.276983261108398 106 106 121
-0.8337833285331726 -1.8989084959030151 4.809086322784424 116 111 115
-0.9014167189598083 -1.884753704071045 4.79656457901001 65 59 57
1.7200874090194702 1.3923076391220093 4.852598667144775 95 83 74
-0.13200408220291138 -2.2345290184020996 5.978597164154053 58 53 44
-0.1922542005777359 -2.203949451446533 5.898191928863525 79 78 77
-0.43265989422798157 -2.032731056213379 5.485387325286865 17 23 22
-0.43561041355133057 -1.9953901767730713 5.4633941650390625 94 97 99
1.977303147315979 1.4712108373641968 5.003574848175049 60 49 42
-0.4359896183013916 -1.9965728521347046 5.467030048370361 88 91 93
-0.87974613904953 0.0959991067647934 5.035456657409668 23 19 25
-0.7151184678077698 -0.4406638443470001 4.980091094970703 96 95 100
-1.0701414346694946 0.0894860178232193 5.106925964355469 91 81 67
-1.0639984607696533 0.27808699011802673 5.120335102081299 72 63 48
-0.875340461730957 -1.6722488403320312 4.789663791656494 128 126 124
-0.7657612562179565 -1.7256437540054321 4.960413455963135 122 121 124
-0.019056322053074837 -2.0642526149749756 5.98218297958374 93 87 81
-0.20131920278072357 -2.039867877960205 5.965013027191162 112 115 114
1.7902777194976807 0.06713555008172989 6.764959812164307 102 95 93
-0.09646905213594437 -2.0607893466949463 5.9636993408203125 139 136 127
-0.7919881939888 -1.7786378860473633 5.177941799163818 54 52 52
-0.20132163166999817 -2.039872646331787 5.965025901794434 112 115 114
-1.227657675743103 -1.666961908340454 4.878812789916992 102 93 78
1.310840368270874 -1.8705973625183105 5.522922515869141 42 31 24
1.6524510383605957 -0.596605122089386 6.586167335510254 121 122 126
1.3129947185516357 -1.8403080701828003 5.425328731536865 121 111 103
-1.062526822090149 -0.46507206559181213 5.036780834197998 32 24 16
0.7170678377151489 0.974290668964386 5.468908786773682 114 110 116
-0.30330389738082886 0.89222252368927 6.029432773590088 23 20 22
1.6314611434936523 -0.6101471781730652 6.406487941741943 133 131 135
-0.6843464970588684 -0.4990323781967163 5.260745048522949 112 111 118
-0.7149765491485596 0.9627781510353088 5.273589611053467 165 160 163
-0.8752496838569641 0.286702960729599 4.967621326446533 133 132 135
-1.071533203125 0.9910051822662354 5.228654384613037 61 54 38
1.9897664785385132 -0.6759644150733948 6.56102991104126 214 221 229
1.8009963035583496 -0.3850196599960327 6.3015265464782715 151 157 165
-0.30340126156806946 0.3598470985889435 6.012417793273926 35 33 38
-0.2809223532676697 0.3491358160972595 5.868828296661377 37 35 39
-0.7565491795539856 -0.0963364839553833 5.160398483276367 34 32 38
0.9668060541152954 -1.6896921396255493 5.709486961364746 229 226 223
0.7744074463844299 0.8270702958106995 5.819095611572266 150 139 126
-0.34969109296798706 0.36896541714668274 5.967235565185547 55 55 73
2.091628074645996 -0.7403215169906616 6.492705345153809 36 40 52
-1.0700056552886963 0.0894758477807045 5.106551647186279 91 81 67
1.4005255699157715 1.297511339187622 5.516646862030029 86 77 73
1.1399626731872559 1.6950181722640991 5.357682704925537 99 89 83
1.7393163442611694 1.257412075996399 5.0786919593811035 110 101 95
0.9915187954902649 -1.6935267448425293 5.7974958419799805 107 104 100
-0.7351774573326111 0.7599403262138367 5.261152267456055 163 159 165
-0.44085758924484253 0.3862268626689911 5.798462867736816 157 156 167
-0.7281581163406372 1.3310531377792358 5.375422477722168 146 139 141
-0.5501127243041992 0.3732720613479614 5.480900287628174 126 122 130
-0.7332091331481934 1.3394262790679932 5.468009948730469 102 96 98
0.29507574439048767 -1.820141077041626 6.423620223999023 81 79 79
1.7994613647460938 1.6425845623016357 5.148889541625977 70 60 51
-0.8759754300117493 -1.3518927097320557 4.827402114868164 122 120 121
-0.4158269762992859 0.36334946751594543 5.466335296630859 109 107 117
1.6586239337921143 1.260597825050354 5.227838039398193 97 87 84
-0.5697222352027893 0.4037589728832245 5.506319046020508 67 63 70
1.2437500953674316 -0.7218098044395447 5.596316337585449 104 97 98
-0.8432663679122925 -0.6232494115829468 4.828308582305908 28 25 27
1.205488681793213 1.319267988204956 5.557526588439941 143 135 131
1.872930884361267 -0.42879030108451843 6.206471920013428 129 143 159
2.5648677349090576 -0.7072616219520569 6.355216026306152 116 123 139
-0.18649250268936157 0.4828278422355652 6.153235912322998 107 101 112
1.2893158197402954 -0.7659506797790527 5.766646862030029 147 143 153
-0.8658393621444702 -0.815123975276947 4.899974346160889 24 22 25
-0.8745564818382263 -0.6538946628570557 4.930875301361084 144 141 144
1.2247250080108643 -0.7755053043365479 5.719448566436768 235 230 227
1.910531997680664 -0.7363483905792236 5.344511032104492 95 101 119
1.3969202041625977 1.2784162759780884 5.402306079864502 134 124 118
1.3190789222717285 -0.8067530989646912 5.82919454574585 245 242 249
-0.7411300539970398 0.43371614813804626 5.217833042144775 138 135 141
1.6863480806350708 -0.7928350567817688 5.661470890045166 124 128 148
1.5955042839050293 -0.7842943072319031 5.583414554595947 122 124 136
1.8664422035217285 1.2073493003845215 5.13633394241333 95 88 88
1.9374825954437256 0.43812406063079834 5.207937717437744 117 122 135
1.3904526233673096 1.257976770401001 5.377453804016113 42 33 27
1.7690783739089966 -0.8135703206062317 5.268542766571045 82 72 60
1.3705886602401733 1.2818701267242432 5.4447197914123535 93 84 81
0.7831937670707703 0.8430219888687134 5.705327033996582 130 120 108
1.9264127016067505 1.1444127559661865 5.0220561027526855 79 73 71
-0.4440675973892212 0.5566462874412537 5.8153510093688965 28 27 36
1.299063801765442 1.2175843715667725 5.354710102081299 116 111 118
2.1104941368103027 0.5338951349258423 5.2993903160095215 230 223 216
-0.5710752606391907 0.591873824596405 5.464303016662598 151 146 153
1.1429351568222046 1.2228363752365112 5.51375150680542 140 134 140
-0.30710771679878235 0.7213016152381897 6.037158966064453 112 110 117
-0.7266095876693726 0.5997759103775024 5.09121036529541 119 113 121
-0.3070222735404968 0.721031904220581 6.035163879394531 112 110 117
1.6587344408035278 1.1655884981155396 5.5286383628845215 58 56 62
-0.8583585023880005 0.6319118738174438 4.993362903594971 86 83 90
-0.07957689464092255 0.8317705392837524 6.37484073638916 102 93 86
-1.0626888275146484 0.8117806911468506 5.192640781402588 143 136 120
-1.0730797052383423 -1.0058256387710571 4.989455223083496 82 74 59
-0.8692079782485962 -0.9890235066413879 4.863994598388672 28 24 27
-1.0680395364761353 1.3349295854568481 5.277839183807373 39 31 19
-0.7228226065635681 0.26280951499938965 5.1820807456970215 135 131 137
-0.6981201171875 0.24800188839435577 5.219339847564697 80 76 82
-0.5565601587295532 0.2526898980140686 5.467538356781006 171 168 174
2.237600803375244 -0.4269351363182068 6.61308479309082 83 79 78
2.2656917572021484 -0.4639900326728821 6.561031341552734 94 90 91
2.237260580062866 -0.4267828166484833 6.612099647521973 83 79 78
2.2984611988067627 -0.404703289270401 6.291222095489502 159 154 153
-0.7532709836959839 -0.3105306327342987 5.103783130645752 127 127 134
-0.6922042369842529 0.24670742452144623 5.197953224182129 67 63 70
1.810088872909546 -0.4106651842594147 6.71435546875 227 225 225
-0.7143259048461914 1.5157455205917358 5.483165740966797 20 15 16
-0.309702605009079 -0.3578492999076843 5.9816436767578125 38 36 42
2.414839506149292 -0.39275845885276794 6.555104732513428 110 105 104
-0.7549160122871399 -0.3040532171726227 5.111323833465576 132 131 139
-0.5967180132865906 -0.3025010824203491 5.466212749481201 45 42 52
-0.8669672012329102 -0.28323185443878174 4.926081657409668 126 125 131
-1.040300965309143 -0.2711564302444458 5.0570878982543945 127 120 114
-0.5623238682746887 0.2410440295934677 5.525598049163818 141 138 145
1.8970427513122559 0.26630744338035583 6.453264236450195 61 55 51
-0.8310608863830566 -0.25267308950424194 4.76824951171875 85 81 85
1.7054497003555298 -0.3317199945449829 6.655544757843018 73 72 74
1.319754719734192 1.4060194492340088 5.442952632904053 164 154 149
2.329392910003662 -0.2897214889526367 6.101097583770752 238 236 235
1.7596499919891357 -0.2764434516429901 6.558663845062256 108 103 105
1.1929014921188354 1.4375046491622925 5.576135158538818 72 62 55
-0.4413674473762512 -0.15169334411621094 5.6735029220581055 56 53 59
1.813779592514038 -0.18430520594120026 6.567264080047607 171 178 191
1.6213775873184204 1.4622533321380615 5.310908317565918 86 76 67
-0.34454548358917236 -0.1454063206911087 5.891735076904297 132 130 139
-0.714491605758667 -0.11025260388851166 5.269134044647217 67 62 70
-1.070104718208313 -0.11157909780740738 5.07050085067749 123 115 96
-0.7145912647247314 -0.11019524931907654 5.269654273986816 67 62 70
-0.725188136100769 -0.08946211636066437 5.145142078399658 112 110 116
1.5703474283218384 1.4135029315948486 5.22753381729126 131 122 111
-0.27823662757873535 1.012351632118225 5.987061977386475 98 90 89
0.7818151712417603 1.0603291988372803 5.839361667633057 88 83 87
1.8073915243148804 -1.8292453289031982 5.145680904388428 66 54 41
-0.27278637886047363 -1.9547438621520996 5.818295001983643 77 71 73
0.5272953510284424 1.2315263748168945 5.998774528503418 104 97 107
1.4515409469604492 -0.5973281264305115 3.7501704692840576 107 93 81
1.9283370971679688 1.1121958494186401 5.002737045288086 9 4 4
1.114907145500183 1.200146198272705 5.584395885467529 129 121 132
1.5649741888046265 1.3338911533355713 5.4811272621154785 107 98 92
0.18907397985458374 2.4017186164855957 5.922596454620361 86 83 81
0.9429114460945129 1.230815052986145 5.653334140777588 31 24 25
1.4908902645111084 -1.1999849081039429 5.531433582305908 47 31 18
1.444654941558838 -1.2125791311264038 5.554544925689697 94 78 65
-0.09977538883686066 0.3818349838256836 6.313880443572998 139 127 124
0.3127271831035614 2.3848438262939453 5.4997148513793945 90 89 87
0.19023224711418152 1.1748597621917725 6.1897759437561035 91 85 100
-0.06482279300689697 -1.111091136932373 6.2598772048950195 34 24 21
-0.2852974534034729 1.060339331626892 6.062796115875244 18 13 13
1.173648476600647 1.447615385055542 5.52150297164917 57 48 44
0.9759775400161743 1.2179131507873535 5.6797919273376465 23 17 20
1.5517499446868896 1.3181359767913818 5.217059135437012 86 76 65
2.2089498043060303 0.35432955622673035 6.153984069824219 121 127 139
-0.20855046808719635 -0.3509416878223419 6.08746337890625 134 132 139
-0.7776229977607727 -0.3446010947227478 5.067503452301025 185 185 191
1.5352489948272705 -1.193698525428772 5.503295421600342 41 25 12
1.253491997718811 1.2956231832504272 5.464666366577148 120 112 112
1.0398451089859009 1.9845645427703857 5.729160308837891 72 65 62
1.8646644353866577 1.1924898624420166 5.055684566497803 108 99 98
1.3683736324310303 0.48489561676979065 6.392210006713867 164 157 153
1.1894904375076294 0.4141996204853058 5.718604564666748 115 105 104
-0.5697193145751953 0.40375933051109314 5.506308078765869 67 63 70
-0.5526238679885864 0.37118619680404663 5.529057502746582 136 132 139
-0.5913915634155273 0.6065720915794373 5.554698944091797 152 147 153
-0.3497087061405182 0.368977814912796 5.967391014099121 55 55 73
1.3153202533721924 1.4064431190490723 5.4463982582092285 154 144 140
-1.0358213186264038 -1.8654391765594482 4.489203929901123 64 61 62
1.1929256916046143 1.437576413154602 5.576512813568115 72 62 55
-0.6864155530929565 0.5980738997459412 5.318889617919922 112 108 115
-0.13199783861637115 -2.234471082687378 5.978443622589111 58 53 44
-0.8752396702766418 0.28669631481170654 4.967572212219238 133 132 135
-0.3229577839374542 -2.046518564224243 5.553572177886963 120 127 120
-0.4308624267578125 -2.0254597663879395 5.472535610198975 20 26 25
-0.43561041355133057 -1.9953901767730713 5.4633941650390625 94 97 99
-0.35373786091804504 -2.020719289779663 5.509791374206543 59 69 66
-0.02507868781685829 -2.2134735584259033 6.03687858581543 69 61 54
1.8363142013549805 1.316643476486206 5.181712627410889 32 22 18
-0.40796366333961487 -1.9923325777053833 5.526243686676025 40 42 45
2.1854214668273926 0.32902923226356506 5.8252716064453125 178 183 192
-1.126948595046997 -1.7320729494094849 4.837571620941162 94 86 75
-1.0912646055221558 -1.7585983276367188 4.9284138679504395 119 111 97
-1.032787561416626 -1.7038116455078125 4.881156921386719 35 28 20
-0.8593961596488953 -1.6476763486862183 4.714545249938965 136 133 131
-0.7886531949043274 -1.7566994428634644 5.03644323348999 119 118 122
-0.01908002234995365 -2.064310073852539 5.982348442077637 93 87 81
-0.1227218359708786 -2.0617363452911377 5.968376159667969 146 148 139
-0.09604404121637344 -2.055176019668579 5.9463958740234375 139 136 127
1.9457286596298218 0.3596835136413574 6.543343544006348 123 118 117
1.6152489185333252 1.3054863214492798 5.214627265930176 137 126 118
-0.7250075936317444 0.24762848019599915 5.003571510314941 52 47 53
-0.7654134631156921 0.621380627155304 5.211768627166748 185 181 188
1.8101441860198975 1.3134883642196655 5.312314987182617 133 124 118
-0.3071276843547821 0.7213356494903564 6.037336349487305 112 110 117
1.9876697063446045 0.3254772126674652 6.344895839691162 204 205 212
1.2103992700576782 1.3458003997802734 5.474066257476807 103 93 85
-1.0698028802871704 0.23789744079113007 5.111487865447998 78 69 54
-1.0321396589279175 -1.5203826427459717 4.9117045402526855 36 29 25
1.6715419292449951 1.3018900156021118 5.327238082885742 56 45 43
-1.067100167274475 0.6177623867988586 5.155351161956787 87 78 64
-0.5604041218757629 0.25241929292678833 5.514128684997559 146 143 149
-0.6049840450286865 0.25215208530426025 5.512983322143555 129 125 133
-0.6981152892112732 0.24800430238246918 5.219324588775635 80 76 82
1.800877332687378 0.26394936442375183 5.868040561676025 60 55 53
1.9433850049972534 0.27402037382125854 6.616254806518555 65 58 54
-0.084619902074337 0.8238043189048767 6.432931423187256 50 41 35
-0.7131051421165466 1.3161942958831787 5.392577648162842 91 84 86
1.6633650064468384 1.2614675760269165 5.211117744445801 90 81 76
-0.5483471155166626 0.719134509563446 5.579198360443115 116 111 119
2.0784382820129395 0.19707660377025604 6.42974853515625 168 162 159
-0.2844083309173584 0.8652427792549133 6.1493754386901855 93 94 105
0.7726491689682007 0.8319058418273926 5.867494583129883 169 157 145
-0.72984379529953 0.7512496113777161 5.252521991729736 115 112 120
2.0222926139831543 0.14388614892959595 6.488640308380127 166 161 161
-0.9108858704566956 0.09770958870649338 5.129319667816162 25 21 24
-1.0700440406799316 0.08947809040546417 5.106655120849609 91 81 67
-0.6572751998901367 1.310429334640503 5.497639179229736 18 13 13
-1.071010708808899 0.4491741955280304 5.146328926086426 97 88 73
1.2053064107894897 1.3189711570739746 5.556694507598877 143 135 131
-0.8828834891319275 -1.3591409921646118 4.838561058044434 120 118 119
2.0881905555725098 0.08480223268270493 6.697777271270752 236 236 236
-0.5857259035110474 0.0417083315551281 5.439228057861328 41 39 44
1.6433295011520386 1.233703851699829 5.200264930725098 47 38 38
-0.5644103288650513 0.021300535649061203 5.470768451690674 137 136 143
-0.7313564419746399 -1.348478078842163 5.035496234893799 45 43 44
-0.7545883655548096 0.7854235768318176 5.245633602142334 76 72 75
1.8812443017959595 1.221477746963501 5.183342456817627 88 82 82
1.8412293195724487 -0.12013862282037735 6.5926513671875 198 206 217
-0.5627862215042114 -0.11291908472776413 5.453554630279541 128 124 134
1.7984141111373901 -0.15160870552062988 6.402761459350586 156 161 172
1.4251232147216797 1.3205318450927734 5.6266608238220215 102 93 90
-0.44136762619018555 -0.15169306099414825 5.673506259918213 56 53 59
-1.0626857280731201 0.8117819428443909 5.192631721496582 143 136 120
-0.8644360899925232 -1.1355149745941162 4.822646141052246 123 121 124
1.1485809087753296 1.2331569194793701 5.406695365905762 41 33 33
1.8089070320129395 -0.29836565256118774 6.751823902130127 150 145 147
-0.8653745055198669 -0.9814661741256714 4.828598976135254 30 26 29
-1.0725595951080322 -1.0054664611816406 4.988060474395752 82 74 59
2.3626649379730225 -0.29193365573883057 6.1938395500183105 253 252 252
-0.8656587600708008 -0.9661760926246643 4.830188274383545 134 130 133
1.7054189443588257 -0.33171162009239197 6.655425548553467 73 72 74
-0.8310614228248596 -0.25267294049263 4.768250942230225 85 81 85
2.1452345848083496 -0.3474670350551605 6.556763172149658 159 154 153
