ply
format ascii 1.0
element vertex 712
property float x
property float y
property float z
property uchar red
property uchar green
property uchar blue
end_header
1.245763897895813 0.8695603013038635 3.8612072467803955 95 86 75
1.2781471014022827 0.8465635180473328 3.956597328186035 82 70 62
1.1566039323806763 1.177984595298767 3.5405356884002686 98 92 83
1.171584963798523 1.2942129373550415 3.564213991165161 90 84 75
1.1736613512039185 1.1650131940841675 3.5713210105895996 73 67 58
1.3965624570846558 0.6488525867462158 4.1965413093566895 162 157 152
1.3728195428848267 0.6424922347068787 4.066442489624023 128 121 117
1.2761932611465454 0.9219578504562378 3.801591157913208 76 63 55
1.183436393737793 1.0321563482284546 3.518439531326294 121 117 112
1.4041748046875 0.7195373773574829 4.140481472015381 126 108 104
1.3009083271026611 0.9679403901100159 3.7848196029663086 122 113 105
1.2980033159255981 0.9100508093833923 3.7916414737701416 58 46 36
1.497389316558838 -0.34694403409957886 4.3756937980651855 60 61 65
1.293871521949768 1.0068553686141968 3.780663013458252 106 102 98
1.426788568496704 0.6900132894515991 4.097851753234863 139 128 125
1.496786117553711 -0.2413635551929474 4.320793151855469 103 103 105
1.2200394868850708 1.6977052688598633 3.4973180294036865 32 31 42
1.2487742900848389 1.0620108842849731 3.572904348373413 117 113 108
1.2300913333892822 1.5074517726898193 3.4955856800079346 77 75 86
1.4397245645523071 0.7325891852378845 4.0950703620910645 147 130 128
1.690514326095581 0.5862919092178345 4.738753795623779 54 51 50
1.456085443496704 0.6868879795074463 4.063066005706787 126 120 117
1.3454203605651855 0.9243023991584778 3.746164083480835 53 42 32
1.5898321866989136 0.6724528074264526 4.399631023406982 75 71 68
1.3632588386535645 0.9888248443603516 3.761357545852661 61 52 43
1.2527228593826294 1.189245581626892 3.440430164337158 128 120 110
1.4013975858688354 0.8799474835395813 3.8259196281433105 112 101 94
1.3713407516479492 1.0034294128417969 3.7408435344696045 114 106 99
1.732285499572754 0.5795485377311707 4.72368860244751 55 52 52
1.2904736995697021 1.6809030771255493 3.494173288345337 42 37 41
1.6360772848129272 -0.39417099952697754 4.44521427154541 86 86 90
1.3122035264968872 1.0383963584899902 3.545520067214966 110 107 103
1.4940094947814941 0.7187963724136353 4.033886909484863 140 130 130
1.2195608615875244 -0.8505227565765381 3.315856695175171 45 37 30
1.3039872646331787 1.050323724746704 3.513659954071045 98 95 93
1.4939987659454346 0.7281150817871094 4.011460781097412 93 83 84
1.3587920665740967 1.025457739830017 3.640042781829834 111 108 103
1.284736156463623 1.2079908847808838 3.4354000091552734 96 90 80
1.5064139366149902 0.7508275508880615 4.034587860107422 148 131 129
1.2774709463119507 1.0745538473129272 3.4223575592041016 94 88 79
1.513463020324707 0.6972459554672241 4.025675296783447 98 95 95
1.5157698392868042 0.729229748249054 4.006470680236816 88 82 87
1.7957855463027954 0.5583301782608032 4.732784748077393 44 39 39
1.4067528247833252 0.9237319231033325 3.677786111831665 59 47 38
1.4483636617660522 -0.7713833451271057 3.7856998443603516 63 71 100
1.3026726245880127 1.086137294769287 3.3948802947998047 97 88 79
1.5118436813354492 0.833831787109375 3.9421374797821045 78 61 50
1.4304981231689453 1.0069265365600586 3.690824031829834 83 75 68
1.2375551462173462 -0.8041107654571533 3.2023041248321533 85 75 63
1.7669531106948853 0.3272719383239746 4.533535957336426 103 102 104
1.5611770153045654 0.739048182964325 3.9966766834259033 92 90 97
1.4881904125213623 0.8972638249397278 3.7563061714172363 77 68 60
1.5422495603561401 0.859297513961792 3.894599199295044 140 127 118
1.5422495603561401 0.859297513961792 3.894599199295044 140 127 118
1.5669573545455933 0.7010911703109741 3.945495367050171 71 69 75
1.5554194450378418 0.8379247188568115 3.9128377437591553 139 125 119
1.5884279012680054 0.6896089911460876 3.958446741104126 152 150 149
1.5796518325805664 0.713329017162323 3.934077739715576 70 67 75
1.589482307434082 0.7486804127693176 3.9374372959136963 74 69 77
1.5466729402542114 -0.7692327499389648 3.8432514667510986 74 78 89
1.3520649671554565 1.2785226106643677 3.2873337268829346 89 84 74
1.4872477054595947 1.0079561471939087 3.612301826477051 51 42 35
1.6098957061767578 0.7096788287162781 3.902775287628174 74 72 77
1.6327989101409912 0.7608414888381958 3.8947551250457764 64 62 72
1.5427486896514893 -0.7445704340934753 3.6600286960601807 81 88 108
1.3885263204574585 1.573107123374939 3.2498772144317627 71 64 69
1.4256542921066284 1.4858481884002686 3.247626304626465 83 78 74
1.669429898262024 0.7428945899009705 3.781264305114746 83 84 89
1.3577936887741089 -0.7488322854042053 3.0283987522125244 67 57 48
1.6179934740066528 0.9628090262413025 3.6126747131347656 100 92 87
1.4687634706497192 1.5057487487792969 3.2054851055145264 49 45 41
1.482250452041626 1.238434910774231 3.2007405757904053 66 60 52
-1.4388697147369385 1.9333083629608154 4.675734519958496 80 79 82
1.1234266757965088 -0.8241443634033203 3.925001859664917 132 119 115
-1.4115020036697388 -0.08350205421447754 4.432107448577881 136 134 142
1.3101980686187744 0.6283470988273621 4.273819923400879 97 91 86
-1.2066709995269775 -0.10005658864974976 4.578248977661133 82 83 92
-1.1802750825881958 -0.0991240069270134 4.578366756439209 159 160 168
-0.21905870735645294 0.6430371403694153 5.372488975524902 133 124 126
1.2817832231521606 0.5451458692550659 4.317519187927246 92 87 88
1.8634499311447144 -0.5585434436798096 4.654196739196777 102 105 110
-1.1496957540512085 0.37771230936050415 4.642639636993408 211 212 219
-1.1952173709869385 0.07444857060909271 4.592012405395508 19 18 28
-1.5003297328948975 1.7164896726608276 4.624792575836182 22 18 20
-0.6550400853157043 0.9539049863815308 5.157525539398193 65 64 73
-1.421166181564331 -0.10095319896936417 4.418726921081543 61 60 66
-1.4384328126907349 0.3677515983581543 4.458535194396973 136 135 141
-0.9174441695213318 1.8757033348083496 5.068754196166992 25 22 26
-0.6176685690879822 0.9471197128295898 5.085666656494141 89 88 102
-0.4195278286933899 -1.0843437910079956 4.972657203674316 169 171 189
-0.441039115190506 -1.086685061454773 4.972135543823242 100 103 122
-1.4458225965499878 1.703923225402832 4.6229071617126465 127 122 127
-0.6137300729751587 0.9607139229774475 5.163440704345703 125 124 142
-0.6265186071395874 -2.2150790691375732 4.690360069274902 80 82 83
-0.6434006094932556 0.7421400547027588 5.082834720611572 147 146 157
-0.8978553414344788 -0.12933912873268127 4.749215602874756 136 135 144
-1.423500895500183 1.7096409797668457 4.673234462738037 33 28 33
0.949501097202301 0.7601349353790283 4.249852657318115 169 155 142
-1.5142388343811035 -0.3101119101047516 4.301895618438721 83 84 89
1.2716552019119263 -0.7762551307678223 4.009337902069092 158 157 168
-1.5220553874969482 -0.5199466943740845 4.263238906860352 17 17 21
-1.1698274612426758 -0.9790812134742737 4.399284839630127 78 80 87
-1.1687084436416626 -0.9833096861839294 4.396513938903809 24 25 31
-0.9089664816856384 -0.15800154209136963 4.753446578979492 38 37 47
0.34517624974250793 0.45779579877853394 5.429765224456787 219 211 207
-0.39311039447784424 -0.17777946591377258 5.1330413818359375 100 103 111
-0.644892156124115 0.3314741253852844 5.034729957580566 181 186 205
-1.4177807569503784 1.6906466484069824 4.673116683959961 33 28 33
-1.51901113986969 0.8782414793968201 4.466901779174805 57 57 61
-1.5079230070114136 -0.793407678604126 4.201863765716553 46 46 51
1.2589000463485718 -0.7716200351715088 4.046891689300537 111 110 117
0.46703630685806274 0.8878787159919739 4.464650630950928 110 101 92
-1.4446685314178467 0.16673551499843597 4.434639930725098 29 28 34
-0.658574640750885 0.3021211326122284 5.007389545440674 155 158 177
0.9363464713096619 0.8622359037399292 4.288644790649414 131 119 107
1.2131661176681519 0.760024905204773 4.308740615844727 214 199 189
1.023386001586914 0.8186807632446289 4.1384172439575195 130 118 109
0.7956523299217224 0.8924909830093384 4.453281879425049 147 139 133
0.9516268968582153 0.8712804317474365 4.274636268615723 43 30 19
-1.527090072631836 0.5793818235397339 4.421799182891846 117 117 121
-0.39368653297424316 -2.002737283706665 4.845702648162842 109 110 117
-1.162914752960205 -0.8052710890769958 4.400472640991211 69 70 77
-0.40371274948120117 1.1405187845230103 5.312902450561523 11 5 6
-1.3806852102279663 0.5882881283760071 4.483155250549316 127 126 132
-0.3997561037540436 -2.1370651721954346 4.761552810668945 34 32 32
-0.30394411087036133 -2.4950954914093018 4.664459705352783 101 101 92
0.3082519769668579 1.6757930517196655 4.777505874633789 105 101 111
1.564017653465271 0.6847283840179443 3.9528069496154785 84 82 83
1.551974892616272 0.8357059359550476 3.9046647548675537 135 123 115
-0.4075898826122284 -2.465399742126465 4.722015380859375 55 63 70
-1.5244253873825073 0.3851397633552551 4.4141740798950195 47 45 50
1.3195874691009521 0.6214339137077332 4.167461395263672 142 136 131
1.5756655931472778 0.9003966450691223 3.982353448867798 58 46 37
-0.40702906250953674 0.7132894396781921 5.288239002227783 79 78 94
-0.9953593611717224 0.32275983691215515 4.760186672210693 55 54 63
-0.669668972492218 -0.851921021938324 4.8335113525390625 26 28 38
0.04503259062767029 1.1556888818740845 5.124001979827881 54 43 37
-0.15040172636508942 -1.334560751914978 5.141519546508789 48 43 41
1.3478953838348389 0.6233320832252502 4.313373565673828 129 123 118
-0.6219617128372192 1.3816121816635132 5.19116735458374 50 45 47
-1.5219640731811523 -0.5198455452919006 4.262962341308594 17 17 21
0.5746142268180847 0.9824007153511047 4.318881988525391 196 187 177
-0.6219708919525146 1.3816132545471191 5.191197395324707 50 45 47
-1.5347068309783936 1.0331039428710938 4.4956488609313965 149 148 150
1.439414143562317 0.6558053493499756 4.125921249389648 109 104 99
1.439504861831665 0.6558356285095215 4.1261396408081055 109 104 99
-0.4010975658893585 0.7069332599639893 5.220120429992676 121 121 139
0.18641270697116852 1.1276811361312866 4.785332679748535 34 25 18
-1.1378611326217651 1.2473758459091187 4.791947364807129 48 46 48
-0.6484361886978149 0.7444645762443542 5.06265115737915 70 69 79
1.949288010597229 0.3241196274757385 4.8407301902771 191 191 195
-0.1629614233970642 0.25102874636650085 5.315609931945801 119 117 129
-0.5731378793716431 0.8746274709701538 5.14708948135376 99 97 121
-1.4256054162979126 1.5034267902374268 4.632923126220703 92 87 92
-0.18608075380325317 1.3511738777160645 5.414231300354004 25 20 31
1.3782782554626465 0.6184574961662292 4.314530372619629 169 163 158
-0.27570629119873047 0.5345574617385864 5.33466100692749 92 83 84
1.4810726642608643 0.6637431383132935 4.107942581176758 79 75 70
0.33284085988998413 1.4561090469360352 4.773319244384766 56 54 66
-0.04792921245098114 1.5855568647384644 5.229197025299072 127 123 130
0.33269602060317993 1.4565423727035522 4.7746195793151855 56 54 66
-1.150368094444275 0.8035960793495178 4.751639366149902 172 171 179
-1.506010890007019 -1.2406055927276611 4.171439170837402 47 48 49
-0.3064807057380676 0.5340490937232971 5.289525032043457 127 119 127
-1.342799186706543 0.11446592211723328 4.547353744506836 68 68 78
1.3445667028427124 0.6054122447967529 4.315156936645508 156 149 146
-0.5664119124412537 0.4959109127521515 5.086554050445557 100 99 108
1.302536129951477 0.6194870471954346 4.299506187438965 73 67 63
-1.4352188110351562 1.2580560445785522 4.618406295776367 42 40 42
1.446955919265747 1.0011178255081177 3.663900375366211 134 127 119
-1.1754348278045654 0.7865396738052368 4.7542901039123535 36 34 42
-0.666667640209198 0.4988829493522644 5.032569408416748 24 25 35
0.14707963168621063 1.8363300561904907 4.9854817390441895 89 86 93
-0.6686174273490906 -0.4040665924549103 4.880861759185791 36 36 44
-0.913662314414978 -0.6057924628257751 4.693160057067871 22 22 30
-0.6654617190361023 0.4992626905441284 5.025101661682129 27 28 38
-1.5780079364776611 -0.37985000014305115 4.229679107666016 119 120 127
1.3704477548599243 0.6207225322723389 4.363198757171631 90 83 80
-0.45320266485214233 -2.1626148223876953 4.7255330085754395 74 74 76
-1.5138145685195923 0.14022260904312134 4.3669962882995605 87 85 93
1.300308108329773 0.6111732125282288 4.301296710968018 118 111 109
-0.3627302944660187 -2.1992504596710205 4.842385768890381 29 27 31
-0.6540588140487671 -0.42392870783805847 4.867921352386475 11 11 20
-0.396707147359848 -2.010828971862793 4.883378028869629 131 132 139
-0.909162700176239 0.7500078678131104 4.905320167541504 11 12 22
0.9395459890365601 1.6090582609176636 3.968647003173828 70 67 73
0.777323305606842 0.8719073534011841 4.350795745849609 107 102 95
1.0419785976409912 -0.7770876288414001 3.8764142990112305 233 225 220
-0.6303102970123291 0.3632194995880127 4.921945571899414 81 85 106
0.8219799995422363 1.7109822034835815 4.07895565032959 122 118 132
0.33917757868766785 0.42411503195762634 5.426151752471924 168 160 151
-0.4052481949329376 -2.1646623611450195 4.824537754058838 34 32 31
1.2607756853103638 0.6695089936256409 4.3367919921875 119 107 107
0.16972368955612183 1.1616955995559692 4.909513473510742 49 40 34
-0.7022863626480103 -0.616450309753418 4.943986415863037 86 87 97
-0.405274361371994 -2.164675235748291 4.824681758880615 34 32 31
1.8837298154830933 0.30544614791870117 4.738536357879639 186 187 190
0.8623894453048706 1.350278377532959 4.000959396362305 121 115 114
-1.4537321329116821 1.9434255361557007 4.689399242401123 120 119 124
-0.6401054859161377 -1.2992979288101196 4.770280361175537 63 66 76
-1.5208775997161865 0.5004162192344666 4.4099249839782715 52 52 58
0.7681783437728882 0.9402525424957275 4.061429023742676 140 132 125
1.23973548412323 0.8886862397193909 3.8524487018585205 127 115 104
1.0025348663330078 1.2864254713058472 3.8073439598083496 107 98 88
0.025632398203015327 0.6229664087295532 5.505715847015381 120 110 103
-1.568016529083252 -0.6968310475349426 4.133964538574219 103 101 113
-0.4134061634540558 -1.285050868988037 4.952174663543701 105 108 127
-0.15024729073047638 -1.334377646446228 5.138312816619873 51 47 45
-0.2084692418575287 0.9193206429481506 5.368753433227539 80 70 65
0.9140931367874146 1.0362741947174072 3.9290196895599365 118 109 99
1.2698218822479248 -0.7975338697433472 3.222752809524536 125 116 106
-0.6628766059875488 -0.8431466817855835 4.741539001464844 93 96 106
1.3365000486373901 0.649711549282074 4.224635601043701 162 156 151
1.8881909847259521 -0.5981183052062988 4.671209812164307 66 70 76
-1.3866335153579712 -0.765382707118988 4.2925190925598145 23 25 30
1.2917463779449463 0.8428052067756653 4.03282356262207 184 170 161
1.2619094848632812 -0.05563502758741379 4.19529914855957 90 88 93
0.1377314031124115 1.439789891242981 4.999704360961914 138 133 140
-1.4177753925323486 1.6906417608261108 4.673099517822266 33 28 33
-0.4180757999420166 -2.22220516204834 4.887892246246338 87 86 87
0.8382412791252136 0.8667691946029663 4.412045955657959 107 98 89
-0.24108031392097473 0.5219972133636475 5.328278541564941 62 51 51
1.0417718887329102 -0.7724592685699463 3.928481340408325 206 200 193
-0.7681393027305603 0.30109816789627075 4.98095703125 171 171 183
-0.9188002347946167 -0.1263771951198578 4.781016826629639 31 30 39
1.2809582948684692 -0.3581482172012329 4.157485008239746 21 22 26
-0.3645017147064209 1.355143666267395 5.3561859130859375 18 13 15
0.13086940348148346 2.3007757663726807 5.077763080596924 87 86 92
-1.1676573753356934 -1.684355616569519 4.309899806976318 74 76 82
-1.523093342781067 -0.04917507618665695 4.322294235229492 117 118 123
-0.560106098651886 0.49368003010749817 5.035100936889648 54 54 62
-1.4919421672821045 -0.06987450271844864 4.320795059204102 134 134 139
0.526228129863739 1.9351282119750977 4.5037736892700195 96 96 103
-1.4398434162139893 -0.5725127458572388 4.35207986831665 46 44 50
-1.5751371383666992 -0.5274665951728821 4.229524612426758 45 47 52
-0.6874608397483826 -1.054996132850647 4.811842918395996 60 63 70
0.7602973580360413 0.9797942638397217 3.991579294204712 123 112 103
-0.5731160640716553 0.8746079206466675 5.1470112800598145 99 97 121
-1.415094017982483 1.5102256536483765 4.633391857147217 156 152 158
1.2397403717041016 0.8886955976486206 3.852468967437744 127 115 104
-0.23002232611179352 0.8136895895004272 5.395674228668213 73 65 61
-1.6292216777801514 -0.06400949507951736 4.2435994148254395 41 41 47
0.47286856174468994 1.4688304662704468 4.548091888427734 13 12 24
-1.1807596683502197 -1.2420943975448608 4.404368877410889 78 80 85
-0.7052497267723083 -0.6086916327476501 4.867968559265137 106 108 117
-0.7630157470703125 0.2987709939479828 4.947414398193359 172 173 184
-0.40806567668914795 -0.16644661128520966 5.1226043701171875 49 53 60
-1.1498757600784302 1.3245244026184082 4.8090500831604 96 94 100
-1.4254201650619507 0.5939587950706482 4.533501148223877 64 64 69
-1.206638216972351 -0.10005927830934525 4.578125 82 83 92
-0.40633702278137207 -2.1685445308685303 4.82977819442749 19 17 17
-1.5173923969268799 -0.0681845098733902 4.290895462036133 114 114 120
1.9493134021759033 0.32412806153297424 4.840814113616943 191 191 195
-0.6390740871429443 1.1911232471466064 5.167075157165527 21 16 18
1.120060682296753 0.7811650037765503 4.121006488800049 128 117 110
-0.6402644515037537 -1.2994892597198486 4.770767688751221 63 66 76
-1.4840279817581177 0.8181616067886353 4.378353595733643 99 99 103
-0.613721489906311 0.9607073068618774 5.163400173187256 125 124 142
-0.6190149188041687 0.9488717317581177 5.096162796020508 88 88 101
-1.5296629667282104 0.590545654296875 4.441086292266846 27 27 30
-1.4349799156188965 1.2578790187835693 4.617964267730713 42 40 42
0.9406101107597351 0.8047711849212646 4.411325931549072 130 116 104
-1.435185194015503 1.258023738861084 4.618327617645264 42 40 42
0.9315946698188782 0.7718933820724487 4.284106254577637 76 62 50
-1.5059975385665894 -1.2406001091003418 4.171419620513916 47 48 49
-1.4170039892196655 0.8144599795341492 4.550457000732422 35 34 39
1.21316397190094 0.7600205540657043 4.308728218078613 214 199 189
-1.1882070302963257 0.10654588788747787 4.6040472984313965 73 74 79
1.1652840375900269 0.7432566285133362 4.281803131103516 115 104 105
-0.6666713953018188 0.4988788366317749 5.032593727111816 24 25 35
1.1575679779052734 0.6982827186584473 4.178465366363525 117 106 103
-0.6666743755340576 0.4988771378993988 5.032619953155518 24 25 35
-1.1882039308547974 0.10654173046350479 4.604033946990967 73 74 79
1.531139850616455 -0.8038640022277832 3.681048631668091 181 189 204
-0.04792921245098114 1.5855568647384644 5.229197025299072 127 123 130
1.0291619300842285 -0.5958374738693237 3.9536032676696777 163 153 147
-0.9203736186027527 0.3101368844509125 4.838192939758301 59 59 69
-1.5244486331939697 0.385139137506485 4.414236068725586 47 45 50
-1.4137729406356812 1.4838777780532837 4.636678695678711 30 27 33
-0.40759390592575073 -2.465407609939575 4.722039699554443 55 63 70
1.4395033121109009 0.6558349132537842 4.126134872436523 109 104 99
1.1541812419891357 -0.8480962514877319 4.031765937805176 182 175 172
-1.5003317594528198 1.7164913415908813 4.624796390533447 22 18 20
-0.3846249580383301 -1.982010006904602 4.807162761688232 120 121 128
-1.4162986278533936 1.503760814666748 4.630520820617676 127 125 130
1.3101271390914917 0.62830650806427 4.273454666137695 97 91 86
-1.5059876441955566 -1.2406762838363647 4.171432018280029 47 48 49
1.2969847917556763 0.6160224676132202 4.2770676612854 56 49 45
-1.5138344764709473 0.14022216200828552 4.3670334815979 87 85 93
-1.5222288370132446 -0.520219624042511 4.263704776763916 17 17 21
-1.194153070449829 -0.8109134435653687 4.448262691497803 104 105 111
-1.41178560256958 -0.08352077007293701 4.432604789733887 136 134 142
-1.5345594882965088 1.0331393480300903 4.49309778213501 149 148 150
-1.5277135372161865 -0.04951486364006996 4.329746723175049 110 111 116
0.9363412857055664 0.8622316122055054 4.288620948791504 131 119 107
-1.5162888765335083 0.5825082063674927 4.416261672973633 14 14 18
0.1697261780500412 1.1616986989974976 4.909510135650635 49 40 34
0.30825409293174744 1.6757893562316895 4.777493000030518 105 101 111
0.18620678782463074 1.1299543380737305 4.789639949798584 60 51 44
-1.4903862476348877 -0.049488916993141174 4.26917028427124 62 63 67
-1.5142160654067993 -0.31010687351226807 4.301863193511963 83 84 89
0.256127268075943 1.1735358238220215 4.780982494354248 23 15 9
-1.1506366729736328 0.3767850399017334 4.644260406494141 208 208 216
0.31393149495124817 1.1881710290908813 4.70389461517334 53 45 40
-0.6687864065170288 0.9391247034072876 5.082637310028076 73 72 80
0.888068437576294 0.7964829802513123 4.364771366119385 110 98 88
-0.3645193576812744 1.355168104171753 5.356263637542725 18 13 15
-1.4717726707458496 0.3444383442401886 4.418064594268799 24 26 35
-0.8845663070678711 1.6377246379852295 5.065546989440918 23 22 25
-1.4722342491149902 0.3547899127006531 4.43235445022583 138 137 146
-1.3736695051193237 0.7978786826133728 4.501885414123535 36 35 40
0.39811089634895325 1.203757643699646 4.584507465362549 46 38 33
-1.399930477142334 1.2335115671157837 4.591601371765137 119 118 119
-0.6849563121795654 0.049603309482336044 4.927801609039307 142 144 156
-1.1805115938186646 -1.2419739961624146 4.403883934020996 78 80 85
-0.8571212291717529 -1.3090187311172485 4.584868907928467 167 168 181
-0.6535152792930603 0.06829434633255005 4.940959453582764 41 42 56
1.5093894004821777 0.6672413945198059 4.053337574005127 95 92 87
-0.3039399981498718 -2.495084285736084 4.664442539215088 101 101 92
0.5025780200958252 1.213566780090332 4.463630676269531 62 53 46
-0.27844786643981934 -2.4308483600616455 4.561700344085693 69 71 63
-0.1860872209072113 1.3511829376220703 5.41426420211792 25 20 31
-0.653850257396698 0.0683964192867279 4.942032814025879 41 42 56
-1.5845290422439575 -0.40626126527786255 4.222999095916748 129 128 135
0.5720145106315613 1.2287763357162476 4.365388870239258 88 78 70
-0.4075942039489746 -2.4654147624969482 4.722043514251709 55 63 70
1.2145987749099731 -0.7129215002059937 3.4297707080841064 184 189 207
1.2607790231704712 0.6695153117179871 4.336806297302246 119 107 107
-0.88688725233078 1.4328662157058716 5.018397808074951 18 18 19
-0.9203842282295227 0.3101395070552826 4.8382182121276855 59 59 69
-1.5117107629776 -1.23849356174469 4.13100528717041 102 102 106
-1.5007625818252563 2.1659889221191406 4.6116437911987305 48 46 49
0.6036674976348877 1.272019863128662 4.347400665283203 157 148 141
1.346091866493225 -0.798348069190979 3.9222497940063477 150 152 164
-0.399885356426239 0.6840491890907288 5.2439961433410645 103 102 115
1.0417675971984863 -0.7724562287330627 3.928462266921997 206 200 193
-1.5079262256622314 -0.7934099435806274 4.201869010925293 46 46 51
-0.4011014401912689 0.706934928894043 5.220122814178467 121 121 139
-0.894170880317688 -0.5994201898574829 4.645028591156006 51 51 60
0.9837267994880676 0.7725576162338257 4.1751790046691895 56 42 30
-0.4070396423339844 0.7133015990257263 5.288248062133789 79 78 94
-0.36272940039634705 -2.199221611022949 4.842342376708984 29 27 31
-1.5267808437347412 0.5787500143051147 4.420282363891602 117 117 121
-1.5300180912017822 0.5815331935882568 4.408151626586914 98 98 102
-0.16296088695526123 0.2510281503200531 5.315578937530518 119 117 129
-0.9203780293464661 0.31013840436935425 4.838201999664307 59 59 69
-0.6696699261665344 -0.8519211411476135 4.833513259887695 26 28 38
-0.4173009395599365 0.2629229724407196 5.199505805969238 42 41 48
-0.3977322280406952 0.4956640899181366 5.219216346740723 104 101 112
-1.5152071714401245 1.04640793800354 4.487278938293457 105 105 106
-0.7630172371864319 0.29877132177352905 4.947418689727783 172 173 184
-0.7171300053596497 0.5095584988594055 4.999568939208984 77 81 106
-0.32902607321739197 0.5399450063705444 5.385585784912109 137 130 139
-0.7480517625808716 0.2902315855026245 4.847750663757324 97 97 109
-0.5663876533508301 0.49590426683425903 5.08643913269043 100 99 108
-1.1372649669647217 1.249441385269165 4.789167404174805 72 70 73
-0.995319664478302 0.32275205850601196 4.760084629058838 55 54 63
-0.2867544889450073 -2.473275899887085 4.6732354164123535 123 127 123
-0.9343708157539368 0.2962827980518341 4.805587291717529 143 145 154
1.8730765581130981 0.4295574724674225 4.73433256149292 65 64 66
-0.6219599843025208 1.3816097974777222 5.191160678863525 50 45 47
-1.3957213163375854 -0.30512627959251404 4.3488850593566895 115 115 121
-0.6494913101196289 -1.9295741319656372 4.660335063934326 51 52 60
-1.4247628450393677 1.9473063945770264 4.697213172912598 23 21 23
1.3071047067642212 0.6282158493995667 4.261505126953125 106 100 95
-1.5143660306930542 -0.3101382851600647 4.302096366882324 83 84 89
-1.1710840463638306 -1.2609775066375732 4.363433837890625 89 91 97
-1.3900338411331177 -1.1440249681472778 4.184230327606201 35 36 41
-1.1773425340652466 -0.09843564033508301 4.5776166915893555 136 136 145
1.5799906253814697 0.9017871618270874 3.9957358837127686 57 45 36
-0.7659702897071838 0.29908275604248047 4.965733528137207 158 158 170
-0.8953875303268433 -0.12927985191345215 4.743311882019043 136 135 144
-0.7328414916992188 0.29129448533058167 4.878066539764404 121 121 134
-1.4524892568588257 1.9450243711471558 4.677986145019531 111 110 114
1.2761691808700562 0.5436815023422241 4.297297954559326 89 84 85
1.2397568225860596 0.8887463212013245 3.8526129722595215 127 115 104
-1.1874756813049316 -0.35126033425331116 4.510616302490234 25 26 35
-0.3773253560066223 0.4952656030654907 5.280888557434082 139 135 147
0.9817930459976196 0.8034955859184265 4.190064907073975 120 105 93
-0.1476791352033615 -0.8915424346923828 5.164469242095947 24 22 29
-0.6216687560081482 1.7977690696716309 5.242371082305908 69 66 68
-1.4351245164871216 1.2579917907714844 4.618184566497803 42 40 42
-1.280670166015625 0.7860848903656006 4.612138748168945 37 36 45
1.5925142765045166 0.6920293569564819 3.8977200984954834 143 142 142
-0.4154295027256012 -1.0827254056930542 4.960331439971924 170 171 190
-0.20847460627555847 0.9193285703659058 5.368785858154297 80 70 65
-0.6436420679092407 -0.8431259393692017 4.755608558654785 14 15 29
-0.2676290273666382 -2.424319267272949 4.594365119934082 104 108 105
-1.1409542560577393 1.9050532579421997 4.937406063079834 64 63 67
-1.5178598165512085 -0.32493945956230164 4.267854690551758 38 38 44
0.5262295603752136 1.935132622718811 4.503781795501709 96 96 103
1.8241502046585083 0.38659557700157166 4.645156383514404 142 141 143
0.8218851685523987 1.7113271951675415 4.078284740447998 117 114 126
-1.1558598279953003 1.0079842805862427 4.792131423950195 25 23 29
-0.8768969774246216 -0.33428895473480225 4.6102519035339355 112 112 122
0.03476300090551376 0.6131148338317871 5.440515041351318 132 122 115
-0.40371620655059814 1.140520691871643 5.3129167556762695 11 5 6
-0.12403838336467743 -1.9458279609680176 5.017180919647217 113 109 112
-1.4506752490997314 2.3895819187164307 4.74489688873291 13 11 14
0.8971341848373413 1.864412546157837 4.020951271057129 99 93 91
-1.443935751914978 -0.5690293312072754 4.35907506942749 73 72 78
-0.9043534398078918 0.53276127576828 4.869289875030518 37 37 50
-0.6437676548957825 0.7417393326759338 5.088368892669678 147 146 157
-1.5120396614074707 1.4927507638931274 4.564843654632568 106 104 108
-0.6666711568832397 0.4988788068294525 5.0325927734375 24 25 35
0.9315915107727051 0.7718902826309204 4.284084796905518 76 62 50
1.2224657535552979 0.7649314403533936 4.272279739379883 210 193 182
-0.8784070014953613 1.6058762073516846 5.053463459014893 93 92 97
-0.6399788856506348 1.6309057474136353 5.257779598236084 75 74 78
0.9076262712478638 0.7906125783920288 4.326475143432617 62 50 38
-0.002262311987578869 1.606715440750122 5.176163673400879 41 40 52
-1.5159170627593994 -0.9845426082611084 4.179015636444092 106 109 114
0.33270731568336487 1.4564906358718872 4.774442672729492 56 54 66
0.91816645860672 0.7873672842979431 4.306769371032715 155 141 129
-1.4917305707931519 -1.0066204071044922 4.191802501678467 23 22 31
-0.6860430836677551 -0.40343669056892395 4.860657691955566 102 103 113
1.3195722103118896 -0.9024505615234375 3.7273590564727783 91 81 72
-0.2786850333213806 -2.432076930999756 4.563124179840088 78 80 72
-0.7094327807426453 -2.3179678916931152 4.386071681976318 56 59 65
-0.26790404319763184 -2.42271089553833 4.593036651611328 104 108 105
-0.4075866639614105 -2.4653913974761963 4.722012519836426 55 63 70
-0.6714168190956116 0.933333694934845 5.078413486480713 73 73 79
0.6040773987770081 1.274585485458374 4.351127624511719 160 152 145
-1.1874949932098389 -0.35126423835754395 4.510654926300049 25 26 35
-0.6550257802009583 0.9538811445236206 5.15741491317749 65 64 73
-0.6137305498123169 0.9607155919075012 5.163440704345703 125 124 142
0.6978058218955994 2.1939361095428467 4.270968914031982 59 54 52
-0.9392462968826294 0.29451724886894226 4.812517166137695 140 141 151
0.8977391719818115 0.8107102513313293 4.345604419708252 179 164 153
-1.4506711959838867 2.3895814418792725 4.74489688873291 13 11 14
-1.4208862781524658 2.3953442573547363 4.762277126312256 44 41 43
-1.486464262008667 1.2656587362289429 4.4998040199279785 114 111 113
0.13738282024860382 1.4027514457702637 4.971654891967773 89 87 97
-1.5160517692565918 0.8284163475036621 4.41273307800293 161 161 165
-1.5196114778518677 0.8361350893974304 4.482280254364014 38 37 39
1.1512477397918701 0.8008900284767151 4.240525722503662 126 115 107
0.8901726603507996 1.8311011791229248 3.979583501815796 72 65 65
-1.51697838306427 -0.32446298003196716 4.265680313110352 38 38 44
-1.503724455833435 -0.3335646092891693 4.278046607971191 97 97 103
1.1512446403503418 0.8008817434310913 4.240497589111328 126 115 107
1.4255549907684326 0.9950742125511169 3.6463892459869385 49 41 34
-1.435259461402893 1.2580770254135132 4.618485927581787 42 40 42
-1.4351404905319214 1.2579933404922485 4.618216037750244 42 40 42
-0.15039224922657013 -1.3345171213150024 5.141301155090332 51 47 45
-1.4344416856765747 -1.8878302574157715 4.077855110168457 61 64 65
-0.36223262548446655 -2.202256917953491 4.847169399261475 28 26 30
-0.3977351784706116 0.49566730856895447 5.219228744506836 104 101 112
-0.3627344071865082 -2.199256181716919 4.842411518096924 29 27 31
-0.406331330537796 -2.1685242652893066 4.829752445220947 19 17 17
-0.6219719052314758 1.3816198110580444 5.191203594207764 50 45 47
-1.514355182647705 -0.3101382851600647 4.302065849304199 83 84 89
-1.4052174091339111 1.235933542251587 4.602039813995361 133 131 132
-0.6402759552001953 -1.2995033264160156 4.7708024978637695 63 66 76
0.3972405791282654 1.2125952243804932 4.616611003875732 46 38 32
-0.6268598437309265 1.358514666557312 5.18804931640625 110 105 106
-1.1418622732162476 1.2556817531585693 4.799636363983154 72 70 72
0.5277346968650818 1.73049795627594 4.482533931732178 31 31 47
1.1023911237716675 1.412974238395691 3.673203706741333 121 115 114
-1.169162392616272 0.3554268181324005 4.6519975662231445 165 165 172
-1.4389681816101074 -1.2237073183059692 4.214727878570557 119 120 125
0.936335563659668 0.862228512763977 4.28860330581665 131 119 107
-1.4895875453948975 0.6025824546813965 4.439722537994385 88 87 92
-1.4683382511138916 -1.2200592756271362 4.112163543701172 34 35 36
-0.40179771184921265 -2.0237069129943848 4.854763031005859 102 104 110
0.3082561492919922 1.6757887601852417 4.777491569519043 105 101 111
-1.1431092023849487 1.6921045780181885 4.877896308898926 23 22 23
-1.5133038759231567 -1.23887038230896 4.133394718170166 100 102 106
0.31392136216163635 1.1881697177886963 4.703922748565674 53 45 40
-1.4345157146453857 0.15841439366340637 4.421091556549072 129 128 134
-0.644107460975647 0.5025009512901306 5.045833110809326 17 17 22
-1.4570767879486084 0.1394347846508026 4.421979904174805 54 52 61
-1.4254300594329834 0.593963623046875 4.533529281616211 64 64 69
-0.7171094417572021 0.5095377564430237 4.999484539031982 77 81 106
-0.2984757125377655 0.5278069972991943 5.252422332763672 114 106 115
-1.2054805755615234 -1.716847538948059 4.3829169273376465 49 51 58
-0.6802626252174377 0.5235714912414551 5.020847320556641 138 143 152
0.16972382366657257 1.1616977453231812 4.909517288208008 49 40 34
-1.195218801498413 0.07445076107978821 4.59201192855835 19 18 28
-0.6538562774658203 0.06839844584465027 4.942051887512207 41 42 56
-1.4766104221343994 0.35231146216392517 4.427820205688477 130 130 139
1.873075246810913 0.42955636978149414 4.734328746795654 65 64 66
0.16972409188747406 1.1616981029510498 4.90951681137085 49 40 34
-0.9014259576797485 0.5573562383651733 4.872776031494141 22 22 33
0.03476358577609062 0.6131135821342468 5.440506458282471 132 122 115
-0.22724565863609314 1.114231824874878 5.408583164215088 80 72 68
-1.1907308101654053 0.549784243106842 4.654945373535156 132 131 139
-0.9202075004577637 -1.6985793113708496 4.521261215209961 35 38 44
0.16972360014915466 1.1616977453231812 4.909517288208008 49 40 34
-0.22726382315158844 1.1142507791519165 5.408674716949463 80 72 68
-1.1449003219604492 0.98296058177948 4.76605749130249 100 98 105
-0.6390699148178101 1.1910985708236694 5.167067050933838 21 16 18
-1.5161514282226562 -0.06816492229700089 4.287380695343018 114 114 120
-1.5409680604934692 1.0351641178131104 4.49876070022583 123 123 124
1.174476146697998 0.9035141468048096 3.9476478099823 114 104 95
-0.6390758752822876 1.1911197900772095 5.167090892791748 21 16 18
1.25092351436615 0.8739738464355469 3.843881845474243 151 140 129
-1.1698821783065796 -0.09896373748779297 4.552130699157715 158 158 167
0.06363387405872345 1.1268649101257324 5.007472515106201 64 54 46
-1.5222364664077759 -1.4508230686187744 4.167293071746826 75 78 84
-1.421154499053955 -0.10095351934432983 4.418697357177734 61 60 66
-1.155496597290039 1.0072873830795288 4.791097640991211 25 23 29
-1.1532318592071533 0.3749839961528778 4.65026330947876 201 201 210
-0.9028841257095337 -0.13057328760623932 4.764562129974365 136 137 145
-0.8901338577270508 -0.15403780341148376 4.6551194190979 75 75 85
-0.9089565873146057 -0.1580057293176651 4.753414630889893 38 37 47
-0.39700281620025635 0.6761828660964966 5.235404968261719 100 97 110
-1.5274457931518555 0.5771180987358093 4.41495943069458 95 95 99
1.2932676076889038 0.6247867345809937 4.2995171546936035 164 157 154
1.1215667724609375 0.7162964940071106 4.119256973266602 114 103 104
-1.4189186096191406 0.8007720112800598 4.545787334442139 20 20 24
1.1652593612670898 0.7432282567024231 4.2816667556762695 115 104 105
1.1234257221221924 -0.824141263961792 3.924992322921753 132 119 115
-1.3926993608474731 0.7916027307510376 4.55941915512085 123 123 128
-0.7630189061164856 0.2987718880176544 4.947428226470947 172 173 184
1.5640196800231934 0.6847286820411682 3.9528117179870605 84 82 83
1.5355298519134521 0.6837123036384583 4.0070343017578125 91 88 87
-1.439266562461853 0.36536574363708496 4.461395740509033 139 138 144
-1.164313793182373 0.8031734824180603 4.715062141418457 65 64 69
1.2786649465560913 -0.7826149463653564 4.050652503967285 152 152 161
-1.4847902059555054 -0.7803655862808228 4.13728666305542 71 71 77
-1.5079426765441895 -0.793427050113678 4.201895713806152 46 46 51
1.336777687072754 0.6449108123779297 4.354330539703369 153 147 142
-0.6395041942596436 0.32919472455978394 5.0091376304626465 169 174 192
-1.1754347085952759 0.7865389585494995 4.754289627075195 36 34 42
-1.5103479623794556 -0.7779304385185242 4.229269027709961 93 92 97
-1.5220354795455933 -0.519957423210144 4.263175010681152 17 17 21
-1.168729543685913 -0.790381908416748 4.469200611114502 99 99 105
-0.6901333332061768 -0.8558538556098938 4.814652442932129 117 119 129
-0.658578097820282 0.30211952328681946 5.00739049911499 155 158 177
-1.493561863899231 -0.5124221444129944 4.183398246765137 72 73 77
-0.6396217942237854 0.3175618052482605 5.009567737579346 89 93 111
-0.6697088479995728 -0.8519384860992432 4.833628177642822 26 28 38
-1.5222361087799072 -0.5202456712722778 4.263733863830566 17 17 21
-0.39800015091896057 -0.8592599034309387 5.015200614929199 63 64 80
-1.3997224569320679 -0.5583575367927551 4.283806324005127 37 36 42
1.0264897346496582 -0.5942410230636597 3.9406492710113525 189 181 175
0.4211498200893402 1.1966371536254883 4.55350399017334 28 18 12
-0.6633508205413818 1.4298553466796875 5.33327579498291 48 43 46
-1.500268578529358 1.2975019216537476 4.54509973526001 64 62 63
-0.4052763879299164 -2.164682626724243 4.824692249298096 34 32 31
1.3071051836013794 0.6282216906547546 4.261467456817627 106 100 95
-0.919802725315094 0.5432747006416321 4.953004837036133 16 16 29
0.02947859838604927 1.017105221748352 5.031772613525391 146 135 126
0.33308860659599304 1.4553077220916748 4.770936489105225 56 54 66
-0.4134085476398468 -1.2850474119186401 4.952181816101074 105 108 127
-0.8769221305847168 -0.33428671956062317 4.610314846038818 112 112 122
-0.6732295751571655 -1.023637056350708 4.7891974449157715 60 63 70
-0.24351005256175995 0.5233835577964783 5.357512950897217 72 63 63
-0.21905609965324402 0.6430235505104065 5.372405529022217 133 124 126
-1.5057300329208374 -0.07463284581899643 4.353533744812012 47 46 52
0.1857987940311432 1.1285033226013184 4.789255619049072 34 25 18
-1.4327620267868042 -1.645923137664795 4.128936290740967 41 42 45
-0.32370802760124207 0.5248115062713623 5.2793402671813965 135 128 138
-0.640087366104126 -1.299277901649475 4.77022123336792 63 66 76
-1.5166001319885254 -0.8162255883216858 4.214153289794922 39 40 47
-0.5590296983718872 1.3653944730758667 5.251331329345703 33 27 31
-0.8925384879112244 -0.3503784239292145 4.725737571716309 58 57 67
-1.1654150485992432 -0.9760511517524719 4.382876873016357 75 77 84
-0.6874423027038574 -1.054984450340271 4.8118157386779785 60 63 70
-1.1572821140289307 -0.8015968203544617 4.379189968109131 65 66 73
-0.39908504486083984 0.6678623557090759 5.2437334060668945 104 102 114
-0.04793110489845276 1.585564136505127 5.229219913482666 127 123 130
-0.6818269491195679 0.06860966980457306 4.933248043060303 55 56 69
-0.6036763787269592 1.1508921384811401 5.180825710296631 93 96 108
1.5375308990478516 0.8565454483032227 3.876297950744629 137 124 115
1.0525360107421875 -0.5331915616989136 3.944878578186035 205 197 189
0.5720027089118958 1.2287417650222778 4.365285396575928 88 78 70
0.7128082513809204 1.9995092153549194 4.281403064727783 72 66 64
-0.6209245324134827 -0.3939596116542816 4.82464075088501 53 54 64
0.5348608493804932 1.1884136199951172 4.381805419921875 160 150 140
-1.4350805282592773 1.2579474449157715 4.618102550506592 42 40 42
-1.4078476428985596 2.1401875019073486 4.693526744842529 53 53 57
-0.6219609975814819 1.3816044330596924 5.191153049468994 50 45 47
-0.7659608125686646 0.2990776598453522 4.965646743774414 158 158 170
-0.6408348679542542 1.1935752630233765 5.173536777496338 10 6 7
0.3958069086074829 1.2093011140823364 4.611866474151611 83 74 69
-0.6252928972244263 1.3512953519821167 5.180045127868652 99 93 94
-0.4183254539966583 -2.5205576419830322 4.833452224731445 27 33 40
-1.1620957851409912 0.34947627782821655 4.645208835601807 149 149 156
-1.519702672958374 1.0477113723754883 4.497159004211426 79 79 80
0.6917271614074707 1.6888853311538696 4.252457141876221 36 34 50
-0.6912077069282532 0.043279994279146194 4.953720569610596 118 120 133
1.1729481220245361 0.8994393348693848 3.940772533416748 123 113 104
-1.5213996171951294 1.0195672512054443 4.449594020843506 110 110 116
-1.5014665126800537 1.0253314971923828 4.513824462890625 103 103 110
-1.4506721496582031 2.3895816802978516 4.744897365570068 13 11 14
-1.1492722034454346 0.5362436175346375 4.643460273742676 114 113 119
-0.9212205410003662 0.5552604794502258 4.8628363609313965 156 156 167
-0.4063332676887512 -2.168539047241211 4.82975959777832 19 17 17
-1.5003305673599243 1.7164924144744873 4.6247968673706055 22 18 20
-1.5220317840576172 -0.51995849609375 4.263169288635254 17 17 21
-1.5220386981964111 -0.5199564695358276 4.263180255889893 17 17 21
-0.9339459538459778 1.8746888637542725 5.03925085067749 117 115 118
0.03476623818278313 0.6131110191345215 5.440506935119629 132 122 115
-0.6954008340835571 -0.4072915017604828 4.8884453773498535 88 89 99
-0.668614387512207 -0.40406709909439087 4.880856990814209 36 36 44
-0.6373356580734253 0.32833677530288696 5.004724979400635 173 178 197
-1.5280563831329346 0.5746736526489258 4.415226459503174 97 98 102
-1.5202115774154663 0.5825551748275757 4.427286148071289 21 21 25
0.13674423098564148 -0.8033660650253296 5.113409996032715 168 163 161
-1.5065160989761353 -0.3376004993915558 4.286127090454102 76 76 82
-1.1304728984832764 0.9778171181678772 4.748997688293457 101 99 108
-0.6494923830032349 -1.9295669794082642 4.660328388214111 51 52 60
-1.489566445350647 0.6025794148445129 4.439687728881836 88 87 92
-1.1785303354263306 -0.7950667142868042 4.490878105163574 93 92 100
0.7956756949424744 0.8925214409828186 4.453392505645752 147 139 133
-1.143129825592041 1.6921274662017822 4.877965927124023 23 22 23
-0.7787895798683167 0.2953989505767822 4.9160261154174805 45 45 57
-1.5170278549194336 -0.32448720932006836 4.265754222869873 38 38 44
-1.519740104675293 0.6013901829719543 4.459049224853516 83 83 86
-1.1894257068634033 -0.8276474475860596 4.5015363693237305 88 89 96
-1.5306172370910645 -0.794489324092865 4.209174633026123 105 106 112
-1.1645091772079468 -1.7090651988983154 4.306560039520264 90 91 101
-1.2154968976974487 -0.35282832384109497 4.538869380950928 68 68 81
1.041772723197937 -0.7724614143371582 3.928490400314331 206 200 193
0.9080547094345093 0.7792139053344727 4.268818378448486 91 78 66
-0.8845680356025696 1.6377263069152832 5.065554618835449 23 22 25
1.0033864974975586 -0.7432635426521301 3.7840628623962402 191 182 173
1.042655348777771 -0.7806726694107056 3.888131856918335 198 189 182
-1.4992244243621826 1.462796688079834 4.563589572906494 68 66 70
-0.9201999306678772 -1.6985665559768677 4.521240234375 35 38 44
-1.413761019706726 1.483873724937439 4.636667251586914 30 27 33
-1.5195956230163574 0.836129367351532 4.482244491577148 38 37 39
1.1668248176574707 -0.8454522490501404 4.008187770843506 144 132 127
-1.1496756076812744 0.3729011118412018 4.644658088684082 188 188 196
-1.519632339477539 0.8361485600471497 4.482325553894043 38 37 39
-1.5356082916259766 -0.0679580569267273 4.342620372772217 52 52 58
-0.65503990650177 0.9538689851760864 5.157416820526123 65 64 73
-1.4906119108200073 -0.07078766822814941 4.32444953918457 107 108 113
-1.508607029914856 -0.06751690059900284 4.266120433807373 106 107 113
-0.680251955986023 0.5268906354904175 5.0236358642578125 134 140 148
-0.6750895977020264 0.9364733099937439 5.08445405960083 73 73 79
-0.6666746735572815 0.4988851845264435 5.032611846923828 24 25 35
-1.4115426540374756 -0.08350544422864914 4.432178020477295 136 134 142
-1.4211326837539673 -0.10091063380241394 4.418617248535156 61 60 66
-1.4208005666732788 -0.30414944887161255 4.366433143615723 92 92 98
-1.1452677249908447 0.8611735105514526 4.7324066162109375 114 113 122
-1.2066272497177124 -0.10006212443113327 4.5780768394470215 82 83 92
-1.1827799081802368 -0.105538509786129 4.599894046783447 96 96 104
-1.4217088222503662 0.8175954222679138 4.589453220367432 63 62 67
-0.27489230036735535 0.5340268611907959 5.33079195022583 92 83 84
1.2131574153900146 0.7600119709968567 4.308669567108154 214 199 189
-1.4239896535873413 0.15337884426116943 4.40751314163208 113 112 119
-0.6255035400390625 0.7291513085365295 5.019259929656982 148 148 160
-0.7171218991279602 0.5095622539520264 4.999563217163086 77 81 106
-1.4907912015914917 0.3762805163860321 4.316606044769287 96 94 100
1.5149005651474 0.6703980565071106 4.000208854675293 172 168 164
-1.5247422456741333 -0.988432765007019 4.192870140075684 106 109 114
-1.491729497909546 -1.0066200494766235 4.191801071166992 23 22 31
-1.1473989486694336 0.7956113219261169 4.738437652587891 130 129 136
-1.5042800903320312 0.3841208517551422 4.415470600128174 123 121 127
-0.7630159854888916 0.29877346754074097 4.947425365447998 172 173 184
1.4448482990264893 0.654453456401825 4.089495658874512 170 165 160
-1.4961854219436646 -1.2553648948669434 4.1604390144348145 127 128 130
-0.8872478008270264 -0.15760958194732666 4.6383514404296875 77 76 88
-1.4365508556365967 -1.2227195501327515 4.199868202209473 117 119 124
-1.41273033618927 -1.2183194160461426 4.229783058166504 105 105 109
1.6065930128097534 0.6284593343734741 4.276610374450684 102 97 93
-0.8393703699111938 0.7618359327316284 4.96266508102417 147 149 163
-0.39772894978523254 0.4956561326980591 5.219141006469727 104 101 112
-0.15039975941181183 -1.3345603942871094 5.141526699066162 48 43 41
-0.8810084462165833 0.7234069108963013 4.894183158874512 128 129 143
-0.15042367577552795 -1.334566354751587 5.141412258148193 51 47 45
-1.1521193981170654 0.8472567200660706 4.755346775054932 117 116 124
-1.4351235628128052 1.257988691329956 4.618160247802734 42 40 42
-0.6652756929397583 0.7241731882095337 4.965366363525391 53 52 62
-0.6963618397712708 0.7421935796737671 5.061974048614502 58 58 67
0.6041507720947266 1.2730712890625 4.35443639755249 165 156 149
-0.9051974415779114 -0.3489876389503479 4.758084297180176 70 70 80
-1.413619875907898 0.33615460991859436 4.4295854568481445 98 96 105
1.5489215850830078 0.6074837446212769 4.221302509307861 85 80 77
0.9502749443054199 0.7633436322212219 4.25461483001709 169 154 142
-1.4785512685775757 0.3514508605003357 4.4286208152771 106 106 115
-0.4012618064880371 -1.0759594440460205 4.926738262176514 171 172 189
-0.5646759271621704 -2.4127604961395264 4.703214168548584 61 64 70
-0.1917756050825119 0.6888772249221802 5.3885321617126465 22 16 17
-0.1499529927968979 -1.5211304426193237 5.1093950271606445 53 48 48
-0.4241357743740082 -1.1086692810058594 4.957828044891357 51 53 74
-1.4442719221115112 -2.086188554763794 4.033590793609619 31 32 34
-0.6538378000259399 0.06839117407798767 4.941987037658691 41 42 56
-0.6931108832359314 0.70909583568573 5.018684387207031 45 47 55
-0.942802906036377 -1.9645159244537354 4.467086315155029 70 72 78
-0.21905985474586487 0.6430314779281616 5.372429370880127 133 124 126
1.222682237625122 -0.9186163544654846 3.8578426837921143 71 59 50
-0.4113350808620453 -0.16790108382701874 5.135177135467529 57 60 68
0.5746111869812012 0.9824056625366211 4.31891393661499 196 187 177
-1.4989752769470215 0.5685238242149353 4.432933807373047 83 84 92
-0.9296244978904724 0.5578955411911011 4.877588272094727 158 158 169
0.02978789433836937 0.6176599860191345 5.474890232086182 133 123 116
-1.501465916633606 -0.3358983099460602 4.278097152709961 84 83 91
-0.9051870703697205 -0.34898892045021057 4.758068561553955 70 70 80
-1.5142194032669067 -0.31010720133781433 4.301867485046387 83 84 89
-1.1656608581542969 0.3521178364753723 4.653315544128418 147 147 154
-0.6382943987846375 0.331758052110672 5.012533187866211 177 182 200
-0.6608855724334717 0.3225364089012146 4.998837947845459 56 59 78
-0.7630164623260498 0.29877331852912903 4.9474263191223145 172 173 184
-0.4075902998447418 -2.4654014110565186 4.722019195556641 55 63 70
-0.7688489556312561 0.2931358814239502 4.811103343963623 76 77 89
-0.41833633184432983 -2.5205821990966797 4.833493232727051 27 33 40
-0.7659841179847717 0.299085795879364 4.965796947479248 158 158 170
-1.1586484909057617 -2.1808621883392334 4.2672247886657715 107 108 110
-0.5647340416908264 -2.4129841327667236 4.703665733337402 61 64 70
-0.9089484214782715 -0.15800729393959045 4.753336429595947 38 37 47
-1.4197838306427002 0.15589624643325806 4.412471294403076 126 125 131
-0.6986833214759827 -0.13174740970134735 4.920190811157227 130 131 141
-1.4211362600326538 -0.10090640187263489 4.418623924255371 61 60 66
-1.206628441810608 -0.10006596148014069 4.578069686889648 82 83 92
-1.1653207540512085 0.08820721507072449 4.592953681945801 125 127 135
-0.9028554558753967 -2.129992723464966 4.436069488525391 100 103 108
-0.694420337677002 0.04632173106074333 4.9483771324157715 120 121 134
-0.36275526881217957 -2.199293375015259 4.84247350692749 29 27 31
-0.4142646789550781 -2.1955583095550537 4.834599018096924 130 129 130
