ply
format ascii 1.0
element vertex 712
property float x
property float y
property float z
property uchar red
property uchar green
property uchar blue
end_header
-1.4470230340957642 0.2020796835422516 3.3161427974700928 65 67 80
-1.479174256324768 -1.2635343074798584 3.992722511291504 68 68 84
0.17170418798923492 1.4965628385543823 4.140586853027344 73 74 83
-1.4333806037902832 0.19577822089195251 3.279615640640259 30 31 45
-0.9932896494865417 0.9150953888893127 3.5713486671447754 88 89 96
-1.4289270639419556 0.19613081216812134 3.2742373943328857 30 31 45
-1.3976448774337769 -1.2712416648864746 4.065002918243408 23 23 31
-1.4342408180236816 0.1958313286304474 3.280648946762085 62 63 76
-1.330493688583374 0.1616535633802414 3.2919867038726807 72 72 82
-0.6685099005699158 0.9327549338340759 3.7121365070343018 7 8 16
-0.6716552972793579 0.18352898955345154 3.65850830078125 11 12 21
-0.6735175848007202 0.21532213687896729 3.6485965251922607 8 9 22
0.6734281182289124 1.0966731309890747 4.331258296966553 72 72 83
-1.1916555166244507 -1.002281665802002 3.3034608364105225 39 39 47
-0.23517124354839325 0.19754861295223236 3.8602895736694336 8 9 19
-1.3597962856292725 0.1970449984073639 3.384025812149048 20 22 31
-0.6662060022354126 0.1877467781305313 3.659634590148926 97 100 107
-1.3580387830734253 0.20264573395252228 3.3493947982788086 69 72 82
-1.360483169555664 0.2026055008172989 3.3525540828704834 77 80 91
-1.3389778137207031 0.17953704297542572 3.3606655597686768 10 12 21
-1.3281234502792358 0.17868447303771973 3.3465373516082764 13 14 22
-1.3634757995605469 0.19236081838607788 3.332824468612671 41 44 54
-0.8249941468238831 -1.0006179809570312 3.4499428272247314 40 41 48
-0.8650515079498291 -1.016481876373291 3.509425401687622 78 81 89
-0.8380207419395447 -1.0134189128875732 3.5055010318756104 12 14 22
-1.2954603433609009 0.1805257499217987 3.3633906841278076 94 97 105
-1.2887588739395142 0.18718169629573822 3.366598129272461 105 107 117
-1.348854899406433 0.18541525304317474 3.3459794521331787 7 8 17
-1.3541438579559326 0.18478631973266602 3.3332672119140625 20 23 33
-0.6685114502906799 0.9327566027641296 3.712141513824463 7 8 16
-1.3320906162261963 0.1814679056406021 3.3596296310424805 66 68 77
-0.6047394275665283 0.20240439474582672 3.6862409114837646 13 14 28
0.5077404379844666 1.498809576034546 4.299420356750488 5 6 16
-0.20824746787548065 1.3678417205810547 3.947380781173706 17 17 26
-0.16905289888381958 -0.9768583178520203 3.7360379695892334 35 39 44
-1.2004151344299316 -0.8732008934020996 3.334196090698242 48 50 65
-0.2082599550485611 1.3678292036056519 3.9474897384643555 17 17 26
0.3142785429954529 -0.9796783924102783 4.00862455368042 16 17 21
-1.5699636936187744 -1.2740411758422852 3.983442783355713 52 52 65
-1.4679034948349 -1.303062081336975 4.0242085456848145 87 94 125
-1.1932199001312256 -0.8336445689201355 3.3347513675689697 69 69 81
-1.5606275796890259 -1.3068004846572876 3.9615657329559326 98 106 135
1.1349050998687744 0.9263324737548828 4.505970478057861 11 11 20
-0.639919638633728 -1.3857401609420776 3.5664498805999756 39 41 49
0.22009290754795074 0.7458891868591309 4.084702014923096 45 46 53
-1.233383297920227 -0.8122791647911072 3.3169567584991455 117 119 130
-1.3778901100158691 -0.6217207312583923 3.2427690029144287 52 54 64
-0.9972015023231506 -0.8127293586730957 3.4170069694519043 8 7 17
-0.6755322813987732 -0.8120267391204834 3.580026626586914 73 76 83
-0.6755285859107971 -0.812017023563385 3.5800042152404785 73 76 83
-0.417313814163208 -0.8012511730194092 3.688361167907715 82 83 90
-0.3934367895126343 -0.791323721408844 3.665783166885376 71 74 80
0.8852578997612 1.4853732585906982 4.446708679199219 6 5 14
-0.43191710114479065 -0.7713736295700073 3.6986334323883057 11 13 21
-0.4319170415401459 -0.7713741064071655 3.6986334323883057 11 13 21
-0.13485008478164673 -0.7916135191917419 3.8079850673675537 50 52 60
0.18390941619873047 1.379284143447876 4.138020992279053 2 2 11
0.1919204294681549 -0.7832913994789124 3.9889886379241943 26 28 33
-1.431745171546936 -0.6251633167266846 3.2392354011535645 52 53 64
-1.4317467212677002 -0.6251611113548279 3.2392375469207764 52 53 64
-1.3910090923309326 -0.6251476407051086 3.25886607170105 75 77 88
-1.2338286638259888 -0.6098892688751221 3.331993579864502 13 14 30
-1.1778767108917236 -0.6161181330680847 3.368075370788574 33 33 43
-0.8009220361709595 2.2517614364624023 3.7422895431518555 46 48 55
-1.2065931558609009 1.1374303102493286 3.4790642261505127 92 93 103
-1.067086100578308 1.1576546430587769 3.5656087398529053 83 85 97
-0.8904827833175659 -0.614944577217102 3.4720985889434814 39 41 50
-0.6086618900299072 -0.630159854888916 3.6119916439056396 26 27 35
-1.0561538934707642 1.1501197814941406 3.5481019020080566 85 87 98
-1.2444795370101929 1.1253290176391602 3.4753003120422363 6 6 14
-1.0706241130828857 -0.56190025806427 3.402073621749878 68 69 82
-1.1311265230178833 1.12765371799469 3.520480155944824 43 43 52
-0.6893728375434875 -0.5675928592681885 3.586601734161377 47 49 58
-1.0549006462097168 2.1086461544036865 3.651566982269287 75 74 82
-0.1980728954076767 -0.5827652812004089 3.771559476852417 41 44 50
-0.20198597013950348 -0.5950050950050354 3.846944808959961 25 28 35
-1.3262382745742798 1.9689106941223145 3.4955520629882812 28 29 39
-1.0060906410217285 1.1414817571640015 3.5836198329925537 56 57 66
-0.8057039380073547 2.1090869903564453 3.7613093852996826 13 15 21
-1.2445093393325806 1.1253236532211304 3.4753358364105225 6 6 14
-1.3534795045852661 -0.4267881214618683 3.2874341011047363 102 103 113
-1.3802934885025024 -0.43014734983444214 3.3212106227874756 63 63 74
-1.3463460206985474 -0.4246075749397278 3.30128812789917 48 49 59
-0.5187037587165833 2.085636615753174 3.866924285888672 80 82 88
-1.2903249263763428 -0.4248597025871277 3.319258689880371 88 90 99
0.20930519700050354 1.307239055633545 4.119350910186768 11 12 21
-1.36824631690979 -0.4131571054458618 3.279752016067505 82 83 94
0.17290522158145905 2.232783317565918 4.179157733917236 47 48 55
-1.3632969856262207 -0.413634717464447 3.3190412521362305 16 17 27
-1.2350019216537476 1.0996614694595337 3.466701030731201 90 91 98
-1.3067831993103027 -0.4138941764831543 3.3122289180755615 22 24 34
0.18930156528949738 1.3396202325820923 4.206720352172852 47 47 56
-1.360877275466919 -0.40727782249450684 3.2743427753448486 10 11 22
-1.3601895570755005 -0.4118126332759857 3.3074119091033936 29 29 40
-1.1732594966888428 -0.42952558398246765 3.3947088718414307 45 46 56
-0.28007256984710693 0.739340603351593 3.866006374359131 24 23 32
-1.0570935010910034 -0.42775195837020874 3.4243412017822266 22 22 32
-1.0570967197418213 -0.4277523458003998 3.424347400665283 22 22 32
-1.2417104244232178 -0.406455934047699 3.353184938430786 105 107 118
-1.3046178817749023 -0.39979901909828186 3.313427448272705 28 30 39
-0.8351954817771912 1.9032280445098877 3.715010404586792 101 100 109
-0.9988579154014587 -0.41200050711631775 3.455368995666504 7 7 18
-1.0086355209350586 -0.4103686511516571 3.452073097229004 109 109 120
-0.9208056330680847 -0.41353532671928406 3.486992835998535 115 117 126
-1.0393534898757935 -0.4014492630958557 3.433469772338867 50 51 62
-0.7828013300895691 1.897860050201416 3.7452361583709717 72 73 80
-0.9216670393943787 -0.40601056814193726 3.5004804134368896 32 35 44
-0.908125638961792 -0.4004131555557251 3.4906256198883057 94 96 106
-1.0161726474761963 -0.3918916583061218 3.4409339427948 89 91 101
-0.7168895602226257 -0.4096052348613739 3.57900333404541 42 43 51
-1.045644998550415 -0.3957452178001404 3.4870266914367676 59 61 71
-0.9511469602584839 1.72484290599823 3.6351258754730225 82 81 91
-0.30070066452026367 1.8634319305419922 3.9603824615478516 70 70 80
-0.9342567324638367 1.7063860893249512 3.649576425552368 37 37 44
-0.26210275292396545 -0.40320008993148804 3.790555477142334 15 15 22
-0.29473575949668884 -0.40074965357780457 3.778991937637329 40 39 48
-0.7792491912841797 1.6893179416656494 3.676224946975708 58 57 65
-1.4533827304840088 1.557432770729065 3.403317451477051 97 98 107
-0.776843249797821 1.1107089519500732 3.682880163192749 50 53 62
-0.6113911867141724 1.7227789163589478 3.802767515182495 81 82 92
-0.5130060315132141 1.1384092569351196 3.807847738265991 6 6 12
-0.5130165815353394 1.1384373903274536 3.807929515838623 6 6 12
-1.1661733388900757 1.5621892213821411 3.586444616317749 39 40 50
-1.1661765575408936 1.5621931552886963 3.586451530456543 39 40 50
-1.4414916038513184 -0.24875853955745697 3.271505355834961 98 100 110
-1.4354203939437866 -0.2489992082118988 3.275146722793579 86 88 98
0.6524381041526794 1.8413535356521606 4.371206760406494 65 67 76
-1.1683698892593384 -0.24761012196540833 3.39892840385437 93 95 106
0.6354874968528748 1.7542245388031006 4.3461456298828125 66 66 77
-0.7747829556465149 1.4905434846878052 3.727736473083496 71 72 81
-1.3857277631759644 -0.23097267746925354 3.2862370014190674 92 95 106
-1.3455969095230103 -0.2299944907426834 3.289120674133301 127 129 142
-1.2463362216949463 -0.23173584043979645 3.3409430980682373 16 17 29
0.3784962296485901 1.684775710105896 4.25272798538208 63 62 70
-0.07488995045423508 1.1476130485534668 4.000189781188965 84 84 92
-0.9347874522209167 -0.23198208212852478 3.5140902996063232 23 24 32
-0.43440505862236023 -0.23390507698059082 3.7231976985931396 60 61 69
-0.5316531658172607 1.5100346803665161 3.833756923675537 6 7 16
-1.214184045791626 -0.19998441636562347 3.3712642192840576 89 91 101
-0.9968163371086121 -0.19880716502666473 3.471766948699951 79 81 91
-0.7057220339775085 -0.21388648450374603 3.613255023956299 76 78 87
-0.8473576307296753 1.4161356687545776 3.6655046939849854 89 91 105
-1.1449156999588013 -0.1865898221731186 3.4108991622924805 86 86 99
-0.9805068969726562 -0.18861456215381622 3.475106716156006 20 21 32
-1.3332314491271973 -0.1850423663854599 3.3168723583221436 69 71 85
-1.1449147462844849 -0.18659012019634247 3.410895586013794 86 86 99
-0.9800442457199097 -0.18856476247310638 3.474562168121338 20 21 32
-0.9562302827835083 -0.18885204195976257 3.5206716060638428 50 52 65
-0.9135856032371521 -0.18525759875774384 3.510671377182007 87 89 101
-0.9798119068145752 -0.1885453164577484 3.474168300628662 20 21 32
-0.9135547280311584 -0.18524952232837677 3.5106148719787598 87 89 101
-1.448291301727295 0.5580627918243408 3.3390417098999023 126 127 134
-0.7086478471755981 -0.1816735565662384 3.605846881866455 47 48 57
-1.4803980588912964 0.9453110694885254 3.3420350551605225 105 106 112
-1.2701047658920288 0.5661680102348328 3.4155185222625732 99 101 112
0.18731757998466492 -0.203286275267601 4.0015387535095215 11 10 19
-1.2837353944778442 0.5581291317939758 3.4045205116271973 90 92 101
0.9272962808609009 0.9080183506011963 4.427723407745361 57 57 67
-1.2837570905685425 0.558122992515564 3.404521942138672 90 92 101
-1.4606653451919556 0.5443002581596375 3.33341121673584 103 104 110
1.3853918313980103 0.7445734143257141 4.606762886047363 5 6 11
0.4441486597061157 0.9098746180534363 4.207807540893555 69 71 77
-1.0851374864578247 0.5331857800483704 3.481177568435669 95 97 109
0.6703251004219055 0.9330371022224426 4.308692455291748 62 64 73
-1.2448995113372803 0.9454061985015869 3.4549431800842285 89 91 99
-0.7278445363044739 -0.04167058318853378 3.597093343734741 58 59 70
-1.4610754251480103 0.47590914368629456 3.3186347484588623 78 79 86
-1.4610731601715088 0.475925087928772 3.3186323642730713 78 79 86
-0.022922787815332413 0.7494338154792786 3.998340368270874 69 68 76
-0.027314111590385437 0.5481005311012268 3.966979742050171 67 67 74
-1.296595573425293 -0.03310560807585716 3.3584892749786377 46 46 55
-1.485489010810852 0.9351271390914917 3.3584539890289307 69 69 78
-1.365336298942566 0.4536225497722626 3.354421854019165 101 103 118
0.006439382676035166 0.5174067616462708 3.996121644973755 4 4 11
-0.4691455066204071 -0.016470899805426598 3.737975597381592 24 24 33
-0.469125360250473 -0.016485825181007385 3.7379519939422607 24 24 33
-1.1355502605438232 -0.013110397383570671 3.4280872344970703 119 121 132
-1.2692618370056152 0.4073784649372101 3.3904294967651367 58 62 78
0.9461082816123962 0.5241345763206482 4.371221542358398 28 28 36
1.3699777126312256 0.9012669324874878 4.603213310241699 55 56 66
-1.2968003749847412 0.3932204246520996 3.390164375305176 69 73 89
-1.1223620176315308 0.3842271864414215 3.4641916751861572 55 57 68
-1.2955995798110962 0.3924853205680847 3.388518810272217 76 80 96
-1.4255224466323853 0.777009904384613 3.34999942779541 35 35 47
0.44896379113197327 1.1287249326705933 4.24312686920166 69 68 78
-1.4583406448364258 0.36146771907806396 3.3100428581237793 109 109 118
-0.010234846733510494 0.9341641664505005 4.017798900604248 67 68 77
-0.8719981908798218 -0.003201261628419161 3.5662879943847656 60 62 70
-1.30060875415802 0.916172981262207 3.4112274646759033 79 82 93
-1.1223714351654053 0.38353341817855835 3.464158296585083 55 57 68
-1.4255205392837524 0.7770079970359802 3.3499934673309326 35 35 47
-0.028107522055506706 0.937847375869751 4.0228424072265625 4 3 11
0.03724110126495361 0.4282205402851105 3.975118398666382 44 46 61
-1.2858706712722778 0.9133692979812622 3.407758951187134 91 94 105
-1.4387447834014893 -0.446965754032135 3.247997283935547 23 24 34
-1.1841717958450317 0.3911381661891937 3.4187488555908203 73 75 93
-1.3656655550003052 -0.8164395689964294 3.245666265487671 15 16 25
-1.2117165327072144 0.7835455536842346 3.474273204803467 46 48 60
-0.9379116892814636 -0.2561770975589752 3.500019073486328 9 10 18
0.764007568359375 2.0596866607666016 4.442653656005859 58 59 67
-0.5211412906646729 -1.0024502277374268 3.6207706928253174 52 54 63
-1.4047349691390991 0.19897149503231049 3.313993215560913 30 31 43
-0.9127338528633118 -0.8205917477607727 3.4347527027130127 29 30 40
-1.4471513032913208 0.5687967538833618 3.301629066467285 55 57 64
-1.290332555770874 -0.4248594045639038 3.319270610809326 88 90 99
-0.8536430597305298 -1.8390299081802368 3.420132637023926 26 27 29
-0.7651667594909668 1.473933458328247 3.688004732131958 39 39 48
-1.227040410041809 0.7237949371337891 3.4414703845977783 127 128 135
-0.2750127613544464 0.5670123100280762 3.9212446212768555 71 72 79
-0.6110138893127441 0.5378145575523376 3.717467784881592 14 16 26
-1.461071491241455 0.4759204685688019 3.3186304569244385 78 79 86
-0.6394146680831909 -1.406834363937378 3.5521042346954346 61 63 71
-0.6399188041687012 -1.3857485055923462 3.5664496421813965 39 41 49
-0.027314187958836555 0.5481024980545044 3.966994285583496 67 67 74
-0.5316533446311951 1.510034203529358 3.8337574005126953 6 7 16
-0.5316516757011414 1.510035753250122 3.833751678466797 6 7 16
-1.587714672088623 -1.1625772714614868 3.4540698528289795 24 27 48
-1.1614362001419067 0.7450260519981384 3.4760243892669678 66 65 74
-1.6743392944335938 -1.2841875553131104 3.913886547088623 46 49 75
-1.5372755527496338 -1.3129302263259888 4.004170894622803 72 78 108
-1.6917619705200195 -1.2745742797851562 3.9117424488067627 12 13 28
-1.36581289768219 0.45334866642951965 3.354260206222534 101 103 118
0.6511218547821045 1.6832829713821411 4.366349220275879 32 32 41
-1.4815047979354858 0.7444986701011658 3.3351190090179443 38 37 45
-0.4624045193195343 0.4931924641132355 3.7840514183044434 20 21 30
-0.0581539124250412 1.5251495838165283 4.036688804626465 60 60 70
0.4911952614784241 0.5307192206382751 4.200965404510498 77 77 84
-1.4815086126327515 0.7444981932640076 3.3351263999938965 38 37 45
-0.834069013595581 -1.0104271173477173 3.498459815979004 19 21 29
-0.7869244813919067 -0.9952256679534912 3.506962537765503 91 93 102
-1.200476884841919 -0.8732308745384216 3.3342957496643066 48 50 65
-1.1912341117858887 -0.833175778388977 3.332028865814209 69 69 81
-1.2465765476226807 -0.8226163983345032 3.355484962463379 105 106 117
-1.2159785032272339 -0.8122851252555847 3.3140709400177 91 91 103
0.4461774528026581 1.5030417442321777 4.261818885803223 9 8 17
0.013199658133089542 0.44012683629989624 4.0581374168396 12 13 23
-0.6755343079566956 -0.8120262622833252 3.5800297260284424 73 76 83
-0.42924824357032776 -0.7962509393692017 3.693028688430786 25 27 34
-0.43191394209861755 -0.7713702917098999 3.6986217498779297 11 13 21
-0.43191438913345337 -0.771366536617279 3.698620080947876 11 13 21
-1.1307154893875122 0.35886576771736145 3.4679505825042725 71 72 82
-0.9498714804649353 0.3614523112773895 3.51438570022583 95 96 104
0.05976700410246849 -0.774986743927002 3.914463996887207 53 54 61
0.1919204741716385 -0.7832952737808228 3.989010810852051 26 28 33
-0.20825868844985962 1.3678289651870728 3.947486162185669 17 17 26
-1.3909881114959717 -0.6251398324966431 3.258831739425659 75 77 88
0.539682924747467 -0.7840685844421387 4.17047119140625 50 50 56
-1.2345823049545288 -0.6100448369979858 3.331359386444092 13 14 30
-0.6728619933128357 -0.5921068787574768 3.5285346508026123 46 48 55
-1.4361714124679565 0.8055132627487183 3.414900779724121 74 75 90
-1.1691150665283203 0.3397948741912842 3.441815137863159 96 97 107
-0.6896832585334778 -0.5663955211639404 3.582566261291504 50 52 62
-0.2020094394683838 -0.5951207280158997 3.847426652908325 25 28 35
-0.1708134561777115 -0.5939019322395325 3.8243796825408936 42 42 51
-0.7732462286949158 -0.5408326387405396 3.5490190982818604 58 60 71
-0.12229587882757187 0.3667010962963104 3.912078619003296 45 45 56
-0.1517125964164734 0.36846232414245605 3.916335105895996 82 84 95
-1.381722092628479 -0.4307129979133606 3.2857680320739746 32 32 42
-1.3545299768447876 -0.42568621039390564 3.288764715194702 91 92 102
-1.3084416389465332 -0.4229830205440521 3.2892005443573 102 103 113
-1.3033993244171143 -0.4253787398338318 3.3154900074005127 99 100 110
-1.3416093587875366 -0.4235539734363556 3.317842483520508 28 28 38
-1.1732587814331055 -0.4295201599597931 3.394707441329956 45 46 56
-1.057142972946167 -0.42776182293891907 3.4244136810302734 22 22 32
-1.0570998191833496 -0.4277530014514923 3.4243521690368652 22 22 32
-1.033705472946167 -0.42593395709991455 3.4425315856933594 14 14 25
-1.0031651258468628 -0.4194045066833496 3.4480042457580566 53 54 65
-0.1336410492658615 0.36291319131851196 3.926382541656494 78 80 91
-1.3060673475265503 -0.3989116847515106 3.3145296573638916 27 28 38
-1.0150160789489746 -0.40985342860221863 3.444420337677002 12 13 23
-1.012181282043457 -0.4109688103199005 3.456747531890869 116 116 127
-0.2789021134376526 0.9466029405593872 3.9066824913024902 5 7 16
-0.19328519701957703 0.9541160464286804 3.940614700317383 80 81 92
-1.2987703084945679 -0.37707123160362244 3.2648794651031494 102 104 116
-0.9067370891571045 -0.4005618095397949 3.4873015880584717 94 96 106
-1.2445124387741089 1.1253230571746826 3.475339889526367 6 6 14
-0.6228435039520264 0.3340178430080414 3.676875591278076 25 25 35
-0.716870903968811 -0.40960070490837097 3.578967332839966 42 43 51
0.016459159553050995 0.3611912131309509 3.989290475845337 24 25 32
-1.0289688110351562 -0.36893653869628906 3.3899643421173096 82 82 95
-1.0425324440002441 -0.37287044525146484 3.434539794921875 90 91 104
-1.2429670095443726 -0.2835566997528076 3.3558177947998047 52 53 69
-1.4426100254058838 -0.24956393241882324 3.278705596923828 103 105 115
-1.1628272533416748 -0.25520846247673035 3.3951776027679443 86 87 100
-1.430891752243042 -0.2369985729455948 3.2874338626861572 98 100 110
0.43321692943573 1.2842838764190674 4.214572429656982 44 46 54
-1.2123092412948608 -0.2238849699497223 3.3948636054992676 7 7 16
-0.43440350890159607 -0.2339043915271759 3.7231950759887695 60 61 69
-1.4463404417037964 0.2019769549369812 3.3145599365234375 65 67 80
-0.43513262271881104 -0.23357507586479187 3.7293026447296143 63 62 71
-0.9968314170837402 -0.19880184531211853 3.4717934131622314 79 81 91
0.4563208520412445 1.2850093841552734 4.248635768890381 40 40 49
-1.334944486618042 0.19719770550727844 3.339912176132202 4 5 15
-1.3479772806167603 0.19831852614879608 3.3567845821380615 6 8 18
-1.3636994361877441 0.19241513311862946 3.3333795070648193 41 44 54
-0.6969687342643738 -0.20224379003047943 3.6030776500701904 44 46 55
-0.9798716306686401 -0.18855130672454834 3.474283456802368 20 21 32
-1.363481879234314 0.19236239790916443 3.332838773727417 41 44 54
-1.3489341735839844 0.1866004467010498 3.3437085151672363 12 14 23
-0.22864596545696259 -0.2013571858406067 3.8387277126312256 4 5 11
-0.7086478471755981 -0.1816735565662384 3.605846881866455 47 48 57
-1.3243365287780762 0.17983204126358032 3.3400495052337646 18 19 28
-0.6656268239021301 0.18906669318675995 3.653550863265991 94 97 105
-0.75624018907547 0.9399991631507874 3.6786696910858154 141 141 150
-0.6721534132957458 0.18401393294334412 3.6521968841552734 25 28 36
-0.6831955909729004 0.18528957664966583 3.6747868061065674 23 25 33
-0.916527509689331 -0.06577261537313461 3.521601438522339 69 70 87
-1.3643163442611694 0.1659623235464096 3.335202932357788 110 111 121
-0.2216586172580719 -0.0456014908850193 3.855079174041748 92 93 99
-1.4603142738342285 0.1589042693376541 3.32246470451355 73 75 84
-1.2026034593582153 -0.03251752629876137 3.4191057682037354 96 99 108
-0.2687150835990906 1.129773736000061 3.930070161819458 43 44 50
-0.4700106084346771 0.17139555513858795 3.7628262042999268 105 105 114
1.1239961385726929 1.2841029167175293 4.498108386993408 51 51 61
-1.339319109916687 -0.017121173441410065 3.3197989463806152 31 32 44
-1.2943532466888428 0.9711918830871582 3.42630934715271 85 86 100
-0.46917062997817993 -0.016591496765613556 3.7380752563476562 24 24 33
-1.134426474571228 -0.012038965709507465 3.424694299697876 119 121 132
-0.5515857934951782 0.16767992079257965 3.7143728733062744 36 36 44
-1.2587976455688477 0.9695265889167786 3.449533462524414 66 68 76
0.4932537078857422 -0.009866530075669289 4.1744890213012695 17 17 25
-0.7391104102134705 0.9616225361824036 3.677687644958496 90 92 102
-1.4854573011398315 0.9351688027381897 3.358424663543701 69 69 78
-0.8717693090438843 -0.0032162831630557775 3.565885305404663 60 62 70
-0.4700125753879547 0.17139552533626556 3.762838363647461 105 105 114
-0.9535902738571167 0.15724961459636688 3.541224479675293 15 14 21
-0.2251080870628357 0.17626573145389557 3.871263027191162 18 19 27
-0.818219780921936 0.08699584007263184 3.570871591567993 40 41 51
-0.8182318210601807 0.08699730783700943 3.570894479751587 40 41 51
-1.485498309135437 0.9351233839988708 3.358464479446411 69 69 78
-0.9555314183235168 0.11222436279058456 3.522630453109741 109 111 119
-1.4325376749038696 0.1457148790359497 3.297919750213623 48 49 58
0.4489636719226837 1.128725290298462 4.243127346038818 69 68 78
0.011227286420762539 0.14603838324546814 3.977729320526123 13 12 20
0.011026081629097462 0.14349104464054108 3.904813051223755 26 26 36
-0.46328410506248474 0.14769303798675537 3.749130964279175 25 26 34
-0.48611587285995483 0.14699390530586243 3.7214295864105225 38 41 48
-0.935441255569458 0.5719672441482544 3.6241872310638428 98 100 111
-1.1177293062210083 0.5515791773796082 3.4758121967315674 108 109 120
1.3853274583816528 0.7445146441459656 4.606566429138184 5 6 11
1.369522213935852 0.9004487991333008 4.599291801452637 55 56 66
-1.2341587543487549 0.5609700679779053 3.437206268310547 71 72 79
-1.480728268623352 0.5601611137390137 3.327376127243042 125 126 132
0.6679161787033081 0.7197660207748413 4.299239635467529 42 43 51
0.9286988377571106 0.7434534430503845 4.408778190612793 40 39 49
-0.24592843651771545 0.7259963750839233 3.8988373279571533 70 72 79
-0.25635090470314026 0.7199985384941101 3.889535903930664 65 68 74
0.46080806851387024 0.7510948181152344 4.225671768188477 3 4 11
-0.7895179986953735 1.4894014596939087 3.703738212585449 62 63 72
-1.2591819763183594 1.4929499626159668 3.4939780235290527 58 58 67
-0.5315046310424805 1.6459041833877563 3.8412303924560547 39 38 47
-1.258479356765747 1.5182238817214966 3.5071122646331787 78 78 86
-1.1661711931228638 1.5621871948242188 3.5864381790161133 39 40 50
-1.1708321571350098 1.5665650367736816 3.5936710834503174 66 67 77
-0.5208520293235779 1.6966538429260254 3.849228858947754 100 101 109
-0.29382726550102234 1.884972095489502 3.9685728549957275 12 13 22
-1.1113590002059937 1.737824559211731 3.5776994228363037 66 66 77
-1.5087467432022095 1.6889442205429077 3.3925912380218506 55 54 62
-0.5455456376075745 2.060250997543335 3.869326114654541 65 67 76
-0.805698812007904 2.1090779304504395 3.7612805366516113 13 15 21
-1.5141148567199707 1.9060167074203491 3.383319854736328 28 28 34
-1.031320333480835 2.089937210083008 3.647887706756592 28 28 35
-1.0205490589141846 2.101982593536377 3.6573822498321533 63 63 70
-0.5676875114440918 2.292140007019043 3.8735411167144775 54 55 62
-0.26777055859565735 -1.2045323848724365 3.7434592247009277 41 41 50
-1.4488385915756226 0.7394322156906128 3.3428025245666504 14 14 23
-0.41270938515663147 -0.6937601566314697 3.6885273456573486 70 72 81
-0.918181300163269 -0.6236549615859985 3.5189552307128906 84 86 95
-1.6648930311203003 -1.2928805351257324 3.913137435913086 94 100 129
-1.3755285739898682 0.46216893196105957 3.3397090435028076 67 68 83
-1.1449171304702759 -0.18658791482448578 3.4108963012695312 86 86 99
-1.3340169191360474 -0.1845778226852417 3.317873954772949 69 71 85
-1.4289391040802002 0.19976289570331573 3.3708336353302 15 16 27
-1.1449159383773804 -0.1865888386964798 3.4108972549438477 86 86 99
-0.673515796661377 0.2153298258781433 3.6486024856567383 8 9 22
-1.2605984210968018 0.8032616972923279 3.427213430404663 60 62 79
-1.4158135652542114 0.8008272647857666 3.3967597484588623 67 68 83
-0.43945249915122986 -0.6064878702163696 3.707512140274048 40 40 47
-0.673250138759613 -1.8168127536773682 3.5130465030670166 41 43 53
-1.437694787979126 -0.44703590869903564 3.2467451095581055 23 24 34
-1.240139365196228 -0.40507328510284424 3.346172332763672 108 110 121
-1.327365517616272 -0.3819519877433777 3.3015453815460205 93 95 107
-1.3793187141418457 0.5346929430961609 3.3489632606506348 83 84 93
-1.327366828918457 -0.3819563090801239 3.301544666290283 93 95 107
-0.809779167175293 1.929883360862732 3.7985405921936035 52 53 60
-0.9991326332092285 1.7769356966018677 3.636664390563965 34 34 46
-0.9991257190704346 1.7769297361373901 3.636652946472168 34 34 46
0.33212268352508545 -1.2094396352767944 4.005238056182861 12 12 18
-0.47207581996917725 0.4886002242565155 3.7762608528137207 106 108 117
-1.1066491603851318 0.4099329710006714 3.437479257583618 52 53 68
-0.5211461186408997 -1.0024524927139282 3.620781421661377 52 54 63
-1.2956020832061768 0.39248472452163696 3.3885273933410645 76 80 96
0.4091666340827942 1.5031367540359497 4.25128173828125 52 53 62
-0.8914204239845276 -0.8287920355796814 3.4917409420013428 38 40 51
0.18885210156440735 -0.2029702514410019 3.9937615394592285 17 17 25
-0.5121517181396484 -1.2070512771606445 3.6197617053985596 40 41 49
-1.2989388704299927 0.18519632518291473 3.352027654647827 57 60 69
-1.2692837715148926 0.4073823094367981 3.3904597759246826 58 62 78
-1.1881964206695557 0.3925483822822571 3.424494743347168 74 77 94
-1.0706182718276978 -0.5618936419487 3.402059555053711 68 69 82
-1.3343921899795532 -0.18450146913528442 3.318357467651367 69 71 85
-1.7031886577606201 -1.3075534105300903 3.9174437522888184 107 113 142
-1.4078130722045898 0.1446855217218399 3.30941104888916 49 50 60
-1.272067666053772 1.1134883165359497 3.4498350620269775 53 55 64
-1.171908974647522 -0.008545204997062683 3.4163742065429688 34 35 48
-0.391522616147995 0.24244709312915802 3.782550573348999 55 56 66
-0.8396791815757751 1.8754361867904663 3.696192741394043 42 44 53
-0.2543726861476898 2.11395263671875 4.026656150817871 81 83 92
-0.5121532082557678 0.23521658778190613 3.7208244800567627 42 42 54
-1.4347460269927979 -0.4464581310749054 3.2540128231048584 60 61 71
-1.0152580738067627 -0.015949195250868797 3.48960280418396 95 96 106
-0.9141336679458618 -0.16388969123363495 3.4906656742095947 74 75 89
-0.5058000087738037 -1.0215188264846802 3.625293493270874 34 36 44
-0.6376184821128845 -1.6366664171218872 3.5417356491088867 32 33 40
-0.7618512511253357 0.9852132201194763 3.6872973442077637 38 38 47
0.029554786160588264 0.42655012011528015 3.9900686740875244 26 29 40
-0.7733425498008728 0.9515097737312317 3.6806325912475586 56 56 65
-1.1223652362823486 0.3835330307483673 3.464146137237549 55 57 68
-0.3919532597064972 -1.1952519416809082 3.6685233116149902 56 56 63
-0.49536222219467163 0.93439120054245 3.797574758529663 93 95 102
0.011445963755249977 0.5202771425247192 4.005589485168457 83 84 92
1.1410976648330688 1.0846625566482544 4.517704010009766 42 44 52
-0.7869244813919067 -0.9952256679534912 3.506962537765503 91 93 102
-0.01985630951821804 0.9086992740631104 4.001023769378662 68 70 78
-0.24630814790725708 0.5501797795295715 3.841545343399048 119 118 126
0.44276320934295654 0.9069099426269531 4.206857681274414 54 57 63
-0.43278104066848755 -0.8070005774497986 3.7262964248657227 48 49 56
-0.7597929835319519 0.5594140291213989 3.661918878555298 101 103 112
-1.2008600234985352 -0.62164705991745 3.362555742263794 114 115 127
-0.2799120247364044 0.7198330760002136 3.8613157272338867 55 55 66
-0.2474936544895172 0.7247384190559387 3.901298761367798 63 66 73
-0.2562999427318573 0.7213971614837646 3.8973257541656494 59 62 68
-1.2435587644577026 0.5565416216850281 3.417644739151001 111 111 119
-1.460662841796875 0.5443010926246643 3.3334052562713623 103 104 110
-0.6875967979431152 -0.6018805503845215 3.604844093322754 20 22 28
0.4502696096897125 0.731265664100647 4.132760047912598 42 41 50
0.5400521755218506 -0.6141546368598938 4.154119968414307 60 60 66
0.27763667702674866 -0.5753041505813599 3.9688148498535156 50 50 56
-1.3139311075210571 -0.41978394985198975 3.2859294414520264 63 64 75
-1.4317283630371094 -0.4087715446949005 3.259521722793579 10 11 19
-0.5974209904670715 2.299126625061035 3.860938310623169 86 89 94
-1.0187300443649292 -0.41188231110572815 3.4502696990966797 15 15 25
-0.5593454241752625 2.058298349380493 3.8397576808929443 46 47 56
-0.5457377433776855 2.0583338737487793 3.869112730026245 84 85 94
0.367839515209198 2.2903249263763428 4.314915657043457 3 5 12
-1.2436059713363647 -0.23148788511753082 3.337216377258301 16 16 28
-1.509158968925476 1.7168670892715454 3.4102418422698975 63 62 70
-0.43440675735473633 -0.23390734195709229 3.7231879234313965 60 61 69
-0.7915956974029541 1.8793691396713257 3.751915216445923 68 69 76
-0.4344014525413513 -0.23390473425388336 3.723179817199707 60 61 69
-1.218523383140564 -0.19951938092708588 3.380105972290039 85 87 96
-1.2648450136184692 1.710416316986084 3.4953460693359375 65 67 75
-0.2473842054605484 -0.2052341103553772 3.895460844039917 42 44 49
-0.22865383327007294 -0.2013777643442154 3.8389272689819336 4 5 11
-0.9605364203453064 1.722367525100708 3.6412081718444824 16 17 24
-1.0143239498138428 1.7069793939590454 3.633061408996582 35 36 42
-1.2234129905700684 -0.05135086178779602 3.381671905517578 17 20 27
-0.70942622423172 -0.04481567069888115 3.614980459213257 84 86 94
-0.22305533289909363 -0.04903392866253853 3.8541297912597656 75 75 80
-1.4729540348052979 -0.03202282637357712 3.2859859466552734 123 124 131
-1.2026100158691406 -0.03251759707927704 3.4191150665283203 96 99 108
0.7137152552604675 -0.03934435918927193 4.270479202270508 66 69 77
0.18473824858665466 1.8380370140075684 4.149954795837402 34 36 44
-0.47276413440704346 1.6830006837844849 3.841400623321533 3 2 11
-0.9710861444473267 -0.023317765444517136 3.502641201019287 103 104 114
-0.52177894115448 1.6973546743392944 3.85148024559021 100 101 109
0.012734957970678806 -0.0063115996308624744 3.987081527709961 30 30 35
0.17672786116600037 1.69501531124115 4.162574768066406 8 8 17
-0.8481670022010803 1.471508264541626 3.6751017570495605 116 116 131
-0.957301914691925 0.10935712605714798 3.524326801300049 106 108 116
0.011227654293179512 0.14603851735591888 3.9777281284332275 13 12 20
-0.8470772504806519 1.4172283411026 3.6652448177337646 70 72 86
-0.46329087018966675 0.1476936787366867 3.749136209487915 25 26 34
-0.957422137260437 0.14257240295410156 3.5249478816986084 113 114 121
-0.06113923713564873 1.507426381111145 4.040651798248291 73 73 83
0.16489596664905548 1.474576711654663 4.131246566772461 46 48 57
-0.24123574793338776 0.17452655732631683 3.8687899112701416 74 76 85
-0.9535899758338928 0.15724794566631317 3.541227102279663 15 14 21
0.1815395951271057 1.478975534439087 4.1861467361450195 29 29 38
-0.30671194195747375 1.3262869119644165 3.9238903522491455 91 93 103
0.18018808960914612 1.3537439107894897 4.075675964355469 27 28 37
-1.0060924291610718 1.141486644744873 3.5836288928985596 56 57 66
-1.3245162963867188 0.17797279357910156 3.340315103530884 19 20 29
-0.015780964866280556 1.2877243757247925 4.0378570556640625 69 69 78
-1.3634693622589111 0.1923578381538391 3.332811117172241 41 44 54
-1.3604767322540283 0.20260417461395264 3.352536916732788 77 80 91
-0.9933371543884277 1.1241360902786255 3.536807060241699 86 87 97
-1.3269966840744019 0.19767045974731445 3.309387683868408 44 45 56
-1.3604462146759033 0.20260180532932281 3.352468729019165 77 80 91
-0.46905937790870667 0.24065227806568146 3.746690034866333 70 71 81
0.4317617118358612 1.2895946502685547 4.2414045333862305 41 42 50
0.6545100808143616 1.3256367444992065 4.370607852935791 9 8 16
0.455349326133728 1.2793166637420654 4.2387776374816895 43 44 52
-0.24051351845264435 0.3319548964500427 3.855485677719116 42 44 53
0.016456080600619316 0.3611830174922943 3.9892892837524414 24 25 32
-1.259745717048645 0.9726057648658752 3.4511630535125732 72 74 83
-1.2628989219665527 0.9605861902236938 3.4492344856262207 17 19 27
-0.13339772820472717 -1.6094695329666138 3.757045030593872 53 55 59
-0.4871150255203247 0.14528997242450714 3.718538284301758 53 54 63
-0.6509748697280884 -1.2518378496170044 3.5427474975585938 54 56 64
0.4367198646068573 1.5331177711486816 4.341726779937744 6 5 14
0.3321213722229004 -1.2094420194625854 4.005241870880127 12 12 18
-1.1615532636642456 0.3706105649471283 3.4479563236236572 99 100 112
-0.7870821356773376 0.9444761872291565 3.6734111309051514 131 132 141
-1.1933363676071167 -0.8326886892318726 3.3308684825897217 74 74 86
-0.9135432839393616 -0.8212106227874756 3.437796115875244 35 35 45
0.3135402500629425 -0.8070749044418335 4.029514312744141 28 28 33
-1.070736289024353 -0.4257626235485077 3.418332815170288 87 90 100
-1.39100182056427 -0.6251456141471863 3.258857011795044 75 77 88
-1.3080346584320068 -0.39934664964675903 3.3180058002471924 34 36 46
-1.2279579639434814 -0.6112684011459351 3.323385238647461 26 26 42
0.17806966602802277 2.264383316040039 4.200004577636719 68 69 76
-0.17076288163661957 -0.5938827991485596 3.82428240776062 42 42 51
0.19059570133686066 0.7185533046722412 4.076390743255615 35 37 45
-0.7759055495262146 1.1058095693588257 3.6782078742980957 47 49 60
0.831403374671936 0.3456871211528778 4.332570552825928 75 75 86
-1.456282615661621 1.5603810548782349 3.410130739212036 86 87 96
-0.26284846663475037 0.5785504579544067 3.867408514022827 14 15 24
-0.7264043688774109 -0.04456721618771553 3.5983569622039795 52 53 64
-0.6732995510101318 -1.8168667554855347 3.5131423473358154 41 43 53
-1.2878468036651611 0.18496711552143097 3.3724730014801025 106 109 118
-0.27207452058792114 0.021960562095046043 3.8087360858917236 59 59 69
-1.6648943424224854 -1.2928798198699951 3.913140296936035 94 100 129
-1.4679054021835327 -1.3030678033828735 4.0242204666137695 87 94 125
-0.23755277693271637 0.01960635930299759 3.8327643871307373 67 68 76
-0.8354108929634094 -1.0167713165283203 3.4957945346832275 52 54 62
-1.2004437446594238 -0.873214602470398 3.334242820739746 48 50 65
-1.3150051832199097 -0.8207218050956726 3.29999041557312 74 74 85
-1.1714637279510498 0.33946692943573 3.4429521560668945 88 89 99
0.08252033591270447 -0.23510964214801788 3.9545631408691406 71 72 81
-0.8717518448829651 -0.6194310188293457 3.5028083324432373 3 3 10
-1.0706243515014648 -0.5619009733200073 3.4020748138427734 68 69 82
-0.3310511112213135 -0.6027933359146118 3.731987953186035 22 23 30
-1.3269667625427246 0.9202520251274109 3.4144301414489746 42 46 56
-1.1851906776428223 -0.42081746459007263 3.3827314376831055 16 17 26
-1.386718511581421 0.5373295545578003 3.362234115600586 65 66 75
-0.9368876218795776 0.5724051594734192 3.614041566848755 88 89 103
-1.1394920349121094 -0.4213263988494873 3.3719496726989746 117 119 129
-1.317690372467041 -0.3822118639945984 3.313955545425415 104 105 118
-0.38772866129875183 -0.402434766292572 3.7294211387634277 58 59 68
-0.09949704259634018 0.352563738822937 3.918893575668335 8 8 22
-1.3670380115509033 0.45288369059562683 3.3529224395751953 70 71 86
-1.242931604385376 -0.28355279564857483 3.355769157409668 52 53 69
-1.269285798072815 0.40738242864608765 3.3904619216918945 58 62 78
1.5689038038253784 0.5464834570884705 4.5879998207092285 37 38 45
-0.5836033821105957 0.33610862493515015 3.6940677165985107 81 82 92
-0.6272580027580261 -0.2133149802684784 3.607558488845825 60 60 71
-1.1449463367462158 -0.18658170104026794 3.4109389781951904 86 86 99
-0.47011446952819824 0.17142710089683533 3.763087749481201 105 105 114
-1.2427594661712646 1.0633052587509155 3.4590904712677 86 86 95
-0.45559161901474 1.6822998523712158 3.842992067337036 25 24 33
0.030597006902098656 0.23685409128665924 3.9829554557800293 49 50 60
-1.1153908967971802 1.1144427061080933 3.4725141525268555 86 86 95
-1.1210933923721313 -0.43209993839263916 3.4423000812530518 88 90 100
0.09923766553401947 1.113168716430664 4.0291571617126465 5 4 12
-1.3828489780426025 0.19193249940872192 3.3092119693756104 15 16 27
0.14073161780834198 -0.01614239253103733 4.018228530883789 49 48 57
-1.2769076824188232 1.8604974746704102 3.817600965499878 68 67 77
-0.5709100961685181 1.3324365615844727 3.811671257019043 96 96 106
-0.18426810204982758 -0.017211535945534706 3.8595521450042725 83 83 92
-0.4219205975532532 -0.02044086530804634 3.8001091480255127 79 78 88
-1.363049030303955 0.16681018471717834 3.333604574203491 113 114 124
-0.9535844922065735 0.15724973380565643 3.541214942932129 15 14 21
-1.112979769706726 0.3581250309944153 3.466029167175293 103 104 114
-1.4686490297317505 1.3253443241119385 3.378279447555542 104 104 114
-1.1899163722991943 -0.8085910081863403 3.3099517822265625 85 85 96
-0.6394392848014832 -1.4068843126296997 3.552234649658203 61 63 71
-1.2047137022018433 -1.3151967525482178 3.577808141708374 74 70 70
-0.39195072650909424 -1.1952447891235352 3.6685006618499756 56 56 63
-1.4679210186004639 -1.303078532218933 4.0242509841918945 87 94 125
-1.3976391553878784 -1.271233320236206 4.0649919509887695 23 23 31
-0.17227548360824585 -0.9915475249290466 3.801361322402954 28 29 35
-1.1587345600128174 -0.8407002091407776 3.3618555068969727 119 119 129
-1.1899157762527466 -0.8085907697677612 3.309951066970825 85 85 96
-0.9316842555999756 -0.8077850341796875 3.455622911453247 54 55 64
-0.6755242347717285 -0.8120136260986328 3.5799899101257324 73 76 83
-0.44523414969444275 -0.8007989525794983 3.6906440258026123 80 80 89
-0.19102928042411804 -0.8220223188400269 3.7877018451690674 44 43 52
-0.4159371852874756 -0.6998120546340942 3.6944730281829834 78 80 89
-1.1992411613464355 -0.6204425096511841 3.360276699066162 99 100 113
-0.687603771686554 -0.6018857955932617 3.6048583984375 20 22 28
-0.7730831503868103 -0.5417853593826294 3.5484871864318848 58 60 71
-0.20201197266578674 -0.5951184034347534 3.8474161624908447 25 28 35
-0.1707635372877121 -0.5938830971717834 3.824284553527832 42 42 51
-1.1798992156982422 -0.44554370641708374 3.3844964504241943 53 53 62
-1.3434388637542725 -0.42505335807800293 3.2911436557769775 78 79 88
-1.280453085899353 -0.4228808283805847 3.3063035011291504 69 70 79
-1.1732559204101562 -0.4295234978199005 3.39469838142395 45 46 56
-1.1272835731506348 -0.42190828919410706 3.4032323360443115 19 20 30
-1.0337457656860352 -0.42592036724090576 3.4423630237579346 18 18 29
-1.0023149251937866 -0.4186326265335083 3.4633607864379883 19 20 31
-0.981646716594696 -0.42210355401039124 3.455106496810913 50 50 61
-1.0150388479232788 -0.4117445945739746 3.4431114196777344 23 23 34
-1.0150107145309448 -0.40671396255493164 3.459172487258911 85 86 97
-0.9380626082420349 -0.39814165234565735 3.4852685928344727 14 16 25
-0.9112253189086914 -0.36988532543182373 3.4905312061309814 78 80 90
-0.9805269241333008 -0.18861541152000427 3.475154161453247 20 21 32
-1.1449071168899536 -0.18658985197544098 3.410881757736206 86 86 99
-0.2457522451877594 -0.20382441580295563 3.842604875564575 71 72 81
-0.2196885049343109 -0.04978971555829048 3.8407394886016846 83 84 89
0.706410825252533 -0.04301737993955612 4.232490539550781 52 55 63
-1.2422624826431274 -0.030387792736291885 3.3909168243408203 125 127 137
-0.9703545570373535 -0.024472828954458237 3.5000193119049072 60 60 70
-0.4691777527332306 -0.016614174470305443 3.738071918487549 24 24 33
-0.813348114490509 0.0641540139913559 3.5782597064971924 67 68 80
0.49966880679130554 0.1444225311279297 4.175628662109375 74 76 84
-0.48946380615234375 0.1442756950855255 3.7240231037139893 54 56 64
0.030993647873401642 0.17010046541690826 3.987736940383911 83 85 93
-0.2422957569360733 0.17132993042469025 3.8719000816345215 64 63 72
-1.2879351377487183 0.18390528857707977 3.3667542934417725 89 92 100
-1.3578380346298218 0.1859506368637085 3.3484549522399902 21 23 33
-0.46906018257141113 0.24065327644348145 3.746690511703491 70 71 81
0.22789804637432098 0.33243852853775024 4.052707195281982 62 64 74
0.4960017800331116 0.36401066184043884 4.241938591003418 8 7 15
-0.7064988017082214 0.3351686894893646 3.6510870456695557 47 47 56
0.01645590551197529 0.3611828684806824 3.9892897605895996 24 25 32
-0.19186393916606903 0.3624859154224396 3.909769058227539 107 108 119
-1.2000917196273804 0.3265463411808014 3.4275190830230713 76 78 86
-1.1434365510940552 0.3556693196296692 3.4518485069274902 80 81 91
0.7092770338058472 0.578855574131012 4.434357166290283 57 57 66
-1.357885718345642 0.44919076561927795 3.337815523147583 84 84 99
-0.4982535243034363 0.5295878052711487 3.7524802684783936 63 66 75
-0.7630464434623718 0.5579245686531067 3.6624436378479004 83 86 93
1.3737151622772217 0.7277934551239014 4.509449481964111 31 31 37
-1.234155297279358 0.5609634518623352 3.437191963195801 71 72 79
0.9286953210830688 0.7434511780738831 4.408761024475098 40 39 49
0.0743081271648407 0.7431270480155945 4.025182247161865 87 87 97
-0.29912835359573364 0.7469419836997986 3.861567735671997 91 92 102
1.1349117755889893 0.9263280034065247 4.505964279174805 11 11 20
-1.4815073013305664 0.7444980144500732 3.335123062133789 38 37 45
-0.7733293175697327 0.9514990448951721 3.6805903911590576 56 56 65
-0.7887305617332458 0.9419344067573547 3.665851354598999 103 103 113
0.4255503714084625 1.1264647245407104 4.220715045928955 96 96 105
-1.2633140087127686 0.9400957822799683 3.449272632598877 67 66 74
-0.02662040665745735 1.1437524557113647 4.061046123504639 24 24 33
-0.5319592952728271 1.1368521451950073 3.8143932819366455 83 84 91
-0.5202852487564087 1.1547671556472778 3.8620495796203613 61 60 67
0.6567785739898682 1.4478386640548706 4.320664405822754 53 55 63
-0.7370148301124573 1.3137938976287842 3.69270658493042 79 80 89
-0.7767409682273865 1.345277190208435 3.729325294494629 53 53 63
-0.7762002944946289 1.3439127206802368 3.7280826568603516 53 53 63
-0.029799826443195343 1.4944682121276855 4.037449359893799 38 38 47
-1.3227832317352295 1.3188040256500244 3.4411258697509766 99 100 110
-0.8488622307777405 1.4403672218322754 3.6701571941375732 97 97 113
-0.5316526293754578 1.5100370645523071 3.833757162094116 6 7 16
-0.5468363761901855 1.5074442625045776 3.8121511936187744 73 75 84
-0.761851966381073 1.4695775508880615 3.681241035461426 34 35 43
-0.8498232364654541 1.4862654209136963 3.674440622329712 115 116 130
0.1767290085554123 1.6950113773345947 4.162568092346191 8 8 17
-1.1121625900268555 1.5107892751693726 3.546025037765503 125 126 135
-0.5254299640655518 1.665785312652588 3.8395168781280518 63 65 73
-0.549852192401886 1.6727581024169922 3.830190896987915 42 45 52
-1.4534153938293457 1.5567115545272827 3.403196334838867 97 98 107
-1.0143213272094727 1.7069727182388306 3.633054256439209 35 36 42
0.6134468913078308 2.0218048095703125 4.280039310455322 30 30 36
-0.9022777676582336 1.7643357515335083 3.6683599948883057 67 67 78
-1.1160799264907837 1.7404006719589233 3.5883371829986572 81 80 91
-0.7824752926826477 1.8640246391296387 3.729607582092285 46 46 53
-0.5440241098403931 2.0504653453826904 3.861132860183716 74 76 85
-0.8056997656822205 2.109078884124756 3.7612836360931396 13 15 21
-0.6421015858650208 -1.3914903402328491 3.5525705814361572 20 23 31
-0.641065239906311 -1.2324700355529785 3.5621497631073 34 35 42
-1.5669386386871338 -1.2335516214370728 3.546189785003662 73 73 91
-1.3975995779037476 -1.2712100744247437 4.064929962158203 23 23 31
-0.6673837304115295 -1.005711555480957 3.5645487308502197 97 99 108
-1.184780240058899 -0.841231644153595 3.3447821140289307 46 47 58
0.3005802035331726 -1.0019235610961914 4.093507289886475 36 39 43
-0.6951314806938171 -0.8361741304397583 3.5853424072265625 35 35 43
-0.9268203973770142 -0.8031127452850342 3.4840216636657715 32 32 41
-0.1937553584575653 -0.8239147067070007 3.7813987731933594 42 44 52
-1.1893270015716553 -0.5990394949913025 3.357557535171509 79 81 91
0.5391809940338135 -0.6174672245979309 4.143023490905762 56 58 63
-1.3596718311309814 -0.42178621888160706 3.233100175857544 48 49 59
-0.9816418290138245 -0.4220980107784271 3.455104112625122 50 50 61
-0.4587899148464203 -0.402184396982193 3.694844961166382 74 74 82
-0.9154062271118164 -0.3704708516597748 3.4958255290985107 74 76 87
-0.9818775057792664 -0.2539862096309662 3.5311858654022217 58 60 68
-1.212309718132019 -0.223887100815773 3.3948636054992676 7 7 16
-0.45957517623901367 -0.23638196289539337 3.6893653869628906 49 51 60
0.008596220053732395 -0.2297479808330536 3.9112355709075928 37 38 45
-0.9804994463920593 -0.18861307203769684 3.475109577178955 20 21 32
-1.2233994007110596 -0.051351286470890045 3.381634473800659 17 20 27
-0.22191734611988068 -0.04971035197377205 3.843825101852417 42 42 48
0.2583666443824768 -0.04678572341799736 4.051883220672607 69 72 77
-1.2026106119155884 -0.03251809999346733 3.419116973876953 96 99 108
-0.9757031202316284 -0.024806899949908257 3.4886350631713867 106 107 117
-0.9585591554641724 -0.024463022127747536 3.5226104259490967 15 14 23
-0.4691240191459656 -0.016485774889588356 3.7379531860351562 24 24 33
0.49325406551361084 -0.00986649189144373 4.174483299255371 17 17 25
-0.8167451620101929 0.06574195623397827 3.584541082382202 75 76 88
-0.9533814787864685 0.09991741925477982 3.5104598999023438 58 58 67
-0.6980046629905701 0.16237866878509521 3.642698049545288 15 16 22
-1.2128572463989258 0.22653868794441223 3.4088876247406006 94 96 107
0.24773231148719788 0.3347643315792084 4.110403060913086 37 38 46
-0.22401303052902222 0.3333909213542938 3.8821604251861572 87 88 97
-1.205553650856018 0.32782062888145447 3.4352588653564453 89 91 99
0.008813483640551567 0.5218912363052368 3.9924044609069824 43 43 50
1.3722599744796753 0.7262513041496277 4.4969987869262695 38 37 43
-0.5114651918411255 0.7556920051574707 3.8141231536865234 28 29 36
-1.2346802949905396 0.7201979160308838 3.454331159591675 102 103 110
-0.010235798545181751 0.9341428279876709 4.017734527587891 67 68 77
0.42240193486213684 1.1343990564346313 4.246504306793213 71 71 79
-0.7494704127311707 1.09519362449646 3.682033061981201 72 73 82
-0.4995492696762085 1.1441196203231812 3.8241801261901855 73 72 80
0.18657968938350677 1.3193035125732422 4.132839202880859 3 3 12
-1.3943082094192505 1.1356321573257446 3.4069855213165283 105 107 117
-0.29030582308769226 1.3315107822418213 3.9494216442108154 21 21 30
-1.2722158432006836 1.3168971538543701 3.449793815612793 51 52 62
-0.5395129323005676 1.5334635972976685 3.89147686958313 48 49 59
-0.791050374507904 1.4767003059387207 3.681245803833008 55 56 67
-1.2722036838531494 1.48648202419281 3.4628052711486816 27 29 37
0.6061639189720154 2.0781443119049072 4.383996486663818 58 60 65
