ply
format ascii 1.0
element vertex 713
property float x
property float y
property float z
property uchar red
property uchar green
property uchar blue
end_header
-0.05779186263680458 3.211277484893799 5.275874614715576 53 47 41
-0.07629722356796265 -2.0568485260009766 6.192245960235596 63 59 61
-0.05247922241687775 3.283881425857544 5.052364826202393 115 109 103
-0.047572020441293716 3.2210512161254883 5.2368855476379395 52 46 39
-0.030513517558574677 -1.544084906578064 6.211668968200684 30 25 27
-0.01342186238616705 2.9831576347351074 5.646834850311279 109 104 101
-0.02459433674812317 3.2502379417419434 5.24235200881958 107 101 94
-0.030983636155724525 3.253467321395874 5.1508049964904785 102 94 88
-0.021473364904522896 3.090376615524292 5.5917887687683105 64 58 53
-0.021473364904522896 3.090376615524292 5.5917887687683105 64 58 53
-0.018533192574977875 3.1987411975860596 5.332578182220459 74 67 63
-0.02734212949872017 3.1581153869628906 5.470493793487549 106 101 97
-0.02734212949872017 3.1581153869628906 5.470493793487549 106 101 97
-0.014138414524495602 3.216763734817505 5.234529495239258 66 60 53
-0.014138414524495602 3.216763734817505 5.234529495239258 66 60 53
0.013086028397083282 3.0916450023651123 5.6058268547058105 63 56 52
0.013745078817009926 3.0821850299835205 5.685054302215576 97 92 89
0.019664058461785316 3.1445798873901367 5.494765281677246 129 125 121
0.024635473266243935 3.266435384750366 5.215030670166016 59 56 50
0.03115202859044075 2.7974207401275635 6.461179733276367 68 60 53
0.04524431750178337 -0.8592250347137451 6.0349578857421875 34 30 32
0.032638270407915115 2.923914909362793 6.087467670440674 102 95 91
0.037108536809682846 0.47399258613586426 6.258346080780029 64 60 65
0.04937753453850746 2.7980284690856934 6.460714340209961 60 52 45
0.04294988885521889 3.1266772747039795 5.6286540031433105 90 84 80
0.051181282848119736 3.276338815689087 5.098598480224609 56 53 47
0.06196592003107071 2.9886534214019775 5.844883441925049 51 45 42
0.09030549973249435 3.2272768020629883 5.178534030914307 84 80 75
0.08213415741920471 2.9784183502197266 6.262049674987793 111 104 98
0.10661208629608154 -2.4050724506378174 5.710322856903076 27 23 22
0.11199075728654861 -2.1779186725616455 5.718408584594727 64 61 61
0.11504420638084412 3.0770223140716553 5.652078628540039 79 74 70
0.13627122342586517 -1.9505772590637207 5.778953552246094 30 25 25
0.15168341994285583 -0.31279563903808594 5.809999465942383 68 64 75
0.15941886603832245 -2.199885845184326 5.690332889556885 63 60 62
0.15941886603832245 -2.199885845184326 5.690332889556885 63 60 62
0.1556994915008545 -2.380056381225586 5.747578144073486 44 39 39
0.15208996832370758 3.0315206050872803 5.737585067749023 51 45 40
0.1602863371372223 3.0524208545684814 5.7553205490112305 121 115 110
0.17115601897239685 3.0326266288757324 5.781055927276611 71 62 58
0.17138050496578217 -0.5335599780082703 5.753198623657227 77 75 80
0.17729881405830383 3.0999886989593506 5.576074123382568 129 122 119
0.1756376028060913 -2.7677981853485107 5.406796932220459 57 55 59
0.19353939592838287 -1.9329360723495483 5.771263599395752 74 69 69
0.19447380304336548 -0.8141287565231323 5.612092018127441 29 26 28
0.2111278474330902 2.99605131149292 5.914518356323242 64 56 49
0.1962604969739914 -2.405488967895508 5.4325995445251465 32 27 28
0.21529234945774078 3.098344326019287 5.665838718414307 88 82 77
0.2267788201570511 2.9484074115753174 5.73445463180542 58 50 43
0.2139066904783249 3.2644717693328857 5.108741760253906 143 139 135
0.2150236964225769 3.2594892978668213 5.101197242736816 143 139 135
0.2510922849178314 3.2274582386016846 5.193662166595459 119 115 112
0.2566088140010834 3.111267566680908 5.348812580108643 99 94 91
0.30887705087661743 2.9103944301605225 5.705617904663086 61 53 48
0.29606741666793823 -0.5570240616798401 5.390872478485107 101 97 99
0.314138263463974 -2.954270601272583 4.86828088760376 69 63 65
0.3518543243408203 0.1700693666934967 5.295271873474121 104 101 103
0.37980395555496216 -0.30882999300956726 5.201714515686035 22 18 19
0.39486250281333923 3.2922163009643555 5.164945125579834 83 80 78
0.39484289288520813 3.2921648025512695 5.164860248565674 83 80 78
0.3949366807937622 3.2918429374694824 5.164329528808594 83 80 78
0.4238196313381195 3.271761178970337 5.10897970199585 124 121 119
0.4256516695022583 3.265413999557495 5.120913505554199 45 42 40
0.41474589705467224 -2.442307472229004 4.806862831115723 56 52 53
0.4493809640407562 2.0274972915649414 5.265054225921631 75 72 74
0.47326356172561646 3.2362096309661865 5.19180154800415 63 57 52
0.5149468183517456 -1.835505723953247 4.517148494720459 132 131 133
0.5185999870300293 -2.3062562942504883 4.462098598480225 105 104 105
0.5635387897491455 -0.23872630298137665 4.636353015899658 84 81 81
0.5889342427253723 -1.5673158168792725 4.334029674530029 133 132 137
0.6141314506530762 -0.791060209274292 4.37939977645874 124 127 131
0.6030458211898804 -2.4145865440368652 4.204825401306152 68 64 63
0.5964927077293396 -2.2400410175323486 4.260808944702148 112 112 118
0.6182699799537659 -0.8198737502098083 4.376558780670166 126 129 133
0.6224199533462524 -1.126166582107544 4.3068623542785645 114 112 113
0.6303549408912659 -0.692715048789978 4.263023853302002 119 118 119
0.6430701017379761 -0.09582993388175964 4.40221643447876 89 85 96
0.6241357922554016 -1.4300457239151 4.241123199462891 79 76 80
0.6335291862487793 -1.1427639722824097 4.305227756500244 37 32 33
0.6335291862487793 -1.1427639722824097 4.305227756500244 37 32 33
0.6437009572982788 -0.052481841295957565 4.40576171875 90 83 94
0.6273870468139648 -1.9924650192260742 4.2181077003479 102 100 102
0.6414782404899597 -1.1796882152557373 4.330806255340576 44 40 39
0.6953238844871521 2.1085751056671143 4.612491607666016 101 98 99
0.6586482524871826 -0.07592954486608505 4.384884834289551 51 47 59
0.6425467729568481 -1.2546995878219604 4.269058704376221 95 93 98
0.6346222758293152 -1.339850902557373 4.267490386962891 118 116 118
0.6632609367370605 -0.38354289531707764 4.362249851226807 52 48 57
0.6712661385536194 -0.06600295752286911 4.405388832092285 66 62 74
0.672276496887207 -0.08765776455402374 4.390405654907227 50 46 58
0.6527334451675415 -0.5228937864303589 4.3518967628479 88 84 91
0.678399384021759 -0.13222545385360718 4.393758296966553 79 75 86
0.7133195996284485 1.982312560081482 4.608521461486816 75 70 71
0.6975318789482117 0.4443370997905731 4.458634376525879 78 74 76
0.7381489872932434 2.8593227863311768 4.717892169952393 51 48 49
0.721348762512207 1.6758993864059448 4.5883331298828125 62 58 57
0.700736939907074 -0.5907176733016968 4.346366882324219 82 80 86
0.700736939907074 -0.5907176733016968 4.346366882324219 82 80 86
0.7031437158584595 -1.10907781124115 4.3155107498168945 67 61 66
0.7603147625923157 1.9541414976119995 4.659790992736816 55 52 54
0.7501832246780396 0.9234058260917664 4.514089584350586 82 83 83
0.703215479850769 -2.1690995693206787 4.230044364929199 84 80 81
0.7663750052452087 0.8792644739151001 4.5011467933654785 89 91 90
0.7755415439605713 1.9888324737548828 4.619187831878662 41 38 38
0.7278420329093933 -0.5501551032066345 4.315192699432373 60 59 68
0.7538589835166931 0.5161181688308716 4.466622829437256 49 45 46
0.7286604642868042 -2.03666615486145 4.242437839508057 100 102 105
0.7269037365913391 -2.0867042541503906 4.231701850891113 104 106 108
0.7269037365913391 -2.0867042541503906 4.231701850891113 104 106 108
0.763407826423645 -0.3971766233444214 4.392346382141113 56 52 63
0.8069890737533569 2.062192678451538 4.628659248352051 52 48 49
0.7358630895614624 -2.3316664695739746 4.213369846343994 39 36 36
0.7666977047920227 -0.5269085764884949 4.384678840637207 56 54 63
0.7507383823394775 -2.3010857105255127 4.207911491394043 107 104 104
0.7507383823394775 -2.3010857105255127 4.207911491394043 107 104 104
0.7336108088493347 -2.1103146076202393 4.242478847503662 95 95 96
0.7856174111366272 0.029976002871990204 4.449687480926514 132 129 131
0.8449001908302307 2.56073260307312 4.7221503257751465 111 108 109
0.8217632174491882 1.1593090295791626 4.540553092956543 71 69 71
0.8414544463157654 1.9165842533111572 4.630918502807617 60 57 59
0.8441889882087708 1.8972922563552856 4.632546424865723 40 38 39
0.8441889882087708 1.8972922563552856 4.632546424865723 40 38 39
0.7788218259811401 -1.8701399564743042 4.2647576332092285 98 95 97
0.8028581738471985 -0.8053835034370422 4.36620569229126 89 86 93
0.8198758363723755 0.22889143228530884 4.447157382965088 51 48 51
0.8167825937271118 -0.90144944190979 4.371669292449951 71 66 72
0.8041113018989563 -1.872543215751648 4.271904945373535 107 104 107
0.855547308921814 0.954111635684967 4.534848690032959 112 109 108
0.8944701552391052 2.1856071949005127 4.695258617401123 59 56 58
0.8384367227554321 -0.41743582487106323 4.395772457122803 83 82 91
0.8708399534225464 0.8520042896270752 4.554886817932129 68 71 69
0.9018863439559937 2.641984462738037 4.710044860839844 40 37 39
0.852928876876831 0.024862445890903473 4.508674621582031 142 137 137
0.8386321663856506 -1.0695829391479492 4.351320743560791 61 55 58
0.8137871026992798 -2.269935369491577 4.221985340118408 38 34 34
0.8497438430786133 -0.4046158790588379 4.398674011230469 61 59 68
0.8806940317153931 0.7502114176750183 4.511242389678955 82 82 76
0.8725041151046753 0.05650046840310097 4.454464435577393 73 69 69
0.8961442112922668 1.1541130542755127 4.572237968444824 82 80 71
0.8486400842666626 -1.3205093145370483 4.327925205230713 80 74 79
0.8602957725524902 -0.7938708066940308 4.379094123840332 76 72 77
0.8595911264419556 -0.8898824453353882 4.372007369995117 70 65 65
0.9058436751365662 1.3368070125579834 4.60844612121582 51 45 42
0.885324239730835 0.4244626760482788 4.492343902587891 72 67 63
0.8783307671546936 -0.17939408123493195 4.436298370361328 82 77 73
0.8955065011978149 0.6383811831474304 4.517985820770264 71 65 55
0.8955065011978149 0.6383811831474304 4.517985820770264 71 65 55
0.8704990744590759 -0.6996448040008545 4.38579797744751 43 38 36
0.8749702572822571 -0.4482361972332001 4.477955341339111 159 156 150
0.9163738489151001 1.5094867944717407 4.607845783233643 61 56 52
0.884956955909729 -0.9339649081230164 4.38622522354126 59 52 45
0.873955249786377 -0.8208677768707275 4.348483085632324 100 94 94
0.912783145904541 0.42801475524902344 4.532943248748779 98 92 80
0.8764700889587402 -1.5065451860427856 4.378230571746826 99 99 98
0.8849605321884155 -0.9339746236801147 4.386226654052734 59 52 45
0.9083240032196045 0.008100367151200771 4.457278251647949 23 15 10
0.9343335032463074 1.8406420946121216 4.607372283935547 104 99 92
0.8712331652641296 -1.4295223951339722 4.38277530670166 96 91 85
0.9021723866462708 -0.013198018074035645 4.463325023651123 116 109 103
0.8765445351600647 -1.2176250219345093 4.336656093597412 130 122 111
0.9517338275909424 1.8499284982681274 4.661953926086426 42 37 30
0.9453868865966797 1.8071964979171753 4.629108905792236 77 72 64
0.9280577301979065 0.49096736311912537 4.5209808349609375 190 183 169
0.8684876561164856 -2.1983981132507324 4.275419235229492 78 73 70
0.881693959236145 -1.315696358680725 4.337183475494385 133 125 116
0.8968736529350281 -0.41303718090057373 4.405841827392578 100 93 77
0.8686919808387756 -2.1958634853363037 4.268194675445557 81 76 73
0.9083413481712341 0.008096655830740929 4.457338333129883 23 15 10
0.8815339207649231 -1.1351879835128784 4.31556510925293 147 139 129
0.9371771216392517 1.1107299327850342 4.579637050628662 85 79 68
0.9571740031242371 1.639404535293579 4.6361308097839355 150 145 135
0.9473583698272705 0.9253617525100708 4.548506259918213 164 159 147
0.9473583698272705 0.9253617525100708 4.548506259918213 164 159 147
0.9346594214439392 0.2263328582048416 4.487025260925293 60 53 40
0.9346594214439392 0.2263328582048416 4.487025260925293 60 53 40
0.9495519995689392 2.0322179794311523 4.578165054321289 98 92 83
0.9582103490829468 1.526922345161438 4.619194030761719 71 64 55
0.9362995624542236 0.20440013706684113 4.481693267822266 150 142 127
0.9060647487640381 -1.867803692817688 4.308130741119385 173 162 145
0.9209333658218384 -0.8008548617362976 4.379015922546387 163 156 138
0.9034764766693115 -1.8348050117492676 4.278467178344727 166 156 139
0.952811062335968 0.49500566720962524 4.47579288482666 139 132 116
0.941860020160675 -0.1693720668554306 4.409074306488037 154 146 128
0.9525154232978821 0.3251436650753021 4.45535945892334 144 137 119
0.9650253653526306 0.7262638211250305 4.487237453460693 127 121 106
0.9226642847061157 -1.0264166593551636 4.281644344329834 134 126 109
0.9688049554824829 0.6644882559776306 4.482278347015381 134 128 113
0.9503340125083923 -0.4749431014060974 4.359537124633789 152 144 126
0.9390071034431458 -2.21374773979187 4.177488327026367 192 186 175
0.9860236048698425 -2.175302743911743 4.222378730773926 107 102 88
1.0765645503997803 0.8360049724578857 4.480971336364746 100 95 80
1.0004208087921143 -2.0837321281433105 4.121394634246826 116 109 94
1.0652697086334229 -0.01303152646869421 4.31876802444458 99 92 75
1.1020649671554565 1.3799172639846802 4.478705406188965 133 129 113
1.0553805828094482 -2.0792717933654785 4.181390285491943 144 136 119
1.1211360692977905 0.28505128622055054 4.389650344848633 95 88 71
1.5398154258728027 0.8100315928459167 4.401082992553711 90 80 64
1.6083574295043945 0.3222891092300415 4.484691143035889 137 130 115
1.6083574295043945 0.3222891092300415 4.484691143035889 137 130 115
1.6089783906936646 0.048114728182554245 4.442513942718506 143 136 119
1.6408312320709229 1.0641196966171265 4.494544982910156 62 57 45
1.6253669261932373 0.06834336370229721 4.37698221206665 57 51 35
1.6253669261932373 0.06834336370229721 4.37698221206665 57 51 35
1.6357269287109375 0.0684032142162323 4.361250400543213 133 127 111
1.6437841653823853 0.11459966748952866 4.364248752593994 142 135 119
1.6437841653823853 0.11459966748952866 4.364248752593994 142 135 119
1.654113531112671 0.4044133126735687 4.371295928955078 113 107 93
1.6572258472442627 0.25885435938835144 4.414726257324219 81 74 59
1.6572258472442627 0.25885435938835144 4.414726257324219 81 74 59
1.668076515197754 0.4743524491786957 4.143588066101074 148 142 126
1.6995877027511597 0.3431626260280609 4.233952522277832 71 66 52
1.7387415170669556 0.7683749794960022 4.201725959777832 56 51 39
1.6901110410690308 0.38710784912109375 4.040032386779785 93 87 77
1.745897650718689 0.5137088298797607 4.1171064376831055 55 51 42
1.77434504032135 0.5180967450141907 4.0769877433776855 97 92 80
1.7428107261657715 0.4127233624458313 4.005919933319092 34 31 25
1.7888963222503662 0.48384982347488403 4.0610175132751465 123 118 105
1.7888963222503662 0.48384982347488403 4.0610175132751465 123 118 105
1.798678994178772 0.5408130288124084 4.040116786956787 120 114 98
1.810431957244873 0.2385547161102295 3.9405083656311035 147 141 125
0.3763665556907654 -0.31021565198898315 5.2307634353637695 20 17 17
0.9346588850021362 0.22632963955402374 4.48702335357666 67 60 45
1.7656798362731934 0.5351300239562988 4.109400749206543 142 139 126
0.6609520316123962 -0.19858412444591522 4.406184673309326 25 21 23
-4.923676490783691 -2.1934189796447754 12.534584045410156 46 40 41
1.6251530647277832 0.22535794973373413 4.351736545562744 56 50 33
0.9346581697463989 0.22633220255374908 4.487021446228027 60 53 40
0.6405802369117737 -2.3974664211273193 4.206997394561768 97 93 92
0.05712667852640152 3.2190651893615723 5.207749843597412 153 149 145
1.7472343444824219 0.5530987977981567 4.12656831741333 40 37 27
0.561031699180603 -0.46508386731147766 4.605396747589111 22 18 20
1.5405291318893433 0.22198279201984406 4.491610527038574 21 13 6
0.7507341504096985 -2.301069498062134 4.207888126373291 107 104 104
0.7507235407829285 -2.301015615463257 4.207805633544922 107 104 104
-4.373148441314697 -0.7287005186080933 17.32061195373535 154 142 130
1.7471909523010254 0.5636943578720093 4.126290798187256 29 26 16
-4.753156661987305 -2.911781072616577 16.678834915161133 59 41 30
-0.5912668704986572 2.7629871368408203 6.692760467529297 109 103 98
-4.508474349975586 -2.9409120082855225 16.838720321655273 243 238 224
-0.3408309519290924 3.005922317504883 6.070483684539795 85 78 72
-0.2897748053073883 2.954472303390503 5.977348804473877 129 122 116
0.7033858299255371 1.8851661682128906 4.5991339683532715 126 124 124
0.7033979892730713 1.885196328163147 4.599158763885498 126 124 124
-0.021367505192756653 3.2395126819610596 5.225706577301025 110 104 97
-0.5351538062095642 2.7232747077941895 6.683185577392578 108 101 94
-4.923670768737793 -2.1934196949005127 12.534570693969727 46 40 41
-5.238720417022705 -2.430835008621216 14.206371307373047 134 125 125
-5.120626926422119 -2.2882022857666016 15.242827415466309 69 62 65
-0.046758443117141724 2.9642539024353027 5.958906650543213 150 145 142
0.10758618265390396 3.3561861515045166 5.320362091064453 93 90 85
0.46582576632499695 -0.5019882917404175 4.871496200561523 84 79 80
1.7504271268844604 0.5950350165367126 4.1415510177612305 154 150 139
-0.2696056067943573 2.9694931507110596 5.948862075805664 159 151 145
-4.859552383422852 -2.229707717895508 12.891839027404785 198 194 194
-4.836946487426758 -2.2202699184417725 12.842720985412598 179 175 175
-5.070712566375732 -2.3028616905212402 15.200018882751465 25 19 21
-4.930248260498047 -1.9740628004074097 12.860677719116211 55 48 51
-4.952952861785889 -2.211988925933838 12.8717622756958 24 19 19
-4.952950477600098 -2.211989164352417 12.871758460998535 24 19 19
0.6911349892616272 2.3424489498138428 4.645874500274658 105 105 105
-4.9835896492004395 -2.256159782409668 13.457958221435547 171 162 158
-4.779048919677734 -2.821855068206787 16.78670883178711 100 82 69
0.570669412612915 -0.7050208449363708 4.621183395385742 144 139 140
1.763426423072815 0.6008715629577637 4.1264753341674805 98 92 79
-4.615917682647705 -2.8852593898773193 17.412263870239258 157 145 136
1.7613844871520996 0.6194044351577759 4.144883632659912 133 128 115
-2.145848512649536 1.5336732864379883 10.218242645263672 38 24 19
0.9069211483001709 -0.2303987592458725 4.435829162597656 59 50 40
0.11768853664398193 3.3154759407043457 5.260412216186523 62 58 54
-4.779050827026367 -2.8218584060668945 16.786714553833008 100 82 69
1.6220852136611938 -0.24399815499782562 4.325406551361084 41 35 19
-4.841395854949951 -0.6359105706214905 12.535240173339844 98 93 101
-4.927177906036377 -2.0796005725860596 12.822781562805176 46 40 42
0.09041256457567215 3.226884603500366 5.177918910980225 84 80 75
-0.32697978615760803 2.9917306900024414 5.892770767211914 150 143 139
-0.4161588251590729 3.242631196975708 5.152428150177002 136 133 126
-4.492213249206543 -2.8072667121887207 16.945539474487305 178 170 159
0.862483024597168 -0.6820282340049744 4.385109901428223 156 151 149
-0.14873188734054565 3.0048136711120605 5.888338565826416 165 160 156
-0.09023544937372208 2.975156784057617 5.875422477722168 99 95 91
-1.5324842929840088 1.4930750131607056 9.65750789642334 104 97 93
0.9442489743232727 0.7016585469245911 4.529694080352783 160 155 142
-1.8191474676132202 0.17226888239383698 9.821004867553711 37 22 13
0.8946220874786377 -0.7136113047599792 4.412467956542969 100 93 82
-4.927330493927002 -2.0796384811401367 12.823105812072754 46 40 42
1.6519274711608887 0.08272785693407059 4.345038890838623 64 58 44
-1.6918076276779175 0.18144546449184418 9.810192108154297 85 74 69
-2.122258186340332 0.1907423734664917 10.032424926757812 63 47 39
-0.2338920682668686 3.0076708793640137 5.869133949279785 151 145 139
0.9423774480819702 0.704055666923523 4.526562213897705 34 30 21
-1.819154977798462 0.17226967215538025 9.821044921875 37 22 13
-4.918060302734375 -1.9528769254684448 12.54931926727295 55 49 51
-4.917215824127197 -1.9525920152664185 12.547163963317871 55 49 51
-0.09743098169565201 3.3113653659820557 5.277005195617676 133 127 121
-1.760331153869629 0.1384706199169159 9.83942699432373 38 19 15
-1.492871880531311 0.15360058844089508 9.849803924560547 134 124 120
-1.6918015480041504 0.1814310997724533 9.810120582580566 85 74 69
-1.732500672340393 1.5386273860931396 9.734078407287598 17 10 9
0.035636693239212036 3.0469605922698975 5.710860729217529 151 146 143
-1.5932633876800537 0.13485413789749146 9.867264747619629 60 48 44
-1.4781571626663208 0.1228405088186264 9.854300498962402 31 20 16
0.7625332474708557 1.0367372035980225 4.5278496742248535 137 133 139
0.19080676138401031 3.0447957515716553 5.897339344024658 110 102 96
-2.0405402183532715 0.12006538361310959 9.931440353393555 81 64 52
0.8917170166969299 -0.13948027789592743 4.473964691162109 131 123 120
-1.6420477628707886 1.5705994367599487 9.655658721923828 81 76 75
-1.5009053945541382 1.5742219686508179 9.605031967163086 100 95 93
-1.1628352403640747 1.5492377281188965 9.627229690551758 55 39 27
-4.695670127868652 -0.4610377848148346 10.875932693481445 88 86 100
-4.373603343963623 -0.7287601828575134 17.32241439819336 154 142 130
1.640580654144287 0.7144037485122681 4.405853748321533 83 75 61
-0.2603670656681061 3.020941972732544 5.863803386688232 71 64 58
-1.6420098543167114 1.5705870389938354 9.655503273010254 81 76 75
-1.7513842582702637 0.09050186723470688 9.876632690429688 68 51 43
-0.13450846076011658 3.21875262260437 5.396255970001221 105 98 93
-2.0411391258239746 0.12010791897773743 9.933372497558594 81 64 52
0.37984907627105713 3.2393951416015625 5.3259501457214355 100 96 92
-1.7101960182189941 1.6167640686035156 9.685029983520508 151 147 143
0.32363563776016235 -1.2131016254425049 5.10068416595459 37 33 34
0.10458529740571976 3.0256059169769287 5.835530757904053 136 130 125
-0.6908739805221558 2.5938310623168945 7.018677711486816 163 156 150
-4.881283760070801 -1.233917236328125 12.525235176086426 39 35 40
1.6477715969085693 0.7537933588027954 4.404723167419434 160 154 141
1.6641368865966797 0.4992637634277344 4.1423563957214355 127 122 107
-0.13360770046710968 3.053781509399414 5.847828388214111 50 44 40
1.6149377822875977 0.7536033391952515 4.417446136474609 203 191 177
1.6337498426437378 0.7459619641304016 4.367563247680664 203 197 184
1.6288421154022217 0.5004286170005798 4.371196269989014 129 123 110
-0.4382895231246948 2.8165500164031982 6.372023582458496 150 143 137
-4.640654563903809 0.07319332659244537 10.33499813079834 43 40 45
0.9280611872673035 0.49101486802101135 4.521224498748779 190 183 169
0.9280607104301453 0.49101391434669495 4.521250247955322 190 183 169
0.928066074848175 0.49102726578712463 4.5214362144470215 190 183 169
0.9177578091621399 0.47057288885116577 4.501082897186279 29 22 13
1.699151635169983 0.3500591218471527 4.034672260284424 72 67 57
-4.591909408569336 0.8354414105415344 10.168204307556152 46 39 33
1.7352917194366455 0.32801133394241333 3.975907564163208 128 124 111
1.6630412340164185 0.333059698343277 4.143380165100098 66 61 47
0.12618258595466614 3.0014071464538574 5.698054313659668 112 106 101
-1.7205039262771606 1.7210719585418701 9.673952102661133 68 63 58
-4.601772308349609 0.8128330111503601 10.137835502624512 173 169 166
-4.601232528686523 0.7556308507919312 9.848793029785156 150 147 144
1.763741374015808 0.30320805311203003 3.946690082550049 45 40 24
-4.554296970367432 0.7617056369781494 10.000337600708008 205 203 204
-4.805335998535156 0.7911345362663269 10.442811012268066 167 165 165
1.7470513582229614 0.2935977280139923 3.912367582321167 89 84 68
0.6440370678901672 -1.177490234375 4.348154067993164 106 102 101
0.9088979959487915 0.006780723109841347 4.41424036026001 66 59 50
0.9083518385887146 0.008097720332443714 4.456606388092041 23 15 10
1.47216796875 0.8027889132499695 4.477275371551514 119 109 96
-1.5010014772415161 1.7310124635696411 9.592005729675293 33 29 28
0.6579484939575195 -1.1366466283798218 4.2971625328063965 21 16 17
0.673438310623169 0.27516353130340576 4.465253829956055 81 78 82
1.6368645429611206 0.2568662166595459 4.29312801361084 30 21 11
-0.21151752769947052 2.9305646419525146 6.051634311676025 67 62 57
-5.283039093017578 -1.6476327180862427 17.473724365234375 155 144 153
-5.258550643920898 -1.6258070468902588 17.684722900390625 63 45 43
-4.649250507354736 -0.07734378427267075 10.356760025024414 32 30 36
-0.47247907519340515 3.059375286102295 5.75166130065918 135 129 124
-0.11919510364532471 3.169485330581665 5.44003438949585 49 41 35
-4.873300075531006 -1.342116117477417 12.483325958251953 111 105 110
-4.657210826873779 -0.07774566113948822 10.374639511108398 32 30 36
-4.698298454284668 -1.4338237047195435 13.6508150100708 31 20 19
0.688562273979187 1.196487307548523 4.528191566467285 139 133 137
-4.744299411773682 -1.645392894744873 17.89073944091797 86 68 60
-3.7997632026672363 -3.2495241165161133 13.464194297790527 213 192 174
-5.189891815185547 -1.724417805671692 16.64029312133789 184 176 189
-5.193396091461182 -1.5039006471633911 13.791521072387695 108 101 99
-4.881352424621582 -1.2339047193527222 12.525411605834961 39 35 40
-5.550051212310791 -1.9510258436203003 17.533140182495117 148 146 157
0.264218807220459 3.1844089031219482 5.34442663192749 94 89 86
-4.8696136474609375 -0.9310499429702759 10.210378646850586 104 97 86
-4.894115924835205 -1.4852408170700073 13.485444068908691 21 9 6
0.2664589285850525 3.181835651397705 5.339574337005615 127 122 119
-5.023473262786865 -1.775348424911499 15.869523048400879 120 118 128
-0.13544753193855286 3.226824998855591 5.402497291564941 111 105 101
-4.75428581237793 -0.9684791564941406 10.598628997802734 88 87 101
-5.258777141571045 -1.6258488893508911 17.685365676879883 63 45 43
0.2664834260940552 3.181644916534424 5.339284420013428 127 122 119
0.29986968636512756 3.193387269973755 5.341006278991699 138 134 131
-4.693349361419678 -0.936497151851654 10.283391952514648 39 38 48
1.6569480895996094 0.8948274850845337 4.439146518707275 136 133 120
-4.876861095428467 -1.1153076887130737 12.5205717086792 95 90 98
-4.876865863800049 -1.1153088808059692 12.52058219909668 95 90 98
-5.146449565887451 -1.219591498374939 14.002349853515625 74 68 70
-4.960592269897461 -1.6005730628967285 13.681879043579102 133 123 118
-4.9617462158203125 -1.6008585691452026 13.684382438659668 133 123 118
-4.848730564117432 -1.5074890851974487 17.795520782470703 227 211 202
0.8849565982818604 -0.9339639544487 4.3862175941467285 59 52 45
-4.988238334655762 -1.4910893440246582 17.818283081054688 129 111 102
-4.081648826599121 -1.4655956029891968 17.390512466430664 72 60 58
-0.20295573770999908 3.1861114501953125 5.432967185974121 99 96 92
-5.061465263366699 -1.8086448907852173 14.747865676879883 47 39 39
-0.20581986010074615 3.0592117309570312 5.676653861999512 83 75 71
0.24419239163398743 3.1923024654388428 5.301121234893799 155 152 148
0.6871921420097351 1.4212793111801147 4.542636871337891 101 99 100
-5.099933624267578 -1.9450232982635498 15.333460807800293 109 103 105
-4.547425270080566 -1.4427484273910522 17.77205467224121 81 66 59
-4.869537830352783 -1.5753055810928345 12.424490928649902 60 55 57
-5.062458515167236 -1.811887264251709 14.750191688537598 47 39 39
0.6366821527481079 -0.8996939063072205 4.3318891525268555 48 48 51
-4.94614315032959 -1.4740897417068481 17.834089279174805 207 190 178
0.03353334963321686 3.067270040512085 5.655817985534668 66 61 58
-0.16610543429851532 3.192054033279419 5.2758660316467285 162 158 152
0.16502180695533752 3.1963775157928467 5.2878923416137695 30 26 22
-5.288229942321777 -2.236222982406616 17.53187370300293 76 65 68
-4.883627891540527 -1.001505970954895 12.570708274841309 75 71 79
-0.06184350326657295 3.1941490173339844 5.275662422180176 137 131 126
0.5506390929222107 -0.9292411804199219 4.54124116897583 91 90 90
-4.386700630187988 -3.0941178798675537 15.368419647216797 194 177 163
-4.188659191131592 -3.0804295539855957 15.37226390838623 213 201 187
0.46510276198387146 -0.9679327011108398 4.810451030731201 79 76 78
-4.868991851806641 -0.7832217216491699 10.241180419921875 99 93 82
-5.229814529418945 -1.3079018592834473 17.681907653808594 149 133 128
-0.12681977450847626 3.0905957221984863 5.411579608917236 136 128 123
-4.927318096160889 -1.792553186416626 13.390606880187988 219 212 206
-0.21637266874313354 3.235917091369629 5.301969528198242 156 150 144
-4.823771953582764 -0.3539756238460541 10.215973854064941 44 37 28
-4.484412670135498 -1.167769432067871 17.527925491333008 100 86 79
-0.08221618086099625 3.15999436378479 5.545013427734375 79 73 68
-5.2065534591674805 -2.149632215499878 15.498635292053223 144 138 140
-4.484111309051514 -1.167685866355896 17.52682876586914 100 86 79
-0.16396833956241608 3.094046115875244 5.654830455780029 92 84 81
-5.252688884735107 -2.9844398498535156 16.020299911499023 59 58 60
-5.252254009246826 -2.9842331409454346 16.019203186035156 59 58 60
0.25239014625549316 3.092473030090332 5.640133380889893 111 105 100
-5.0480146408081055 -1.6611603498458862 15.969017028808594 117 113 125
-5.160500526428223 -0.6599658131599426 16.399457931518555 90 81 78
-5.228479862213135 -1.121252179145813 17.676313400268555 46 29 24
-0.1293775588274002 3.1230673789978027 5.521198749542236 150 143 137
-5.121863842010498 -0.6806288361549377 16.66374397277832 237 229 223
0.2130797803401947 3.223445177078247 5.241552829742432 87 83 79
-4.110893249511719 -1.0504523515701294 16.786521911621094 67 51 45
-4.880631923675537 -1.8507717847824097 12.761774063110352 47 40 41
0.35072851181030273 3.227696657180786 5.258038520812988 137 134 129
-4.964013576507568 -2.3236489295959473 12.86986255645752 71 65 68
-4.849923610687256 -0.6343680620193481 10.24571418762207 73 65 56
-5.074951648712158 -2.127779245376587 14.730148315429688 118 110 110
-5.121799468994141 -0.6806164383888245 16.663532257080078 237 229 223
0.4226835370063782 -0.4567997455596924 4.420464992523193 76 72 74
-5.2575154304504395 -2.4550154209136963 13.630599021911621 55 50 52
-0.15523900091648102 3.276294708251953 5.318560600280762 90 87 80
-4.520419120788574 -2.9163522720336914 16.412172317504883 158 145 135
-0.032759059220552444 3.2214341163635254 5.23321008682251 136 130 123
0.8915764093399048 -0.13936439156532288 4.47321891784668 131 123 120
-4.8194661140441895 -0.19985254108905792 10.235455513000488 82 74 63
0.9107060432434082 0.7826891541481018 4.529841899871826 103 96 83
1.665088176727295 0.09035509824752808 4.4221415519714355 71 65 51
-4.753903865814209 -2.912440776824951 16.68126106262207 59 41 30
0.03395932540297508 3.2836201190948486 5.328425407409668 109 106 101
-4.508391380310059 -2.940871238708496 16.838451385498047 243 238 224
-1.6420339345932007 1.5705925226211548 9.655609130859375 81 76 75
-0.1297272890806198 3.16001033782959 5.470697402954102 51 44 38
0.6405802965164185 -2.397465944290161 4.206996440887451 97 93 92
1.7335408926010132 0.29947081208229065 3.938385486602783 81 76 60
-0.5338279604911804 2.713902473449707 6.663887023925781 127 120 113
-4.903061866760254 -1.0496386289596558 13.199256896972656 133 128 137
0.20916402339935303 3.1395046710968018 5.47589635848999 154 148 145
-4.905026912689209 -1.1007083654403687 13.33559799194336 19 14 20
-4.883885383605957 -1.0015372037887573 12.571381568908691 75 71 79
0.6295324563980103 -2.1723735332489014 4.201834201812744 126 123 126
0.2306639403104782 3.138359785079956 5.497617244720459 136 130 127
0.06434209644794464 3.0119714736938477 5.907094478607178 151 145 142
1.7823609113693237 0.28367170691490173 3.9802215099334717 69 64 49
0.05518772453069687 3.0804989337921143 5.437220096588135 126 121 117
-4.848684310913086 -1.5074803829193115 17.795379638671875 227 211 202
-4.9880146980285645 -1.4910552501678467 17.81748390197754 129 111 102
-0.24391290545463562 3.069600820541382 5.454102516174316 105 99 95
-3.8193864822387695 -2.37123441696167 17.887939453125 152 146 151
-4.876833915710449 -1.115296721458435 12.520503044128418 95 90 98
0.24021781980991364 3.1543991565704346 5.613224983215332 136 131 126
-4.69335412979126 -0.9364936947822571 10.283404350280762 39 38 48
1.6438161134719849 0.11459681391716003 4.364327907562256 142 135 119
-4.7545881271362305 -0.9685244560241699 10.599261283874512 88 87 101
0.9442489743232727 0.7016553282737732 4.529679775238037 160 155 142
-4.552664279937744 -1.6243056058883667 17.682811737060547 120 104 95
-4.744269847869873 -1.6453908681869507 17.890625 86 68 60
-5.099974155426025 -1.94503653049469 15.333573341369629 109 103 105
-5.258819580078125 -1.6258552074432373 17.68548583984375 63 45 43
-4.869363784790039 -1.5752863883972168 12.424084663391113 60 55 57
1.621821641921997 0.684715986251831 4.43141508102417 130 124 107
-4.744515419006348 -1.6455034017562866 17.891361236572266 86 68 60
-5.180249214172363 -1.336371898651123 14.277176856994629 108 100 101
-5.047684669494629 -0.42771512269973755 15.52455997467041 47 37 35
-4.869542598724365 -1.5753065347671509 12.424500465393066 60 55 57
-5.063070297241211 -1.812334418296814 14.751620292663574 47 39 39
-5.061478614807129 -1.8086448907852173 14.747895240783691 47 39 39
-4.927058219909668 -1.580162763595581 13.030213356018066 170 167 170
-5.234645843505859 -2.094752550125122 17.393251419067383 76 65 70
0.9074786901473999 1.1774394512176514 4.581689357757568 153 147 139
-4.884572505950928 -1.4683858156204224 12.486920356750488 37 32 36
-5.061391353607178 -1.8085912466049194 14.747611999511719 47 39 39
-4.977849006652832 -1.3169018030166626 13.197149276733398 157 152 160
-4.875298976898193 -1.2311644554138184 12.512707710266113 73 70 75
-4.960514068603516 -1.600555181503296 13.681700706481934 133 123 118
-4.884662628173828 -1.468403935432434 12.48714828491211 37 32 36
-1.7325444221496582 1.5386571884155273 9.734321594238281 17 10 9
0.05661672726273537 3.0728063583374023 5.6918816566467285 151 146 143
1.6567394733428955 0.18432530760765076 4.349213123321533 141 135 119
0.2960670590400696 -0.5570223331451416 5.390851974487305 101 97 99
1.532955527305603 0.24181506037712097 4.455075740814209 145 138 123
-0.20581750571727753 3.0592072010040283 5.676646709442139 83 75 71
-0.08432527631521225 3.0955307483673096 5.764186382293701 132 126 123
0.04128219932317734 3.073685646057129 5.750792026519775 141 136 133
-4.894105911254883 -1.4852237701416016 13.485455513000488 21 9 6
-4.8941545486450195 -1.4852490425109863 13.4855375289917 21 9 6
-5.02344274520874 -1.775324821472168 15.869441032409668 120 118 128
-5.550641059875488 -1.950996994972229 17.535011291503906 148 146 157
0.9178054928779602 0.22808299958705902 4.497745990753174 140 134 124
-5.048390865325928 -1.6612635850906372 15.970012664794922 117 113 125
0.05736185237765312 3.0514681339263916 5.7505574226379395 135 129 126
-5.292531490325928 -1.8896938562393188 17.57734489440918 152 140 146
-4.89413595199585 -1.485244870185852 13.485493659973145 21 9 6
-0.2713923752307892 3.032078504562378 5.752524375915527 168 160 156
-0.27780652046203613 3.0365488529205322 5.8094048500061035 118 112 107
0.0954139307141304 3.1907174587249756 5.198722839355469 113 109 105
0.6321971416473389 -1.1449683904647827 4.3044281005859375 34 29 30
0.5555734634399414 -1.1788427829742432 4.503805160522461 36 32 32
-4.58608865737915 0.7528679966926575 9.81632137298584 150 147 144
-1.5182273387908936 1.4823311567306519 9.60372543334961 67 61 57
1.6477785110473633 0.7538073062896729 4.404761791229248 160 154 141
-4.7014384269714355 -0.4616551101207733 10.88921070098877 88 86 100
-0.1411324292421341 3.243300437927246 5.15047550201416 144 139 134
-4.857025146484375 -2.3109114170074463 10.448528289794922 61 59 69
-4.857086658477783 -2.3109543323516846 10.448695182800293 61 59 69
-4.856992244720459 -2.310901403427124 10.448498725891113 61 59 69
0.9212384819984436 -0.9681320190429688 4.3773298263549805 116 110 96
-0.13522477447986603 2.929152011871338 6.163730144500732 133 127 122
1.7484912872314453 0.5639504790306091 4.129637241363525 30 27 17
-1.336769938468933 1.3898875713348389 10.210381507873535 119 111 110
1.742674469947815 0.5573208332061768 4.1341094970703125 107 104 93
0.6374877095222473 -0.8995962738990784 4.3375139236450195 43 43 45
-1.686262845993042 1.6015883684158325 9.600639343261719 147 143 140
-4.82376766204834 -0.353942334651947 10.215967178344727 44 37 28
1.749207615852356 0.534022331237793 4.140550136566162 82 78 69
0.0015908408677205443 3.2584691047668457 5.175919532775879 109 103 97
-4.386696815490723 -3.094111442565918 15.368401527404785 194 177 163
-4.188652992248535 -3.0804295539855957 15.37226390838623 213 201 187
1.7415682077407837 0.7470980882644653 4.2152838706970215 96 91 79
-0.03959434852004051 3.2383434772491455 5.191178798675537 52 47 39
0.02430163510143757 3.267502784729004 5.216778755187988 59 56 50
0.09031911939382553 3.22725248336792 5.178499698638916 84 80 75
1.6641401052474976 0.4992627203464508 4.142362594604492 127 122 107
1.628539800643921 0.5338566899299622 4.376068115234375 26 21 9
0.3179282546043396 3.2186574935913086 5.274970531463623 141 137 135
-0.03103487566113472 3.2122700214385986 5.252633571624756 121 115 108
0.3179325461387634 3.2186875343322754 5.275020122528076 141 137 135
0.932318389415741 0.523483395576477 4.513105392456055 28 22 11
-0.06578346341848373 3.194605588912964 5.25044584274292 44 38 32
-5.2548909187316895 -2.987330913543701 16.025869369506836 59 58 60
1.779935598373413 0.4635264277458191 4.070359706878662 55 52 43
-0.16613571345806122 3.192197322845459 5.276010990142822 162 158 152
-4.520493507385254 -2.916571855545044 16.412696838378906 158 145 135
0.2818143963813782 3.195744514465332 5.311141014099121 121 117 114
-4.964237689971924 -2.323754072189331 12.870438575744629 71 65 68
-4.520924091339111 -2.9166371822357178 16.413972854614258 158 145 135
0.9280627369880676 0.4910169839859009 4.521265029907227 190 183 169
-0.20637072622776031 3.1988916397094727 5.328989505767822 127 123 118
0.8628139495849609 0.49528759717941284 4.50673246383667 183 177 170
-4.923659801483154 -2.1934165954589844 12.534541130065918 46 40 41
-4.703490257263184 -1.8300191164016724 10.401593208312988 70 69 80
-0.14655345678329468 3.1897220611572266 5.331039905548096 133 128 124
-0.18111129105091095 3.189471960067749 5.327844619750977 110 106 102
-4.75339412689209 -2.9120213985443115 16.67962646484375 59 41 30
0.6964610815048218 1.9347763061523438 4.713052749633789 125 121 122
-0.14720040559768677 3.1854023933410645 5.356844902038574 121 116 111
-4.952785968780518 -2.211911678314209 12.871326446533203 24 19 19
-5.041441440582275 -2.359565496444702 13.568476676940918 62 55 58
0.10095185786485672 3.2287354469299316 5.486160755157471 123 118 114
0.12049772590398788 3.145106554031372 5.397078037261963 104 99 97
-1.7325061559677124 1.5386420488357544 9.734099388122559 17 10 9
0.6547597646713257 -0.17907564342021942 4.429853439331055 96 93 99
-4.910601615905762 -2.0708069801330566 12.50900936126709 65 59 60
-4.649169921875 -0.07734514772891998 10.356616020202637 32 30 36
-5.16024923324585 -0.6599408984184265 16.398685455322266 90 81 78
0.6574965119361877 -0.17971587181091309 4.392335891723633 54 51 57
0.9223072528839111 0.4686011075973511 4.499152660369873 40 33 23
-4.779053211212158 -2.821859359741211 16.78672218322754 100 82 69
-5.121434688568115 -0.6805546879768372 16.6623477935791 237 229 223
0.6412059664726257 -0.6986289024353027 4.336811542510986 109 107 107
-4.91075325012207 -2.0707764625549316 12.509387016296387 65 59 60
0.8951969742774963 -0.21073736250400543 4.468748569488525 38 30 24
0.9083297848701477 0.008098703809082508 4.457279682159424 23 15 10
1.6127358675003052 0.7522061467170715 4.41510534286499 214 201 187
0.8946165442466736 -0.7136053442955017 4.412455081939697 100 93 82
0.9069355130195618 -0.2304086834192276 4.435901165008545 59 50 40
-4.660457134246826 -0.5008959174156189 10.275074005126953 34 34 44
0.8624805808067322 -0.6820430755615234 4.385209083557129 156 151 149
0.6781395673751831 1.442436933517456 4.532951831817627 39 37 39
-1.0650784969329834 1.5805366039276123 9.517864227294922 102 80 60
1.654120922088623 0.4044192433357239 4.371314525604248 113 107 93
-1.5878140926361084 0.06136827915906906 10.062084197998047 212 202 196
-4.930209636688232 -1.9740357398986816 12.86059284210205 55 48 51
-0.5952188372612 2.6481211185455322 6.873828411102295 36 27 22
-4.448205947875977 0.924322247505188 10.270901679992676 72 64 62
-1.7513724565505981 0.09049418568611145 9.87658405303955 68 51 43
-1.6878997087478638 0.09777703136205673 9.929463386535645 226 216 208
-1.9122411012649536 0.1070743054151535 9.517885208129883 157 145 133
-5.228837966918945 -1.1213163137435913 17.677108764648438 46 29 24
1.699169397354126 0.35006478428840637 4.03472900390625 72 67 57
1.6152375936508179 0.3825753927230835 4.473246097564697 86 79 64
1.6405634880065918 0.7143917083740234 4.405767917633057 83 75 61
-4.484485626220703 -1.167815089225769 17.52817153930664 100 86 79
1.66305410861969 0.33306747674942017 4.143452167510986 66 61 47
-4.44701623916626 0.8432037830352783 10.211880683898926 80 71 68
1.4721766710281372 0.8027801513671875 4.47736120223999 119 109 96
1.73529052734375 0.3280075788497925 3.975902795791626 128 124 111
1.6352301836013794 0.7505265474319458 4.441992282867432 213 208 195
-4.674201011657715 0.847081184387207 10.314873695373535 40 34 29
-5.073630332946777 -2.28987193107605 15.901634216308594 86 83 93
-1.5931894779205322 0.134837806224823 9.866800308227539 60 48 44
-4.6105570793151855 0.8157209157943726 10.153526306152344 173 169 166
-5.074404239654541 -2.2753682136535645 15.904252052307129 102 99 109
-2.047736644744873 0.12536516785621643 9.642633438110352 160 145 135
-5.229804039001465 -1.307887077331543 17.68187141418457 149 133 128
-5.114372730255127 -2.169322967529297 15.309677124023438 180 173 176
1.7335131168365479 0.29946187138557434 3.938316822052002 81 76 60
-1.8357455730438232 0.14275217056274414 9.80168342590332 46 26 20
-1.819168210029602 0.17227712273597717 9.821090698242188 37 22 13
-4.721757888793945 -0.7937764525413513 10.348517417907715 64 63 74
0.9563137888908386 1.6936596632003784 4.645788192749023 108 104 94
-0.09044007956981659 2.973926544189453 5.875983715057373 51 47 43
-0.23339112102985382 3.0158824920654297 5.879727363586426 107 101 95
-0.18440741300582886 3.222585439682007 5.276576042175293 155 151 144
-4.804887771606445 0.2229883223772049 10.275223731994629 97 90 79
0.8792925477027893 -0.9104117155075073 4.389886856079102 104 98 89
0.660058319568634 -0.200401172041893 4.4093523025512695 25 21 23
0.8946236371994019 -0.7136120200157166 4.41246223449707 100 93 82
0.8911176919937134 -0.014647302217781544 4.427693843841553 114 108 103
-4.797208786010742 -1.8519154787063599 10.478716850280762 3 2 12
0.6759395599365234 0.7494655847549438 4.544741630554199 170 166 167
-4.791459083557129 0.08134295791387558 10.23793888092041 77 70 61
1.6475303173065186 -0.33832406997680664 4.310929775238037 125 118 102
-4.110584259033203 -1.050405740737915 16.785526275634766 67 51 45
1.814900279045105 0.46832042932510376 3.9724106788635254 109 104 93
-4.841390132904053 -0.635917067527771 12.535325050354004 98 93 101
-4.84135627746582 -0.6359209418296814 12.535222053527832 98 93 101
-0.021313682198524475 3.207906723022461 5.278067111968994 55 49 44
-4.365403175354004 -1.0250145196914673 17.208528518676758 98 82 72
-1.9421651363372803 1.6206656694412231 9.884882926940918 21 13 9
0.10075852274894714 3.1482441425323486 5.616284370422363 90 84 81
-5.121400833129883 -1.1677275896072388 15.778616905212402 87 81 86
-0.15514333546161652 3.2745585441589355 5.315711498260498 90 87 80
0.9083414673805237 0.008099877275526524 4.457365989685059 23 15 10
0.6405788660049438 -2.3974738121032715 4.2070136070251465 97 93 92
0.3045123815536499 3.2043943405151367 5.3610968589782715 146 142 139
-0.18300417065620422 3.2009453773498535 5.349904537200928 119 114 110
0.7279753088951111 -2.314042091369629 4.215322017669678 116 112 115
0.7507227063179016 -2.3010315895080566 4.207833766937256 107 104 104
0.6295315027236938 -2.1723804473876953 4.20184850692749 126 123 126
0.17844070494174957 3.176436185836792 5.373579978942871 68 63 60
-0.20294326543807983 3.186084032058716 5.432920932769775 99 96 92
-4.649161338806152 -0.07734810560941696 10.356609344482422 32 30 36
-0.3021039366722107 3.156982421875 5.372422218322754 64 60 55
0.2566082179546356 3.1112942695617676 5.348857879638672 99 94 91
-3.452981472015381 -3.561587333679199 10.032319068908691 210 180 160
-3.8403737545013428 -3.1820170879364014 13.364046096801758 227 196 176
-4.729391574859619 -1.2414077520370483 10.292914390563965 64 64 73
0.6405789256095886 -2.397475004196167 4.207015037536621 97 93 92
-4.8103790283203125 -2.4334776401519775 14.250158309936523 95 87 90
0.2306389957666397 3.1381983757019043 5.497541904449463 136 130 127
-0.18104436993598938 3.121471643447876 5.511812210083008 62 57 52
-3.7996950149536133 -3.249424934387207 13.463981628417969 213 192 174
0.8727603554725647 -0.6952723264694214 4.437126159667969 81 77 76
-4.856969356536865 -2.3108887672424316 10.448442459106445 61 59 69
0.8849566578865051 -0.9339634776115417 4.386229991912842 59 52 45
-4.996118068695068 -1.1832383871078491 13.94587230682373 88 81 88
0.8969103693962097 0.46105730533599854 4.490776538848877 109 102 94
-4.188669204711914 -3.080437660217285 15.37231159210205 213 201 187
-0.09846049547195435 3.1145002841949463 5.652600288391113 72 66 61
-5.005643367767334 -2.0722570419311523 10.776944160461426 42 41 49
-1.5932000875473022 0.13484574854373932 9.866950035095215 60 48 44
-4.617220401763916 -1.9368044137954712 10.198338508605957 95 93 103
-4.91871452331543 -2.268951892852783 12.476269721984863 80 73 76
-4.964131832122803 -2.3236770629882812 12.87018871307373 71 65 68
-0.2860031723976135 2.93489670753479 5.988872528076172 143 137 132
-4.9641923904418945 -2.323700189590454 12.870343208312988 71 65 68
-4.487433433532715 -2.9684836864471436 16.589128494262695 254 255 243
0.09030555188655853 3.227288007736206 5.178551197052002 84 80 75
0.9072888493537903 1.1771950721740723 4.580721855163574 153 147 139
-4.734254837036133 -1.8446011543273926 10.456488609313965 68 67 78
-4.895082950592041 -1.8859665393829346 10.705556869506836 13 13 22
-4.767468452453613 -1.8398874998092651 10.478166580200195 9 8 18
-4.753042221069336 -2.9117238521575928 16.67854881286621 59 41 30
-4.508215427398682 -2.9408118724823 16.837926864624023 243 238 224
-0.0068119848147034645 3.067689895629883 5.715787410736084 118 113 110
-4.446977138519287 0.8431965112686157 10.211809158325195 80 71 68
-0.20581218600273132 3.0591840744018555 5.676600933074951 83 75 71
-4.491682052612305 -1.113722324371338 17.868398666381836 81 64 56
-4.991124629974365 -2.175194263458252 12.993657112121582 149 144 145
-4.4394426345825195 -2.7742650508880615 16.746501922607422 178 170 159
0.8946235775947571 -0.7136117815971375 4.4124603271484375 100 93 82
0.0362163670361042 2.999155282974243 5.7169270515441895 88 83 80
0.8946164846420288 -0.713605523109436 4.4124555587768555 100 93 82
-5.044047832489014 -2.343764543533325 14.6227445602417 100 92 93
0.862485408782959 -0.6820051670074463 4.38498067855835 156 151 149
-0.021367434412240982 3.239548444747925 5.225765705108643 110 104 97
0.10235301405191422 3.0449390411376953 5.86652135848999 128 122 117
-0.03256158158183098 3.2248873710632324 5.2383341789245605 117 111 104
1.6641368865966797 0.4992657005786896 4.142361640930176 127 122 107
0.8624762892723083 -0.6819959878921509 4.384934902191162 156 151 149
-4.930237293243408 -1.9740536212921143 12.860642433166504 55 48 51
-0.1869366616010666 3.228764533996582 5.287945747375488 155 151 144
-0.21544353663921356 3.226642370223999 5.2848405838012695 132 126 120
-0.24631047248840332 3.2155280113220215 5.285661220550537 126 120 114
-0.06702365726232529 3.1932168006896973 5.254537105560303 43 37 31
0.16927580535411835 3.1964006423950195 5.290388584136963 41 37 33
0.0952313244342804 2.960057258605957 5.828190803527832 133 128 124
-0.16610610485076904 3.1920433044433594 5.275854587554932 162 158 152
0.24785083532333374 3.194990634918213 5.302352428436279 119 116 112
-5.056431770324707 -2.284926176071167 15.857028007507324 86 83 93
-5.236288070678711 -2.373943328857422 16.630483627319336 84 81 91
-4.922129154205322 -1.8260753154754639 12.702333450317383 122 115 118
