ply
format ascii 1.0
element vertex 722
property float x
property float y
property float z
property uchar red
property uchar green
property uchar blue
end_header
-2.1641039848327637 2.0917139053344727 9.448067665100098 176 167 163
-1.6479554176330566 4.046186447143555 7.193393707275391 93 89 85
-2.185107946395874 3.07118821144104 9.53406810760498 49 39 34
-2.185107946395874 3.07118821144104 9.53406810760498 49 39 34
-1.821638822555542 -2.0308682918548584 7.974455833435059 46 29 19
-1.6481986045837402 4.096614837646484 7.221860408782959 63 59 55
-2.175898313522339 2.9087092876434326 9.53663444519043 31 22 19
-2.1102075576782227 1.1577417850494385 9.259493827819824 53 47 42
-2.163736343383789 3.1655843257904053 9.521069526672363 27 17 13
-2.163736343383789 3.1655843257904053 9.521069526672363 27 17 13
-2.156431198120117 1.5316493511199951 9.42435073852539 15 10 12
-2.156431198120117 1.5316493511199951 9.42435073852539 15 10 12
-2.1137330532073975 -2.8769986629486084 9.306803703308105 43 27 17
-2.166872978210449 3.578413724899292 9.514477729797363 93 85 78
-2.1574385166168213 1.7695847749710083 9.50607681274414 67 60 63
-2.167813777923584 -1.6647530794143677 9.558431625366211 62 45 33
-2.239645481109619 -0.6496564149856567 9.901512145996094 114 129 153
-2.1460587978363037 2.8371853828430176 9.485166549682617 105 96 92
-2.1425704956054688 1.8628625869750977 9.46983814239502 148 137 132
-2.14363169670105 -1.47824227809906 9.522473335266113 64 50 38
-2.0128254890441895 -4.660453796386719 8.91094970703125 59 56 46
-2.1367313861846924 2.199739456176758 9.506302833557129 78 69 69
-2.1367313861846924 2.199739456176758 9.506302833557129 78 69 69
-2.127014398574829 1.6399967670440674 9.439199447631836 52 46 50
-2.142618179321289 -2.2305309772491455 9.521218299865723 94 77 64
-2.122375011444092 1.9194958209991455 9.431501388549805 135 126 118
-1.499356746673584 4.208368301391602 6.666765213012695 68 61 55
-1.5460546016693115 4.17507266998291 6.875387191772461 134 128 124
-1.9622946977615356 -1.6867923736572266 8.753471374511719 91 74 61
-2.1311991214752197 -1.7396608591079712 9.523838996887207 89 71 58
-1.5663906335830688 4.102606296539307 6.992738246917725 70 66 63
-2.1388442516326904 3.427555799484253 9.476754188537598 83 74 67
-2.041840076446533 -2.2075514793395996 9.255095481872559 67 50 36
-2.129615306854248 2.194058895111084 9.51011848449707 87 79 79
-2.104738235473633 2.752891778945923 9.493362426757812 79 70 66
-2.104738235473633 2.752891778945923 9.493362426757812 79 70 66
-2.104738235473633 2.752891778945923 9.493362426757812 79 70 66
-2.1515698432922363 2.0845136642456055 9.570477485656738 42 32 31
-1.591874361038208 4.1082963943481445 7.185344696044922 135 131 127
-1.6708743572235107 4.022895336151123 7.546443462371826 76 70 66
-2.0781407356262207 1.706675410270691 9.392234802246094 54 47 53
-2.0643205642700195 -1.5784728527069092 9.412068367004395 154 136 125
-1.6967500448226929 3.9944276809692383 7.676986217498779 79 72 68
-2.0567901134490967 -2.692905902862549 9.326898574829102 92 75 60
-2.0567901134490967 -2.692905902862549 9.326898574829102 92 75 60
-1.7282546758651733 3.960719108581543 7.950932025909424 56 51 47
-2.065523147583008 1.8615690469741821 9.420952796936035 160 151 147
-2.0529820919036865 -2.5938596725463867 9.380768775939941 102 85 69
-1.5906285047531128 4.098446369171143 7.269592761993408 75 71 67
-2.104735851287842 2.7528929710388184 9.493351936340332 79 70 66
-2.0539090633392334 1.8617445230484009 9.425328254699707 124 115 111
-2.067462682723999 2.050865650177002 9.487648010253906 32 23 20
-2.086583137512207 3.5403945446014404 9.59166145324707 53 47 41
-1.9669866561889648 -3.608372688293457 9.04775333404541 98 96 106
-1.9243448972702026 -4.482227325439453 8.855086326599121 52 48 42
-2.0641825199127197 0.5230430364608765 9.621037483215332 159 156 153
-1.9879117012023926 0.5753149390220642 9.305412292480469 108 99 93
-1.9274500608444214 -4.563384532928467 8.88664436340332 75 73 65
-2.0225472450256348 1.7973694801330566 9.455193519592285 35 27 27
-1.9766169786453247 3.191763401031494 9.257579803466797 73 64 61
-2.042790412902832 2.241579294204712 9.467174530029297 136 126 124
-1.3624335527420044 4.1765289306640625 6.352023601531982 64 54 47
-2.0364739894866943 2.7620434761047363 9.453536033630371 112 103 96
-1.9516069889068604 3.6905159950256348 9.0731782913208 52 44 37
-2.0780017375946045 2.6370980739593506 9.579296112060547 33 22 18
-1.9268697500228882 -3.329224109649658 9.043766021728516 98 97 111
-1.5173379182815552 4.112473011016846 7.125163555145264 69 65 61
-2.0040900707244873 -2.1213674545288086 9.422743797302246 88 69 54
-1.9874318838119507 0.8598549962043762 9.358261108398438 101 93 85
-1.8933279514312744 3.7097604274749756 8.958541870117188 147 140 133
-1.3642351627349854 4.219162940979004 6.418440818786621 106 96 89
-2.0103225708007812 2.242342710494995 9.504621505737305 122 113 109
-2.0056567192077637 2.748800039291382 9.5065279006958 110 101 94
-1.943105936050415 -2.9208130836486816 9.31062126159668 97 81 66
-2.0505285263061523 1.8230140209197998 9.588135719299316 34 26 27
-2.028527021408081 2.2489001750946045 9.647011756896973 135 127 120
-1.878718376159668 -4.683253765106201 8.954986572265625 59 55 46
-2.0165107250213623 0.6518335342407227 9.623381614685059 72 60 54
-1.9526642560958862 1.4958571195602417 9.248114585876465 18 14 17
-1.3859223127365112 4.180192947387695 6.605560302734375 128 119 112
-1.5784406661987305 4.038857936859131 7.547080993652344 66 61 57
-1.5784406661987305 4.038857936859131 7.547080993652344 66 61 57
-1.958267331123352 0.8874525427818298 9.385388374328613 80 72 63
-1.9627867937088013 1.736341118812561 9.417386054992676 79 73 75
-1.9627867937088013 1.736341118812561 9.417386054992676 79 73 75
-1.9436978101730347 -2.921617031097412 9.313461303710938 97 81 66
-1.991033673286438 2.9532103538513184 9.56540584564209 65 58 55
-1.9711127281188965 0.550102710723877 9.640214920043945 78 67 59
-1.9659353494644165 0.46966788172721863 9.635819435119629 119 108 100
-1.9637550115585327 2.22240948677063 9.488884925842285 141 132 125
-2.001455783843994 0.7066919803619385 9.640233993530273 118 108 100
-1.9518970251083374 -1.3097693920135498 9.479985237121582 108 91 80
-1.9659340381622314 -0.6513766646385193 9.59865665435791 99 86 75
-1.4654254913330078 4.087011814117432 7.159470081329346 65 61 57
-1.558285117149353 4.029066562652588 7.6209845542907715 128 123 118
-1.9550594091415405 2.3221042156219482 9.466190338134766 25 15 13
-1.9360899925231934 2.5553572177886963 9.500039100646973 131 122 113
-1.9519636631011963 3.045203685760498 9.587176322937012 85 78 75
-1.7217214107513428 3.8554210662841797 8.498527526855469 114 109 104
-1.4885004758834839 4.0878119468688965 7.329548358917236 77 73 69
-1.4885004758834839 4.0878119468688965 7.329548358917236 77 73 69
-1.6134470701217651 3.979550361633301 7.901908874511719 108 102 98
-1.9026964902877808 3.577497959136963 9.376590728759766 66 58 51
-1.9400545358657837 3.162127733230591 9.565993309020996 73 66 63
-1.9217759370803833 1.4736149311065674 9.490126609802246 43 39 49
-1.7972370386123657 3.7543654441833496 8.920509338378906 89 83 78
-1.9083632230758667 1.8928388357162476 9.476758003234863 135 126 123
-1.38675856590271 4.169582366943359 6.86699914932251 116 111 106
-1.921595811843872 2.0248968601226807 9.573071479797363 128 119 115
-1.887215256690979 1.6683545112609863 9.45937728881836 44 39 46
-1.8829941749572754 1.1435272693634033 9.447906494140625 60 52 46
-1.5337752103805542 3.9719319343566895 7.809764385223389 148 142 138
-1.6421409845352173 3.881570816040039 8.281571388244629 74 69 66
-1.6421409845352173 3.881570816040039 8.281571388244629 74 69 66
-1.8729952573776245 1.8394815921783447 9.463126182556152 190 182 181
-1.9294612407684326 0.4949903190135956 9.771199226379395 76 66 57
-1.4969456195831299 4.044813632965088 7.600875377655029 112 107 102
-1.890189528465271 3.383572816848755 9.575199127197266 145 136 132
-1.8709062337875366 2.781733512878418 9.543578147888184 59 50 46
-1.8750089406967163 2.719533920288086 9.627613067626953 126 117 110
-1.8470520973205566 1.8071900606155396 9.490669250488281 21 15 18
-1.312398076057434 4.189469814300537 6.730069160461426 146 140 135
-1.312398076057434 4.189469814300537 6.730069160461426 146 140 135
-1.3102304935455322 4.202019214630127 6.74699068069458 158 152 147
-1.8580552339553833 3.343172550201416 9.584729194641113 91 82 78
-1.8332492113113403 2.474292516708374 9.49574089050293 132 122 114
-1.8373721837997437 3.2360334396362305 9.535859107971191 84 77 74
-1.8649970293045044 3.594547986984253 9.681564331054688 50 43 38
-1.8249092102050781 -3.168863296508789 9.324941635131836 53 48 43
-1.8408969640731812 3.0750443935394287 9.57978343963623 110 101 98
-1.774733066558838 2.8635916709899902 9.235185623168945 95 85 81
-1.7734839916229248 1.9261021614074707 9.409854888916016 117 109 103
-1.8182514905929565 2.6970558166503906 9.484539031982422 123 114 108
-1.8145109415054321 1.913130760192871 9.466976165771484 114 105 100
-1.3653522729873657 4.147126197814941 7.156160354614258 66 64 62
-1.7870347499847412 0.8542614579200745 9.381134986877441 72 64 56
-1.802711009979248 1.0908533334732056 9.471452713012695 56 49 43
-1.81678307056427 2.9637467861175537 9.550975799560547 113 102 98
-1.736807942390442 3.6983420848846436 9.157435417175293 82 74 67
-1.7963752746582031 3.552765369415283 9.470678329467773 135 127 120
-1.8009488582611084 2.015589952468872 9.500822067260742 133 125 119
-1.814452052116394 0.6986546516418457 9.621362686157227 55 46 38
-1.8073253631591797 3.369516611099243 9.611834526062012 52 44 41
-1.8195401430130005 0.6534631848335266 9.743729591369629 133 122 115
-1.6931763887405396 -4.540753364562988 9.110709190368652 62 58 56
-1.3223950862884521 4.134585380554199 7.13474178314209 63 62 59
-1.7731467485427856 2.81217885017395 9.569026947021484 89 80 76
-1.7731467485427856 2.81217885017395 9.569026947021484 89 80 76
-1.7748501300811768 3.409027576446533 9.604958534240723 68 58 54
-1.745082974433899 1.9087966680526733 9.478137969970703 136 128 122
-1.6448209285736084 1.8956873416900635 9.134590148925781 135 126 119
-1.7402313947677612 1.8734620809555054 9.46902847290039 151 143 138
-1.7335752248764038 1.7886453866958618 9.454377174377441 36 30 35
-1.7355536222457886 2.3578081130981445 9.491155624389648 133 123 116
-1.7409672737121582 3.1490962505340576 9.573617935180664 79 72 70
-1.6024503707885742 -4.331990718841553 8.97150993347168 52 48 48
-1.7636553049087524 0.595829427242279 9.703807830810547 76 65 58
-1.7143139839172363 3.6422696113586426 9.4656400680542 76 68 61
-1.703288197517395 1.5556260347366333 9.472816467285156 69 67 76
-1.3784160614013672 4.015343189239502 7.583991050720215 59 54 49
-1.3784160614013672 4.015343189239502 7.583991050720215 59 54 49
-1.7082735300064087 1.0597460269927979 9.45077133178711 68 61 53
-1.7134939432144165 0.7026390433311462 9.68045711517334 73 64 58
-1.2177002429962158 4.190639495849609 6.8818230628967285 165 160 157
-1.6610021591186523 1.8326802253723145 9.4984712600708 62 53 54
-1.691174030303955 0.8026124835014343 9.480146408081055 149 143 137
-1.6963765621185303 3.364542007446289 9.66164779663086 59 50 47
-1.5865949392318726 -3.7344822883605957 9.058341026306152 88 85 92
-1.6797162294387817 1.8988150358200073 9.489481925964355 118 108 101
-1.661798357963562 2.913376569747925 9.536773681640625 77 68 65
-1.6573467254638672 1.3458775281906128 9.515515327453613 40 36 44
-1.1853740215301514 4.198620319366455 6.809433937072754 60 56 52
-1.619653344154358 3.694547176361084 9.331273078918457 109 100 91
-1.6832993030548096 3.0606706142425537 9.718658447265625 73 64 63
-1.6832993030548096 3.0606706142425537 9.718658447265625 73 64 63
-1.2141472101211548 4.1579484939575195 7.011136054992676 114 111 108
-1.5559213161468506 -3.970715284347534 9.13032054901123 40 36 40
-1.5559213161468506 -3.970715284347534 9.13032054901123 40 36 40
-1.6528352499008179 2.0915255546569824 9.627620697021484 48 39 35
-1.7060900926589966 -0.0715935081243515 9.922037124633789 255 255 255
-1.1704580783843994 4.20197868347168 6.809560298919678 135 130 126
-1.646108865737915 3.552548885345459 9.617395401000977 59 49 42
-1.6328450441360474 2.4025285243988037 9.552437782287598 101 91 84
-1.6295585632324219 1.2791714668273926 9.461455345153809 80 75 73
-1.6405551433563232 1.1678473949432373 9.653389930725098 68 60 54
-1.119415283203125 4.233222484588623 6.594661235809326 86 76 70
-1.2264715433120728 4.460875511169434 7.069372653961182 108 100 94
-1.3124829530715942 4.001058101654053 7.870895862579346 92 87 83
-1.2013850212097168 4.118426322937012 7.132072448730469 119 115 112
-1.537083625793457 -4.566176891326904 9.086977005004883 46 40 35
-1.537083625793457 -4.566176891326904 9.086977005004883 46 40 35
-1.652894139289856 2.0915167331695557 9.627808570861816 48 39 35
-1.602975606918335 1.6616233587265015 9.526420593261719 47 43 48
-1.6450740098953247 2.7914769649505615 9.587297439575195 26 17 14
-1.6193946599960327 0.576784610748291 9.671974182128906 105 95 86
-1.6193946599960327 0.576784610748291 9.671974182128906 105 95 86
-1.6148748397827148 0.5727851986885071 9.65510368347168 105 95 86
-1.096982479095459 4.279581546783447 6.48701810836792 143 133 127
-1.6365081071853638 0.48054513335227966 9.725302696228027 173 166 158
-1.2589243650436401 4.030088901519775 7.588408470153809 75 70 66
-1.2589243650436401 4.030088901519775 7.588408470153809 75 70 66
-1.1371582746505737 4.277970314025879 6.792264461517334 65 57 51
-1.580260992050171 2.792802095413208 9.568726539611816 67 59 60
-1.5397685766220093 1.262694239616394 9.345890045166016 60 55 55
-1.5541207790374756 2.138181209564209 9.521870613098145 95 86 83
-1.5831722021102905 3.3153014183044434 9.636926651000977 54 48 45
-1.5439424514770508 3.171661615371704 9.613149642944336 96 92 94
-1.185392141342163 4.119571685791016 7.241140365600586 67 65 61
-1.588950514793396 0.6751943826675415 9.727649688720703 82 73 63
-1.588950514793396 0.6751943826675415 9.727649688720703 82 73 63
-1.5558844804763794 2.2921142578125 9.54502010345459 138 128 124
-1.0730531215667725 4.14749002456665 6.595130443572998 106 97 92
-1.5513112545013428 2.5544867515563965 9.564469337463379 75 67 67
-1.5499696731567383 2.751746892929077 9.582144737243652 110 103 104
-1.559073567390442 3.393303871154785 9.671380996704102 84 77 73
-1.1618448495864868 4.088872909545898 7.291086673736572 129 126 122
-1.1618448495864868 4.088872909545898 7.291086673736572 129 126 122
-1.192095398902893 4.100197792053223 7.392663955688477 96 93 89
-1.192095398902893 4.100197792053223 7.392663955688477 96 93 89
-1.0613101720809937 4.239995956420898 6.595439434051514 82 73 67
-1.0613101720809937 4.239995956420898 6.595439434051514 82 73 67
-1.0613101720809937 4.239995956420898 6.595439434051514 82 73 67
-1.4968092441558838 1.1937482357025146 9.528595924377441 21 13 9
-1.5075033903121948 1.2675676345825195 9.483232498168945 75 68 68
-1.423859715461731 2.3429718017578125 9.217814445495605 105 97 94
-1.4056251049041748 -4.123943328857422 8.913564682006836 67 65 67
-1.505110740661621 2.9018704891204834 9.614725112915039 9 5 7
-1.487047553062439 1.0513819456100464 9.453778266906738 73 64 56
-1.4992496967315674 2.0959248542785645 9.55097484588623 131 124 122
-1.5055572986602783 3.4613447189331055 9.65275764465332 45 39 37
-1.4899396896362305 2.1851718425750732 9.559391021728516 51 46 49
-1.4899396896362305 2.1851718425750732 9.559391021728516 51 46 49
-1.4983292818069458 3.6167683601379395 9.614091873168945 75 65 58
-1.038132905960083 4.267784118652344 6.590317249298096 76 66 61
-1.4837721586227417 2.5093836784362793 9.559412956237793 41 39 46
-1.499406337738037 1.7896010875701904 9.556107521057129 10 4 13
-1.4737809896469116 1.8859068155288696 9.53111457824707 143 136 139
-1.4818155765533447 2.7211313247680664 9.58596134185791 49 45 50
-1.056213617324829 4.207947254180908 6.811152935028076 152 144 138
-1.056213617324829 4.207947254180908 6.811152935028076 152 144 138
-1.4106582403182983 -3.218308687210083 9.155561447143555 98 97 103
-1.4022096395492554 3.6434757709503174 9.185497283935547 101 92 83
-1.0804290771484375 4.041342258453369 7.017821311950684 75 72 68
-1.3766021728515625 3.7685019969940186 8.982379913330078 85 81 77
-1.4656171798706055 2.2101478576660156 9.568367004394531 53 48 53
-1.5202292203903198 1.33512544631958 9.851102828979492 78 71 72
-1.156354546546936 4.030754089355469 7.611988067626953 69 64 61
-1.4595340490341187 1.7213737964630127 9.616656303405762 99 91 102
-1.2436771392822266 3.926832437515259 8.195086479187012 145 139 135
-1.2436771392822266 3.926832437515259 8.195086479187012 145 139 135
-1.0167124271392822 4.231144905090332 6.73897647857666 85 75 68
-1.015779733657837 4.262756824493408 6.836580753326416 121 111 104
-1.409654974937439 2.4226861000061035 9.578326225280762 76 71 72
-1.3621631860733032 -3.6097147464752197 9.106703758239746 92 91 100
-0.9211234450340271 4.165483474731445 6.361631870269775 100 91 84
-0.9318574070930481 4.193946361541748 6.397570610046387 118 109 102
-1.424491047859192 3.152189016342163 9.671278953552246 45 44 48
-1.418347716331482 1.8312978744506836 9.540068626403809 98 90 101
-1.4121757745742798 2.892944574356079 9.699578285217285 43 41 45
-1.421401023864746 -2.4958174228668213 9.77644157409668 198 204 203
-1.3693208694458008 3.6757309436798096 9.421895980834961 122 113 104
-1.310475468635559 3.7145087718963623 9.035399436950684 73 66 59
-1.3802406787872314 1.3112319707870483 9.524222373962402 49 43 44
-1.3014708757400513 -4.1479620933532715 9.005949974060059 65 62 65
-1.4096524715423584 2.4226715564727783 9.578323364257812 76 71 72
-1.0198534727096558 4.21059513092041 6.920167446136475 58 51 48
-1.0198534727096558 4.21059513092041 6.920167446136475 58 51 48
-1.363804817199707 1.4446117877960205 9.508886337280273 52 45 54
-1.363804817199707 1.4446117877960205 9.508886337280273 52 45 54
-1.359024167060852 1.618600845336914 9.504714965820312 38 33 45
-1.1659849882125854 3.9238381385803223 8.161605834960938 61 56 52
-1.3626799583435059 1.2549495697021484 9.545164108276367 71 64 61
-1.087390422821045 4.037111282348633 7.647714138031006 82 77 73
-1.371789574623108 2.925016164779663 9.663249969482422 17 13 15
-1.3457919359207153 1.3412779569625854 9.508363723754883 57 51 54
-1.3718717098236084 2.925135612487793 9.663701057434082 17 13 15
-1.3469828367233276 1.9138085842132568 9.53426456451416 127 120 118
-1.3489325046539307 3.6062920093536377 9.554309844970703 74 64 56
-0.9290366172790527 4.20633602142334 6.724951267242432 83 73 66
-0.9290366172790527 4.20633602142334 6.724951267242432 83 73 66
-0.9171148538589478 4.250814914703369 6.64413595199585 151 142 134
-0.9171148538589478 4.250814914703369 6.64413595199585 151 142 134
-0.9937678575515747 4.1115803718566895 7.201362133026123 61 56 53
-0.9972116947174072 4.115902423858643 7.258122444152832 112 107 103
-1.2319244146347046 -4.495339393615723 8.972755432128906 44 37 34
-1.3213512897491455 1.7965282201766968 9.54222583770752 57 52 60
-1.2586184740066528 -3.9931979179382324 9.065073013305664 93 90 95
-1.2466250658035278 0.9914737343788147 9.344207763671875 98 90 81
-1.2358444929122925 -4.218047142028809 9.133085250854492 60 57 59
-1.2761561870574951 1.0746837854385376 9.441788673400879 85 77 69
-1.2281157970428467 -4.203468322753906 9.101901054382324 60 57 59
-0.9480403661727905 4.197329521179199 6.984177589416504 99 91 86
-1.2010509967803955 -4.526601791381836 8.970909118652344 57 52 48
-1.2684760093688965 1.2669134140014648 9.504644393920898 79 72 70
-1.275057315826416 2.449690818786621 9.612443923950195 20 18 21
-0.9917460083961487 3.9741463661193848 7.560949325561523 132 127 123
-1.1896542310714722 -4.453997611999512 8.988561630249023 56 51 49
-1.2616010904312134 3.625330686569214 9.614082336425781 71 62 54
-1.283341407775879 1.5149784088134766 9.558783531188965 107 102 110
-0.9653336405754089 4.131837368011475 7.272614479064941 112 106 102
-1.2541468143463135 1.7930386066436768 9.593859672546387 19 15 26
-1.2541468143463135 1.7930386066436768 9.593859672546387 19 15 26
-0.8566545844078064 4.308562755584717 6.532749176025391 111 102 94
-1.2394720315933228 1.653222680091858 9.578667640686035 34 31 47
-1.2759273052215576 2.6074838638305664 9.63095474243164 31 28 31
-1.23972487449646 1.7503151893615723 9.595746994018555 34 32 45
-1.0629827976226807 3.7964727878570557 8.285475730895996 126 120 116
-1.1329139471054077 -4.429014205932617 8.849868774414062 41 36 34
-0.9857893586158752 4.111706256866455 7.591063976287842 55 50 47
-1.2257800102233887 3.1691882610321045 9.657183647155762 45 43 44
-1.1701815128326416 -3.4187419414520264 9.246404647827148 85 84 92
-1.2202221155166626 -4.3839874267578125 9.439093589782715 49 45 48
-1.2304675579071045 2.5441839694976807 9.841391563415527 51 48 53
-1.204142689704895 1.9724206924438477 9.570384979248047 59 54 57
-1.2677656412124634 0.7628578543663025 10.091937065124512 111 101 94
-1.1831451654434204 1.696325659751892 9.443222999572754 41 38 53
-1.1360834836959839 -3.7362940311431885 9.080917358398438 64 63 73
-0.9012694954872131 4.122207164764404 7.249732494354248 118 111 107
-1.183965802192688 3.630755662918091 9.541964530944824 60 52 44
-1.1957640647888184 1.888822317123413 9.640872955322266 70 64 70
-1.1591179370880127 0.9435091614723206 9.58478832244873 76 67 58
-1.1021854877471924 -3.309668779373169 9.166770935058594 105 104 110
-1.0742371082305908 -3.3899283409118652 9.147323608398438 97 97 105
-1.1463464498519897 1.0353004932403564 9.552512168884277 59 50 42
-0.7774792909622192 4.2692551612854 6.5230488777160645 164 153 145
-1.1487959623336792 -2.541480302810669 9.668024063110352 229 231 230
-1.0621354579925537 3.4050419330596924 9.214508056640625 95 85 78
-0.8669708967208862 4.058274269104004 7.187849521636963 126 120 115
-1.0776880979537964 -3.2429704666137695 9.132548332214355 99 97 103
-1.1128456592559814 1.0604002475738525 9.618260383605957 75 66 58
-1.1183725595474243 3.3716886043548584 9.718667030334473 49 43 39
-1.1037163734436035 1.9070237874984741 9.59108829498291 104 96 98
-1.0309679508209229 -3.746556043624878 9.144039154052734 75 74 84
-1.061086893081665 3.3282766342163086 9.441615104675293 38 32 27
-0.7274037003517151 4.108325004577637 6.669486999511719 157 147 139
-1.1099411249160767 0.9995601773262024 9.613563537597656 74 65 57
-1.0685606002807617 0.938711941242218 9.549328804016113 87 78 70
-0.8314002156257629 4.073779582977295 7.439934253692627 64 59 54
-1.0695815086364746 1.9836317300796509 9.633646011352539 75 67 69
-1.0560078620910645 1.0119997262954712 9.559497833251953 57 49 41
-1.0298644304275513 1.1095830202102661 9.57258129119873 63 55 48
-1.0298644304275513 1.1095830202102661 9.57258129119873 63 55 48
-1.092255711555481 1.9838615655899048 9.9008207321167 77 69 71
-1.0502514839172363 1.9798400402069092 9.59522819519043 86 78 80
-1.049522876739502 1.0466920137405396 9.607864379882812 75 67 59
-0.7294602394104004 4.05670690536499 6.964353084564209 121 115 111
-0.9766536951065063 -3.4631810188293457 9.163660049438477 87 85 92
-1.0167012214660645 1.7489604949951172 9.676796913146973 41 39 57
-0.698600709438324 4.24955415725708 6.653290748596191 114 103 93
-0.7358115911483765 4.175609588623047 7.005393028259277 58 49 44
-0.940414309501648 -3.8911728858947754 9.103937149047852 74 72 74
-0.97906494140625 -2.3500406742095947 9.526388168334961 216 222 221
-0.97906494140625 -2.3500406742095947 9.526388168334961 216 222 221
-0.9732589721679688 1.2607247829437256 9.578511238098145 65 58 58
-0.9635085463523865 2.6409802436828613 9.500903129577637 129 120 113
-0.9068047404289246 -3.457305669784546 8.99415397644043 68 65 74
-0.7213539481163025 4.1291422843933105 7.193347454071045 57 52 47
-0.9059410095214844 2.8576159477233887 9.067291259765625 75 65 56
-0.9223033785820007 -3.3400914669036865 9.26555061340332 78 75 83
-0.895130455493927 -4.451516628265381 9.080048561096191 51 46 45
-0.8954861760139465 -4.257680892944336 9.090486526489258 57 54 54
-0.894671618938446 3.1487679481506348 9.199617385864258 132 122 111
-0.9226139783859253 2.7659380435943604 9.505146980285645 102 92 82
-0.9113461375236511 2.808910846710205 9.419706344604492 58 48 39
-0.7449406981468201 4.020413875579834 7.718181610107422 74 70 66
-0.9157687425613403 2.64139723777771 9.553961753845215 75 65 56
-0.8799670934677124 3.4413576126098633 9.257867813110352 30 23 20
-0.929284930229187 0.5954058766365051 9.785358428955078 101 88 78
-0.9151414036750793 2.278749942779541 9.667998313903809 59 55 60
-0.6337340474128723 4.154507160186768 6.845368385314941 161 151 143
-0.905956506729126 0.8067430853843689 9.763471603393555 112 106 98
-0.8515709042549133 -4.316991806030273 9.118111610412598 35 31 33
-0.6312252283096313 4.217740058898926 6.779851913452148 171 160 151
-0.668311357498169 4.118154048919678 7.272531509399414 68 62 57
-0.8316538333892822 -3.2227516174316406 9.253849029541016 89 87 94
-0.8654232025146484 1.7304558753967285 9.645615577697754 102 95 108
-0.8905104994773865 2.3328051567077637 9.701106071472168 43 39 44
-0.8905697464942932 2.3329553604125977 9.701425552368164 44 40 45
-0.833437442779541 0.7718880772590637 9.411952018737793 138 133 125
-0.833437442779541 0.7718880772590637 9.411952018737793 138 133 125
-0.833437442779541 0.7718880772590637 9.411952018737793 138 133 125
-0.8377404808998108 1.2950410842895508 9.533766746520996 87 81 87
-0.6226038336753845 4.165998935699463 7.106746196746826 77 70 65
-0.6702731847763062 4.031928539276123 7.689609050750732 84 79 76
-0.840337336063385 1.9642140865325928 9.649935722351074 74 66 69
-0.6597081422805786 3.9893455505371094 7.717595100402832 132 127 124
-0.802776038646698 1.1636638641357422 9.491533279418945 43 35 30
-0.8260425925254822 1.6174060106277466 9.638040542602539 33 29 54
-0.8260425925254822 1.6174060106277466 9.638040542602539 33 29 54
-0.8210234642028809 2.656331777572632 9.642065048217773 130 118 106
-0.7643895745277405 3.047597646713257 9.01928997039795 93 84 71
-0.6633222699165344 3.99662446975708 7.851344585418701 66 61 57
-0.8247461915016174 1.6586289405822754 9.616066932678223 21 18 33
-0.8108785152435303 1.969736933708191 9.660333633422852 94 86 88
-0.7434622049331665 2.999805212020874 8.980572700500488 61 51 41
-0.7635399699211121 2.749859571456909 9.555403709411621 108 95 81
-0.7905996441841125 1.0616587400436401 9.591435432434082 177 170 159
-0.7905996441841125 1.0616587400436401 9.591435432434082 177 170 159
-0.804101288318634 0.25199389457702637 9.822973251342773 240 242 244
-0.7839578986167908 1.325850248336792 9.621923446655273 55 50 59
-0.5280776619911194 4.27570104598999 6.483917713165283 169 156 144
-0.7674201726913452 2.3205766677856445 9.663097381591797 17 13 19
-0.6810335516929626 3.586843967437744 8.763630867004395 102 96 91
-0.5583685636520386 4.168503761291504 6.86668586730957 96 87 79
-0.6472892761230469 3.944943428039551 8.133719444274902 78 72 67
-0.6472892761230469 3.944943428039551 8.133719444274902 78 72 67
-0.5427380204200745 4.209464073181152 6.857406139373779 143 133 124
-0.7362086176872253 -3.165957450866699 9.334213256835938 58 54 55
-0.7635507583618164 2.7498855590820312 9.555490493774414 108 95 81
-0.7306625843048096 1.4139405488967896 9.589512825012207 93 90 102
-0.7306625843048096 1.4139405488967896 9.589512825012207 93 90 102
-0.7611020803451538 2.0827279090881348 9.678206443786621 126 121 123
-0.7611020803451538 2.0827279090881348 9.678206443786621 126 121 123
-0.6763124465942383 2.9318954944610596 8.987753868103027 133 124 111
-0.731848955154419 1.7762725353240967 9.701363563537598 17 15 25
-0.731848955154419 1.7762725353240967 9.701363563537598 17 15 25
-0.7330071330070496 1.231338620185852 9.620221138000488 132 124 121
-0.7330071330070496 1.231338620185852 9.620221138000488 132 124 121
-0.7326399683952332 2.124108076095581 9.621070861816406 73 66 71
-0.7141963243484497 1.1768978834152222 9.590154647827148 39 31 27
-0.7553105354309082 0.9802733659744263 9.5665283203125 139 131 119
-0.7304957509040833 1.6920219659805298 9.641132354736328 100 94 110
-0.636484682559967 3.871577501296997 8.443191528320312 41 37 32
-0.636484682559967 3.871577501296997 8.443191528320312 41 37 32
-0.7242146134376526 1.7040873765945435 9.688427925109863 90 84 100
-0.7159163951873779 1.5964962244033813 9.618704795837402 38 34 58
-0.714537501335144 1.9720209836959839 9.656930923461914 123 116 119
-0.714537501335144 1.9720209836959839 9.656930923461914 123 116 119
-0.4700089395046234 4.219151496887207 6.601311206817627 158 146 136
-0.7104925513267517 1.9792362451553345 9.674717903137207 124 117 120
-0.6899846196174622 3.9104838371276855 9.021014213562012 89 85 80
-0.709909975528717 2.771902561187744 9.679286003112793 142 127 113
-0.6991311311721802 0.918187141418457 9.537615776062012 106 97 86
-0.6391206979751587 3.849672794342041 8.546989440917969 100 96 91
-0.7037947177886963 1.2844417095184326 9.652850151062012 59 54 61
-0.6998739242553711 2.916938066482544 9.657306671142578 110 97 82
-0.7142404317855835 1.1769245862960815 9.590296745300293 39 31 27
-0.7142404317855835 1.1769245862960815 9.590296745300293 39 31 27
-0.7225395441055298 0.06209656968712807 10.143171310424805 253 252 254
-0.6788255572319031 0.7678115367889404 9.5717134475708 138 131 124
-0.6417408585548401 3.1341552734375 9.079122543334961 57 49 39
-0.6746615171432495 0.9893856644630432 9.543255805969238 69 62 50
-0.6723918318748474 2.877946615219116 9.63364028930664 101 86 71
-0.6595132946968079 1.5730865001678467 9.644700050354004 32 29 50
-0.6595132946968079 1.5730865001678467 9.644700050354004 32 29 50
-0.5389965772628784 4.036518573760986 7.744487762451172 88 84 79
-0.6042760610580444 0.8045031428337097 9.445540428161621 116 108 99
-0.5265735387802124 4.032158851623535 7.6718902587890625 118 114 109
-0.5938875079154968 3.055262565612793 8.821294784545898 48 41 30
-0.6458510160446167 2.7378461360931396 9.672499656677246 103 89 74
-0.6416105031967163 0.7220312356948853 9.794116020202637 70 59 52
-0.6211127638816833 2.8704822063446045 9.153605461120605 164 152 139
-0.5817050337791443 3.117731809616089 8.928954124450684 70 64 56
-0.5963259935379028 1.1218516826629639 9.624369621276855 103 95 86
-0.4848458766937256 4.001192569732666 7.866328716278076 91 85 80
-0.5704192519187927 2.3662562370300293 9.414214134216309 45 41 49
-0.5489530563354492 -3.8984055519104004 9.192626953125 61 60 62
-0.5710143446922302 1.8581433296203613 9.65101432800293 81 76 91
-0.5780670046806335 -2.5987374782562256 9.707070350646973 232 230 232
-0.5681530833244324 2.117274522781372 9.614039421081543 48 47 57
-0.527291476726532 2.847163438796997 8.91472053527832 89 81 69
-0.5390143394470215 -3.2109076976776123 9.19253921508789 80 77 83
-0.5617951154708862 1.1379822492599487 9.666726112365723 100 93 83
-0.5520268082618713 1.98417329788208 9.66991138458252 48 45 60
-0.5423458814620972 1.1871259212493896 9.617645263671875 19 13 9
-0.5572988986968994 -0.2386944591999054 9.910135269165039 253 252 254
-0.39311516284942627 4.2359418869018555 6.841033458709717 107 96 86
-0.39311516284942627 4.2359418869018555 6.841033458709717 107 96 86
-0.5093978643417358 -3.982400894165039 9.191951751708984 63 60 60
-0.4922414720058441 3.2229857444763184 8.896873474121094 20 16 12
-0.5348755717277527 2.331890821456909 9.721014976501465 13 11 16
-0.42744311690330505 4.012420177459717 7.780542850494385 61 56 51
-0.5257166028022766 1.0248175859451294 9.599021911621094 121 110 99
-0.4311481714248657 3.9210453033447266 8.177937507629395 37 30 24
-0.5215785503387451 2.784675359725952 8.934982299804688 192 180 167
-0.46557021141052246 3.846978187561035 8.576421737670898 66 60 53
-0.5306750535964966 2.6881227493286133 9.65823745727539 31 20 12
-0.38132214546203613 4.1643853187561035 7.1674299240112305 113 106 100
-0.5117112398147583 0.9274796843528748 9.618335723876953 113 102 89
-0.5100842118263245 1.198960304260254 9.802953720092773 25 17 12
-0.496866911649704 2.952005624771118 9.638273239135742 110 97 81
-0.49870702624320984 1.7788453102111816 9.70460033416748 17 14 29
-0.5051547884941101 1.7841590642929077 9.745275497436523 17 14 29
-0.45295166969299316 1.3624800443649292 9.422748565673828 43 40 52
-0.5052450895309448 2.0419921875 9.72002124786377 73 73 83
-0.3848392069339752 4.059083461761475 7.585474491119385 78 71 66
-0.48791012167930603 1.5366852283477783 9.651018142700195 92 89 106
-0.3963344693183899 3.9197092056274414 8.443016052246094 115 109 102
-0.42708083987236023 3.164108991622925 8.99526596069336 90 87 82
-0.5103086829185486 0.39430421590805054 10.149173736572266 179 181 182
-0.4963976740837097 0.6745858192443848 9.892863273620605 95 84 76
-0.4963976740837097 0.6745858192443848 9.892863273620605 95 84 76
-0.35096415877342224 4.092618942260742 7.385812759399414 79 72 68
-0.4496197998523712 2.84472393989563 9.665460586547852 108 96 81
-0.46608641743659973 0.2903051972389221 10.146734237670898 203 206 211
-0.46608641743659973 0.2903051972389221 10.146734237670898 203 206 211
-0.3284633159637451 4.1196513175964355 7.2705864906311035 52 45 40
-0.4378941059112549 2.157926559448242 9.722418785095215 53 52 61
-0.39101144671440125 -3.9085171222686768 9.12069320678711 26 23 23
-0.43209072947502136 2.6561293601989746 9.623910903930664 160 149 141
-0.43209072947502136 2.6561293601989746 9.623910903930664 160 149 141
-0.43579551577568054 0.7356976270675659 9.85168743133545 100 92 85
-0.4257975220680237 2.515444278717041 9.743980407714844 52 48 52
-0.36359506845474243 3.853325128555298 8.526555061340332 68 62 55
-0.28300797939300537 4.217548847198486 6.777196407318115 178 166 155
-0.38672956824302673 0.9893885850906372 9.677982330322266 116 104 92
-0.27264320850372314 4.36663818359375 6.816720962524414 157 144 132
-0.34816625714302063 2.752845525741577 9.482364654541016 113 103 90
-0.3439925014972687 3.0361931324005127 8.992058753967285 50 46 39
-0.38797780871391296 2.2299673557281494 9.742507934570312 66 67 74
-0.337556928396225 1.6184096336364746 9.702424049377441 87 85 110
-0.35024911165237427 1.838273048400879 9.693231582641602 42 39 56
-0.3488483428955078 2.1241416931152344 9.727550506591797 76 76 85
-0.26569700241088867 4.162885665893555 7.122645378112793 122 113 106
-0.3381529748439789 1.4125523567199707 9.640510559082031 43 40 55
-0.24874620139598846 4.129699230194092 7.249297618865967 64 58 52
-0.2346603125333786 4.176892280578613 6.976922988891602 79 70 63
-0.31618064641952515 1.1114075183868408 9.670217514038086 79 71 62
-0.30583199858665466 2.7201976776123047 9.585668563842773 131 119 106
-0.2921319007873535 -3.224874973297119 9.298640251159668 71 67 71
-0.3065926730632782 0.670041024684906 9.862102508544922 64 52 43
-0.19538530707359314 4.270896911621094 6.564704895019531 171 158 147
-0.28744733333587646 1.277761459350586 9.692826271057129 56 52 60
-0.18336543440818787 4.223088264465332 6.954023361206055 103 94 86
-0.2710128128528595 1.0521249771118164 9.656143188476562 78 69 60
-0.25318676233291626 2.7256217002868652 9.047286033630371 143 137 128
-0.25143393874168396 2.642730951309204 9.579736709594727 69 60 54
-0.2501639425754547 0.9255712628364563 9.66711139678955 99 88 76
-0.18435072898864746 4.2700724601745605 6.6112470626831055 99 86 74
-0.20467029511928558 4.259334564208984 7.201436996459961 123 115 108
-0.23417361080646515 -2.971200704574585 9.64154052734375 46 35 27
-0.23783691227436066 0.5611183047294617 9.83092975616455 45 34 27
-0.22696760296821594 1.8464043140411377 9.652095794677734 50 48 66
-0.19933603703975677 3.693145275115967 9.284988403320312 83 79 76
-0.16330143809318542 4.248863697052002 6.801076889038086 159 149 139
-0.19901394844055176 4.061478137969971 7.919764518737793 79 73 67
-0.1537354290485382 4.16772985458374 7.062018871307373 52 45 39
-0.21278022229671478 1.4199249744415283 9.171579360961914 29 28 48
-0.21326610445976257 -4.3045573234558105 9.386330604553223 31 26 25
-0.21326610445976257 -4.3045573234558105 9.386330604553223 31 26 25
-0.21331354975700378 1.6148985624313354 9.679903984069824 35 33 59
-0.21331354975700378 1.6148985624313354 9.679903984069824 35 33 59
-0.19917446374893188 3.6951613426208496 9.082686424255371 90 86 83
-0.20956480503082275 1.4122370481491089 9.760262489318848 44 40 61
-0.12389428913593292 4.190555572509766 6.632284641265869 119 109 99
-0.1351003348827362 4.26121711730957 6.667468547821045 72 62 52
-0.1592848151922226 3.843017578125 8.671833038330078 52 46 41
-0.19345128536224365 1.4752765893936157 9.728902816772461 37 34 54
-0.19193045794963837 0.9113128185272217 9.670866966247559 116 107 94
-0.19144271314144135 2.1643338203430176 9.757423400878906 51 48 54
-0.13818104565143585 4.181499481201172 6.896458148956299 182 172 165
-0.14269623160362244 4.09619140625 7.356860160827637 57 53 48
-0.18459753692150116 2.0777814388275146 9.74860668182373 57 55 64
-0.18459753692150116 2.0777814388275146 9.74860668182373 57 55 64
-0.10975540429353714 4.298295497894287 6.5547685623168945 103 94 85
-0.10975540429353714 4.298295497894287 6.5547685623168945 103 94 85
-0.11497555673122406 4.18374490737915 7.014978885650635 122 115 109
-0.15807630121707916 0.6759556531906128 9.907777786254883 62 51 42
-0.15115401148796082 1.5022567510604858 9.721840858459473 16 13 29
-0.14056362211704254 1.6732374429702759 9.561695098876953 55 54 68
-0.1296319216489792 3.9034323692321777 9.081010818481445 107 102 95
-0.1293003112077713 1.1914029121398926 9.804709434509277 33 26 21
-0.12217965722084045 1.9888423681259155 9.732514381408691 44 40 57
-0.11450975388288498 4.028995513916016 7.774265289306641 159 155 150
-0.08852972835302353 4.184129238128662 7.273627281188965 85 79 73
-0.1112104132771492 3.7046127319335938 9.315884590148926 79 73 70
-0.1331639140844345 2.164600372314453 9.796903610229492 47 45 49
-0.11565593630075455 -2.4877612590789795 9.569080352783203 59 44 37
-0.11565593630075455 -2.4877612590789795 9.569080352783203 59 44 37
-0.10323657840490341 1.1139806509017944 9.690704345703125 106 97 88
-0.10376205295324326 -0.907921314239502 9.787891387939453 103 88 81
-0.10142110288143158 1.1737678050994873 9.659995079040527 29 24 18
-0.07209452241659164 4.113656044006348 7.392818927764893 77 73 68
-0.07209452241659164 4.113656044006348 7.392818927764893 77 73 68
-0.0783734992146492 -0.8350762724876404 9.829242706298828 79 64 58
-0.0921490415930748 1.8401367664337158 9.705414772033691 29 26 42
-0.07232750207185745 4.23543119430542 6.888464450836182 179 171 164
-0.059270698577165604 4.055469989776611 6.95322847366333 172 167 162
-0.060783013701438904 4.145038604736328 7.2197089195251465 136 130 124
-0.06575917452573776 3.9186289310455322 7.797745704650879 102 96 91
-0.06575917452573776 3.9186289310455322 7.797745704650879 102 96 91
-0.06473555415868759 3.63637113571167 9.454935073852539 16 12 11
-0.05690396949648857 0.9133166670799255 9.637343406677246 103 94 84
-0.04019012674689293 4.1321611404418945 7.229452133178711 147 141 137
-0.0655001774430275 1.4871938228607178 9.690032958984375 20 19 31
-0.0655001774430275 1.4871938228607178 9.690032958984375 20 19 31
-0.03773842006921768 3.9069690704345703 8.14306640625 106 101 95
-0.03434231877326965 1.9815471172332764 9.716240882873535 53 48 58
-0.030848709866404533 -3.944580078125 9.328868865966797 50 49 50
-0.013437293469905853 -4.186286926269531 8.175155639648438 48 46 43
-0.025869961827993393 3.73527193069458 9.021772384643555 59 54 53
-0.029053285717964172 4.122764587402344 7.3183746337890625 114 110 105
-0.01636759378015995 1.3146973848342896 9.702351570129395 67 64 75
0.0023424073588103056 4.105412006378174 7.322032928466797 143 139 134
0.005071244668215513 3.6405653953552246 9.185965538024902 79 73 72
0.025712983682751656 4.194855213165283 7.085379600524902 121 116 110
0.01274251937866211 4.00673770904541 7.801384925842285 82 78 73
0.017705993726849556 1.5026397705078125 9.695826530456543 78 74 85
0.015139573253691196 4.067193508148193 7.607754707336426 65 61 56
0.02968214452266693 3.9905712604522705 7.817483901977539 58 53 48
0.02968214452266693 3.9905712604522705 7.817483901977539 58 53 48
0.057212039828300476 4.20292329788208 6.996270179748535 92 86 80
0.057212039828300476 4.20292329788208 6.996270179748535 92 86 80
0.05093194916844368 3.6525118350982666 9.442302703857422 72 67 67
0.062340885400772095 3.9029996395111084 8.355841636657715 35 28 24
0.06336328387260437 4.202036380767822 6.925559043884277 165 157 149
0.06336328387260437 4.202036380767822 6.925559043884277 165 157 149
0.06516557931900024 4.175677299499512 7.080782413482666 63 57 51
0.09589746594429016 3.817307233810425 8.913261413574219 57 52 50
0.10163753479719162 4.17009162902832 7.060240745544434 58 52 46
0.09614893794059753 4.266910552978516 6.60747766494751 156 150 141
0.11397752165794373 4.047580242156982 7.68337345123291 63 59 54
0.12124592810869217 4.051347255706787 7.590714454650879 192 188 183
0.12124592810869217 4.051347255706787 7.590714454650879 192 188 183
0.10473394393920898 4.281679153442383 6.77371883392334 57 50 42
0.10473394393920898 4.281679153442383 6.77371883392334 57 50 42
0.14833766222000122 4.222826957702637 6.889678955078125 126 118 111
0.14833766222000122 4.222826957702637 6.889678955078125 126 118 111
0.13940630853176117 4.188810348510742 6.981873035430908 61 54 48
0.15931624174118042 3.976006031036377 7.9449992179870605 69 63 57
0.15931624174118042 3.976006031036377 7.9449992179870605 69 63 57
0.13481296598911285 4.268882751464844 6.722051620483398 110 103 95
0.13481296598911285 4.268882751464844 6.722051620483398 110 103 95
0.1520186811685562 4.120285987854004 7.310948371887207 67 64 59
0.151079922914505 4.208569526672363 6.867970943450928 126 118 111
0.151079922914505 4.208569526672363 6.867970943450928 126 118 111
0.15576763451099396 4.2892985343933105 6.547773361206055 143 136 128
0.16758768260478973 4.1923651695251465 6.902168273925781 93 86 79
0.2110249102115631 3.853126287460327 8.576092720031738 58 53 49
0.18887940049171448 4.118051052093506 7.401474475860596 56 55 50
0.18148058652877808 3.9985060691833496 7.885480880737305 59 54 48
0.190402090549469 4.134819507598877 7.254953384399414 159 154 150
0.190402090549469 4.134819507598877 7.254953384399414 159 154 150
0.1735667884349823 4.288394927978516 6.5015459060668945 74 67 59
0.1735667884349823 4.288394927978516 6.5015459060668945 74 67 59
0.21409274637699127 4.101132869720459 7.483386993408203 98 96 92
0.20467588305473328 4.237382411956787 6.849379062652588 70 65 58
0.23026181757450104 4.154642581939697 7.145512580871582 71 65 60
0.21712106466293335 4.265134811401367 6.6470046043396 127 121 114
0.22068163752555847 4.1615214347839355 6.557040214538574 89 83 76
0.2304781675338745 4.228084087371826 6.924778938293457 59 53 47
0.2304781675338745 4.228084087371826 6.924778938293457 59 53 47
0.22818659245967865 4.305397987365723 6.5473809242248535 64 59 52
0.30270108580589294 4.056680679321289 7.565126419067383 68 65 60
0.29722902178764343 4.130380630493164 7.235007286071777 140 136 130
0.28475186228752136 4.2160539627075195 6.472262382507324 134 131 123
0.3447210192680359 4.133622646331787 7.143545627593994 132 126 120
0.3742142915725708 1.8295046091079712 7.768303871154785 91 88 90
0.3102537989616394 4.284532070159912 6.546436786651611 132 129 121
0.3102537989616394 4.284532070159912 6.546436786651611 132 129 121
0.3200009763240814 4.255626201629639 6.61300802230835 155 152 144
0.3240387439727783 4.2461957931518555 6.778937339782715 139 136 128
0.3240387439727783 4.2461957931518555 6.778937339782715 139 136 128
0.3314761519432068 4.32893180847168 6.855570316314697 123 120 112
0.34484773874282837 4.132674217224121 7.14213228225708 132 126 120
0.37620118260383606 2.407900810241699 7.795748233795166 57 54 53
0.3491869270801544 4.087957382202148 7.349245548248291 37 35 31
0.33764657378196716 4.244302749633789 6.751476764678955 83 80 72
0.3888143002986908 1.5495225191116333 7.728226184844971 159 155 156
0.38213762640953064 4.0026774406433105 7.5736083984375 150 147 140
0.3879508078098297 0.9917926788330078 7.695181846618652 149 146 149
0.3312225043773651 4.292133331298828 6.501835823059082 51 49 41
0.3380267918109894 4.258483409881592 6.717131614685059 36 33 26
0.3380267918109894 4.258483409881592 6.717131614685059 36 33 26
0.4183957576751709 4.014911651611328 7.916464805603027 65 58 51
0.36265286803245544 4.205003261566162 6.8899383544921875 132 126 120
0.36265286803245544 4.205003261566162 6.8899383544921875 132 126 120
0.3630426526069641 4.241212368011475 6.766224384307861 146 143 135
0.39534756541252136 4.169388294219971 7.350639343261719 95 92 84
0.39534756541252136 4.169388294219971 7.350639343261719 95 92 84
0.389445424079895 -1.0022393465042114 7.502065658569336 49 48 49
0.35031962394714355 4.28331995010376 6.447918891906738 111 107 99
0.42958250641822815 4.031094551086426 7.771220684051514 67 62 54
0.4224826395511627 -2.5051698684692383 7.386833190917969 124 125 126
0.4361315071582794 4.048731327056885 7.617989540100098 65 62 54
0.46937650442123413 1.883147954940796 7.814943313598633 66 65 67
0.43146592378616333 4.145538330078125 7.173839092254639 69 65 57
0.43146592378616333 4.145538330078125 7.173839092254639 69 65 57
0.4576995372772217 0.2013123333454132 7.592874526977539 75 77 76
0.4501549005508423 -2.6711106300354004 7.460971355438232 120 123 122
0.4749753177165985 1.3249799013137817 7.711360931396484 64 66 70
0.41168949007987976 4.207479000091553 6.40955924987793 100 97 90
0.41168949007987976 4.207479000091553 6.40955924987793 100 97 90
0.47685548663139343 0.9477831125259399 7.676656723022461 58 60 61
0.43523862957954407 4.20987606048584 6.924965858459473 132 129 122
0.4699708819389343 -2.809107780456543 7.346248626708984 100 100 97
0.43756893277168274 4.262400150299072 6.798157215118408 87 84 76
0.4976833760738373 1.1187114715576172 7.689184188842773 39 36 39
0.4709551930427551 4.044362545013428 7.241258144378662 52 52 46
0.4855669140815735 4.085662364959717 7.4491868019104 55 55 49
0.5055069923400879 1.7668230533599854 7.733356952667236 54 49 52
0.4396021366119385 4.250478744506836 6.776890277862549 90 87 79
0.5594112277030945 -2.0661277770996094 8.206796646118164 67 68 68
0.4555504620075226 4.16779088973999 6.562390327453613 156 153 146
0.4555504620075226 4.16779088973999 6.562390327453613 156 153 146
0.5184974074363708 0.27235719561576843 7.694423198699951 58 61 60
0.468984991312027 4.203892230987549 6.931530952453613 128 123 117
0.468984991312027 4.203892230987549 6.931530952453613 128 123 117
0.5122355222702026 -2.700624465942383 7.385312080383301 106 109 107
0.5339255928993225 -0.08012036234140396 7.642094135284424 55 51 53
0.4622034430503845 4.275702953338623 6.57794189453125 135 130 123
0.4622034430503845 4.275702953338623 6.57794189453125 135 130 123
0.5410133600234985 0.10321208834648132 7.625002861022949 62 59 61
0.5011654496192932 4.296289920806885 7.055053234100342 79 74 68
0.4725876748561859 4.264895439147949 6.645172595977783 59 56 48
0.4725876748561859 4.264895439147949 6.645172595977783 59 56 48
0.5152961015701294 4.191256999969482 6.895698070526123 108 103 97
0.5199081897735596 4.198119640350342 6.979392051696777 128 122 116
0.5721124410629272 0.8821230530738831 7.642404556274414 58 61 65
0.5511616468429565 -0.7092179656028748 7.5629472732543945 58 57 57
0.6103888154029846 3.95798659324646 7.931853771209717 36 32 28
0.5558401346206665 -1.247033953666687 7.308917045593262 136 135 134
0.5867528915405273 0.44736790657043457 7.6685991287231445 50 48 47
0.5885047912597656 -1.9195318222045898 7.657744884490967 131 131 131
0.49119243025779724 4.36346960067749 6.619673252105713 92 87 81
0.5806760191917419 4.073048114776611 7.528800010681152 62 61 55
0.5701236128807068 -2.798398017883301 7.350019454956055 86 86 83
0.574417769908905 4.10239315032959 7.343740463256836 59 57 52
0.574417769908905 4.10239315032959 7.343740463256836 59 57 52
0.5640238523483276 4.04569673538208 7.196284294128418 109 107 100
0.6365438103675842 2.680626153945923 7.909091472625732 26 25 23
0.5630115866661072 4.252328872680664 6.772524833679199 66 62 54
