ply
format ascii 1.0
element vertex 726
property float x
property float y
property float z
property uchar red
property uchar green
property uchar blue
end_header
0.04558213800191879 0.44621390104293823 6.297666549682617 50 44 52
0.061200711876153946 3.2921361923217773 5.8216729164123535 137 128 123
0.03323156014084816 2.520644426345825 6.530878067016602 9 7 13
0.04541655629873276 3.2795724868774414 6.440642356872559 56 47 43
0.06267516314983368 -0.34551486372947693 6.182701587677002 51 46 52
0.06267516314983368 -0.34551486372947693 6.182701587677002 51 46 52
0.07446184009313583 -0.27475762367248535 6.178591251373291 60 56 64
0.0738501101732254 2.2851274013519287 6.5101213455200195 60 54 60
0.06161947175860405 3.28671932220459 5.811636924743652 137 128 123
0.09110625833272934 0.4161562919616699 6.314797878265381 52 47 53
0.09241820126771927 0.2160663604736328 6.417996406555176 46 41 47
0.09354320913553238 3.2778875827789307 5.827530384063721 133 123 118
0.09354320913553238 3.2778875827789307 5.827530384063721 133 123 118
0.11068546772003174 -0.536979615688324 6.190431594848633 46 43 50
0.1333230435848236 0.7062492370605469 6.422576904296875 12 9 13
0.13620470464229584 2.505512237548828 6.653934478759766 40 36 44
0.12828314304351807 0.6456294655799866 6.439652442932129 71 67 73
0.1312597692012787 3.247173309326172 6.406316757202148 64 57 55
0.1194441020488739 3.3028762340545654 5.750653266906738 120 112 107
0.13950049877166748 -0.30302688479423523 6.279158592224121 60 56 64
0.1476806402206421 -0.40191254019737244 6.397185325622559 62 58 63
0.14193005859851837 3.2630741596221924 6.067770481109619 80 73 69
0.14067092537879944 3.276301383972168 5.95607852935791 65 57 52
0.15342673659324646 -0.3862529695034027 6.343810558319092 70 66 72
0.15704572200775146 0.3651467561721802 6.421351432800293 72 69 78
0.1556428223848343 3.273010730743408 6.044916152954102 112 105 102
0.1929207295179367 2.7873332500457764 6.731173515319824 46 39 42
0.1920400857925415 2.30102276802063 6.719143390655518 20 14 19
0.19543811678886414 0.5863586664199829 6.485311031341553 45 39 47
0.19543811678886414 0.5863586664199829 6.485311031341553 45 39 47
0.20025435090065002 1.1429575681686401 6.618532180786133 53 48 56
0.17587772011756897 3.3053507804870605 5.566483020782471 73 65 62
0.205095112323761 0.7827478051185608 6.544010162353516 46 43 53
0.2246999740600586 0.42003360390663147 6.4757890701293945 46 43 50
0.23369264602661133 0.7341300249099731 6.601141929626465 76 72 81
0.25127485394477844 1.6921018362045288 6.728938102722168 9 3 8
0.230845108628273 3.251772165298462 6.312829494476318 91 84 81
0.24279619753360748 3.2287051677703857 6.492094039916992 66 61 58
0.24510285258293152 0.2029086798429489 6.573951721191406 44 39 49
0.23337946832180023 3.3020894527435303 6.0724897384643555 104 94 91
0.24629329144954681 -2.0480945110321045 6.286229133605957 48 48 54
0.26884257793426514 3.135464906692505 6.750918865203857 42 30 27
0.23338322341442108 3.3020522594451904 6.072431564331055 104 94 91
0.27635449171066284 0.5644495487213135 6.571211814880371 46 41 49
0.26021379232406616 3.283674716949463 6.135459899902344 69 60 57
0.2930329144001007 2.6389272212982178 6.837884426116943 50 45 55
0.29562121629714966 2.376370668411255 6.857964038848877 46 42 50
0.30661436915397644 1.1790815591812134 6.738463401794434 44 39 47
0.3143561780452728 0.012374685145914555 6.830249309539795 51 46 50
0.34285491704940796 2.611806631088257 6.9300689697265625 53 51 61
0.29944512248039246 3.267864227294922 5.98353910446167 59 49 46
0.33224937319755554 0.7811589241027832 6.634082794189453 45 40 48
0.33553972840309143 -0.47671958804130554 6.566514015197754 61 59 64
0.319972425699234 3.2743213176727295 6.137516021728516 121 111 107
0.34383973479270935 -0.5543056726455688 6.582973003387451 59 59 67
0.3548699915409088 1.3569451570510864 6.7429728507995605 50 45 53
0.3835827112197876 2.473116397857666 6.890557289123535 59 55 61
0.3436775505542755 -1.3453878164291382 6.508298873901367 52 53 61
0.3885846734046936 3.171290874481201 6.974430561065674 59 48 44
0.30341529846191406 3.247680902481079 5.413676738739014 115 105 101
0.375853031873703 0.21157348155975342 6.660026550292969 42 38 46
0.35970166325569153 3.357605218887329 6.341798782348633 115 105 101
0.38776466250419617 0.4033300280570984 6.727100849151611 45 43 47
0.3762616217136383 3.2288825511932373 6.4512248039245605 82 73 71
0.3952433466911316 0.5861847996711731 6.754861354827881 42 38 46
0.3385838568210602 3.3066728115081787 5.702625274658203 74 64 62
0.3791891038417816 3.2569191455841064 6.216641902923584 95 86 82
0.42124441266059875 3.219452381134033 6.607821941375732 95 87 84
0.4110870063304901 3.3621022701263428 6.430033206939697 114 105 101
0.45364704728126526 3.220032215118408 6.943414688110352 59 50 44
0.4506005346775055 0.06958656013011932 6.812918663024902 55 49 56
0.44013187289237976 -1.3127343654632568 6.6065826416015625 39 35 43
0.44013187289237976 -1.3127343654632568 6.6065826416015625 39 35 43
0.42608189582824707 3.1403632164001465 6.055948734283447 114 105 101
0.47766658663749695 3.301931142807007 7.378469467163086 43 32 29
0.47766658663749695 3.301931142807007 7.378469467163086 43 32 29
0.47845587134361267 2.560454845428467 7.1108717918396 39 36 45
0.41096562147140503 3.2576682567596436 5.933404922485352 105 95 90
0.48204368352890015 1.5837550163269043 6.8306660652160645 47 40 47
0.5156317949295044 2.6362786293029785 7.15602970123291 55 51 60
0.5100368857383728 -1.415221929550171 6.701573848724365 31 28 33
0.530723512172699 1.3760665655136108 7.062643051147461 41 38 46
0.5454621315002441 3.1572282314300537 7.245184421539307 42 34 32
0.4832598865032196 3.4258153438568115 6.642627716064453 119 110 108
0.5254551768302917 0.21126118302345276 6.9233903884887695 42 37 44
0.5178154706954956 -0.8115072250366211 6.811024188995361 49 46 50
0.5171480178833008 -0.18211020529270172 6.796695232391357 39 34 41
0.5178897380828857 -0.17564764618873596 6.75084114074707 39 34 41
0.4852456748485565 3.266312837600708 6.220804691314697 100 91 89
0.5337320566177368 3.2856285572052 6.471744060516357 112 104 102
0.5601413249969482 2.3676774501800537 7.170010566711426 43 39 46
0.4852960705757141 3.267108678817749 5.944871425628662 51 41 37
0.6097890138626099 1.3373663425445557 7.104552745819092 62 61 70
0.6091821193695068 0.12034489959478378 6.978301048278809 26 21 26
0.578217625617981 3.2688488960266113 6.433701992034912 70 61 60
0.6570035219192505 1.3651695251464844 7.297348499298096 61 59 67
0.6471357345581055 0.9446353912353516 7.110592365264893 41 36 44
0.6823596954345703 1.800160527229309 7.299520969390869 48 43 49
0.6815725564956665 1.380088210105896 7.235546112060547 43 40 48
0.6421984434127808 3.1361429691314697 6.816288471221924 91 82 80
0.662068247795105 0.960444450378418 6.972084999084473 54 52 60
0.7043636441230774 1.8378210067749023 7.328833103179932 67 62 67
0.642369270324707 3.143930196762085 6.387592792510986 74 64 62
0.6954026222229004 0.21924839913845062 7.080697536468506 42 35 44
0.7106479406356812 2.0857319831848145 7.348114490509033 24 19 26
0.7024157643318176 3.2224087715148926 7.0706000328063965 81 73 69
0.7178299427032471 0.8624648451805115 7.237000465393066 69 64 71
0.7140486836433411 -0.6839216947555542 7.0876054763793945 49 45 49
0.6013380289077759 3.3136916160583496 5.850486755371094 78 68 65
0.6014344692230225 3.305076837539673 5.837241172790527 78 68 65
0.6833627223968506 3.2347939014434814 6.379964828491211 88 79 78
0.8221868872642517 2.67209792137146 7.543467044830322 14 10 14
0.8221868872642517 2.67209792137146 7.543467044830322 14 10 14
0.624359130859375 3.3340413570404053 5.720392227172852 66 58 56
0.7695302963256836 -2.1718170642852783 6.87285852432251 40 38 45
0.8170879483222961 1.3389325141906738 7.300637245178223 39 35 42
0.8086556196212769 -1.173193335533142 7.318447113037109 44 43 55
0.8086556196212769 -1.173193335533142 7.318447113037109 44 43 55
0.8377664685249329 1.3848648071289062 7.281101226806641 44 39 45
0.851224422454834 1.0373637676239014 7.350447177886963 40 35 41
0.8962488174438477 3.1840364933013916 7.546729564666748 88 78 73
0.8875818252563477 0.2789972126483917 7.502669811248779 39 34 41
0.8965669274330139 3.1902048587799072 7.407525539398193 79 69 65
0.8135879039764404 3.2457122802734375 6.790226459503174 90 80 78
0.908237099647522 0.5724745988845825 7.4564738273620605 40 35 43
0.8391019105911255 3.22668194770813 6.774531364440918 113 103 101
0.9341048002243042 0.7451357245445251 7.472383499145508 71 69 74
0.9341048002243042 0.7451357245445251 7.472383499145508 71 69 74
0.9719304442405701 0.7500473260879517 7.476324081420898 42 38 45
0.9705706238746643 0.7486854791641235 7.443910121917725 43 39 46
1.0158177614212036 3.1279497146606445 7.770625114440918 40 29 27
0.9954356551170349 1.1312083005905151 7.596245288848877 60 57 66
1.0219305753707886 2.5406816005706787 7.533942222595215 20 17 21
0.9998115301132202 -3.44035005569458 7.479552745819092 32 32 33
1.0401087999343872 2.3284242153167725 7.790409088134766 41 36 46
1.0567435026168823 3.1300852298736572 7.839337348937988 46 36 34
1.1257483959197998 3.2108848094940186 8.07082748413086 58 48 44
1.0495871305465698 -0.9648396968841553 7.540385723114014 49 46 53
1.0495871305465698 -0.9648396968841553 7.540385723114014 49 46 53
0.9787102937698364 3.1990103721618652 6.927175998687744 125 116 114
1.1329082250595093 2.7413063049316406 7.912365436553955 39 32 36
1.0870862007141113 0.12017732113599777 7.4300665855407715 16 11 15
1.1049119234085083 1.9706121683120728 7.6946635246276855 57 53 60
1.0382376909255981 3.2680318355560303 7.13950252532959 117 107 105
1.0986268520355225 1.181342601776123 7.536136150360107 40 35 45
0.9254367351531982 3.2634944915771484 6.303807258605957 88 81 80
1.1835523843765259 2.680657386779785 8.090228080749512 23 19 23
1.2123329639434814 2.324253797531128 8.00720500946045 37 34 43
1.1521220207214355 -3.4207727909088135 7.661913871765137 41 40 41
1.2027947902679443 -3.489956855773926 7.811439037322998 33 31 32
1.2027947902679443 -3.489956855773926 7.811439037322998 33 31 32
1.24028480052948 1.4049737453460693 7.959636688232422 58 53 62
1.2283868789672852 3.179194211959839 7.859102249145508 69 60 57
1.2471600770950317 2.436176061630249 7.89958381652832 37 35 43
1.2258930206298828 3.0808818340301514 7.589792728424072 72 64 62
1.2746028900146484 2.371328115463257 7.907719135284424 8 6 13
1.2746028900146484 2.371328115463257 7.907719135284424 8 6 13
1.3539947271347046 3.012399435043335 8.130874633789062 59 50 49
1.3097511529922485 -0.19728711247444153 7.923048973083496 49 45 51
1.235672116279602 -1.9995737075805664 7.542941570281982 36 33 38
1.2922258377075195 2.2322118282318115 7.783041954040527 62 60 69
1.1930689811706543 3.248385190963745 7.3317484855651855 90 81 79
1.299545168876648 3.190528392791748 7.695830821990967 85 76 75
1.362228274345398 2.494699716567993 8.01908016204834 39 35 43
1.3172720670700073 -1.577845811843872 7.669776439666748 26 23 26
1.4585835933685303 3.1294846534729004 8.405536651611328 38 27 25
1.2393043041229248 3.2222988605499268 7.074054718017578 68 62 61
1.5270785093307495 3.023045063018799 8.492613792419434 42 35 35
1.3415181636810303 3.1890482902526855 7.428152084350586 106 97 95
1.4947596788406372 2.1836769580841064 8.194890975952148 37 32 40
1.5203865766525269 1.449332594871521 8.302160263061523 14 10 16
1.3994258642196655 3.1934144496917725 7.559244632720947 86 76 74
1.4690592288970947 -0.6295735239982605 7.922346115112305 24 20 24
1.4828544855117798 3.18758487701416 7.993418216705322 70 63 61
1.4828544855117798 3.18758487701416 7.993418216705322 70 63 61
1.576351523399353 3.1575968265533447 8.461295127868652 67 56 51
1.15751051902771 3.2446606159210205 6.205557346343994 91 82 81
1.6041839122772217 2.5467658042907715 8.53359317779541 47 42 51
1.628639817237854 2.597353458404541 8.489850044250488 25 20 23
1.6095372438430786 1.3113129138946533 8.35163402557373 45 42 50
1.607330322265625 0.25016582012176514 8.267576217651367 53 48 55
1.661120057106018 2.4574103355407715 8.512246131896973 32 28 36
1.5999209880828857 -1.0722920894622803 8.171417236328125 43 38 43
1.2122372388839722 3.258707284927368 6.1350297927856445 98 89 88
1.1629019975662231 3.349736452102661 5.935505390167236 110 103 101
1.6787444353103638 1.797830581665039 8.45025634765625 18 13 20
1.6576781272888184 3.133525848388672 8.249062538146973 81 74 72
1.352126955986023 3.326751947402954 6.5406107902526855 97 89 88
1.627821445465088 3.2815101146698 7.967042922973633 109 100 99
1.627821445465088 3.2815101146698 7.967042922973633 109 100 99
1.6783100366592407 -1.062246322631836 8.207345008850098 45 40 45
1.737391710281372 3.147955894470215 8.42917537689209 58 50 48
1.8289071321487427 2.808103084564209 8.838226318359375 52 48 50
1.8625209331512451 2.921039342880249 8.839454650878906 42 36 36
1.9522017240524292 -3.7612831592559814 9.379922866821289 62 61 65
1.8174527883529663 3.102322578430176 8.805782318115234 52 40 37
1.8080955743789673 1.0057337284088135 8.665018081665039 49 46 53
1.8542258739471436 2.9696271419525146 8.85523796081543 42 35 34
1.7398545742034912 -3.179704427719116 8.150129318237305 40 42 47
1.504072666168213 3.202451705932617 7.098708629608154 75 69 68
1.8456294536590576 -0.41530558466911316 8.941874504089355 53 51 58
1.850780963897705 1.6993526220321655 8.73019027709961 65 62 68
1.8188707828521729 0.7986512184143066 8.568256378173828 44 40 47
1.8883130550384521 0.17098625004291534 8.895429611206055 50 45 52
1.3947625160217285 3.217744827270508 6.454339027404785 93 85 84
1.844428539276123 1.734049677848816 8.638813018798828 62 58 65
1.33427894115448 3.272169589996338 6.1238837242126465 80 73 72
1.7134441137313843 3.228957176208496 8.003786087036133 113 105 103
1.862964153289795 2.417653799057007 8.654008865356445 49 46 55
2.0170700550079346 2.930349588394165 9.519220352172852 49 44 47
1.939658284187317 2.0465850830078125 8.939666748046875 56 52 58
1.867781162261963 -1.1455937623977661 8.53031063079834 54 48 55
1.9659758806228638 3.002840518951416 8.950423240661621 38 29 28
2.026322364807129 3.3680620193481445 9.34831428527832 71 61 58
1.9803458452224731 3.0099997520446777 8.928016662597656 46 35 33
1.9498752355575562 1.1487798690795898 8.777027130126953 40 37 47
2.097066879272461 3.098576307296753 9.188040733337402 60 49 46
2.0098941326141357 1.877672553062439 8.895623207092285 65 62 71
1.8520407676696777 3.107757091522217 7.991331100463867 107 100 98
1.7427313327789307 3.316434860229492 7.588377952575684 79 73 73
1.8583741188049316 -0.9613732099533081 8.042398452758789 27 22 27
2.0003082752227783 -0.22734501957893372 8.686235427856445 63 58 62
1.8586056232452393 -0.9615024924278259 8.043388366699219 27 22 27
1.9835561513900757 -0.39239048957824707 8.594605445861816 45 39 46
1.9889075756072998 -0.807438313961029 8.558765411376953 59 53 57
2.0042529106140137 -0.017357146367430687 8.608122825622559 67 63 67
2.1416969299316406 -1.3069288730621338 9.191559791564941 27 22 26
2.159499406814575 3.021470546722412 9.240402221679688 48 38 37
2.087519645690918 -0.6615156531333923 8.869897842407227 25 20 25
1.9985191822052002 3.308811664581299 8.565727233886719 85 76 75
2.0733065605163574 -0.8310132622718811 8.691457748413086 25 19 23
2.134953260421753 -2.577934980392456 8.863981246948242 22 19 21
2.1892969608306885 2.7981114387512207 8.941542625427246 55 48 48
2.1873819828033447 0.8996633291244507 9.035171508789062 48 44 52
2.079759120941162 3.1901378631591797 8.55387020111084 75 67 65
2.274258852005005 2.3476076126098633 9.236811637878418 26 23 32
2.306220293045044 2.5657317638397217 9.378520011901855 16 13 19
2.0795485973358154 3.262166738510132 8.448460578918457 92 84 83
2.323209285736084 3.131061553955078 9.430508613586426 74 64 59
2.306593418121338 2.3257691860198975 9.324784278869629 68 65 77
2.306593418121338 2.3257691860198975 9.324784278869629 68 65 77
2.2709925174713135 0.9278489947319031 9.131686210632324 49 44 53
2.302417755126953 2.232652425765991 9.214730262756348 69 67 80
2.169013023376465 -1.9618470668792725 8.696041107177734 41 38 44
2.2381722927093506 -0.5457314252853394 8.953023910522461 82 78 88
2.284069776535034 1.4871363639831543 9.100081443786621 65 60 64
2.2219090461730957 -1.5865157842636108 8.764200210571289 29 25 28
2.3932552337646484 2.2404637336730957 9.367440223693848 47 42 53
2.364227533340454 0.23941007256507874 9.161439895629883 80 74 83
2.4955897331237793 2.690561532974243 9.6626558303833 58 54 57
2.4955897331237793 2.690561532974243 9.6626558303833 58 54 57
2.424069881439209 1.139634370803833 9.341766357421875 45 41 50
2.3764517307281494 -1.1087963581085205 8.995048522949219 67 61 69
2.3764517307281494 -1.1087963581085205 8.995048522949219 67 61 69
2.48022198677063 -0.1812811642885208 9.34235668182373 72 65 71
2.5603671073913574 1.839717149734497 9.625268936157227 59 54 59
2.454606056213379 -0.0850105732679367 9.286246299743652 27 21 27
2.613978862762451 2.534198522567749 9.727644920349121 22 19 24
2.613978862762451 2.534198522567749 9.727644920349121 22 19 24
2.4448771476745605 -1.5941790342330933 9.112751007080078 25 20 24
2.5134899616241455 1.7280731201171875 9.362006187438965 61 57 61
2.4753849506378174 -0.9333967566490173 9.167643547058105 93 90 98
2.60780930519104 3.2468175888061523 9.620284080505371 86 79 78
2.4790406227111816 -1.3085895776748657 9.15528678894043 89 87 93
2.3088371753692627 3.1932101249694824 8.45982837677002 93 86 85
2.5216190814971924 -1.5488649606704712 9.251060485839844 63 59 65
2.2769460678100586 -2.9005327224731445 8.34094524383545 51 53 57
2.5211257934570312 -1.2131463289260864 9.229127883911133 18 13 17
2.5211257934570312 -1.2131463289260864 9.229127883911133 18 13 17
2.542048931121826 -0.5756168365478516 9.267184257507324 57 52 60
1.7612791061401367 3.2062933444976807 6.296742916107178 86 80 79
2.449732542037964 -1.7512866258621216 8.791715621948242 38 33 37
2.508413791656494 3.1427712440490723 8.9603910446167 107 100 99
2.65329647064209 1.2719306945800781 9.581584930419922 93 88 98
2.5915186405181885 -0.878852903842926 9.344179153442383 27 22 24
2.5038583278656006 -1.5675102472305298 9.090643882751465 31 26 30
2.5277059078216553 -1.3955682516098022 9.203621864318848 20 16 18
2.6795220375061035 1.4702916145324707 9.649547576904297 64 59 67
2.47914981842041 3.106121063232422 8.855536460876465 102 94 94
2.6971371173858643 1.7347393035888672 9.611821174621582 29 25 29
2.653747797012329 0.4115298390388489 9.48210620880127 87 82 93
2.6571602821350098 0.3283902406692505 9.476934432983398 64 59 70
2.6571602821350098 0.3283902406692505 9.476934432983398 64 59 70
1.9084795713424683 3.0886130332946777 6.724995136260986 82 76 75
1.9084795713424683 3.0886130332946777 6.724995136260986 82 76 75
2.649644374847412 -0.3927982449531555 9.420239448547363 74 69 77
2.5137522220611572 3.1459078788757324 8.971746444702148 87 80 79
2.7607765197753906 1.3287118673324585 9.811461448669434 57 51 64
2.8297529220581055 0.029907988384366035 10.093586921691895 79 75 85
2.6775426864624023 -0.756965696811676 9.425366401672363 99 94 99
2.702998161315918 3.096949577331543 9.349505424499512 75 68 67
2.744795560836792 -2.0600574016571045 9.466212272644043 50 45 50
2.7051193714141846 -0.26245221495628357 9.29768180847168 28 23 33
2.870342254638672 -0.17254586517810822 9.80345630645752 73 69 83
2.788466691970825 -2.0798699855804443 9.461575508117676 23 18 23
2.788466691970825 -2.0798699855804443 9.461575508117676 23 18 23
2.788466691970825 -2.0798699855804443 9.461575508117676 23 18 23
2.8737826347351074 -1.6033985614776611 9.639188766479492 36 33 36
2.9415016174316406 0.3522090017795563 9.955031394958496 69 65 76
2.8704373836517334 -0.2082030177116394 9.689268112182617 83 79 93
2.893805742263794 -0.3658718168735504 9.672901153564453 101 97 105
2.9763524532318115 1.3544344902038574 9.897049903869629 38 33 40
2.9540741443634033 -0.7550007104873657 9.76856803894043 107 101 110
2.9470484256744385 -2.0207085609436035 9.716850280761719 58 54 57
2.9470484256744385 -2.0207085609436035 9.716850280761719 58 54 57
3.032508611679077 -0.6500627994537354 9.975937843322754 27 21 29
3.032933235168457 0.16563823819160461 9.961212158203125 79 75 87
3.032933235168457 0.16563823819160461 9.961212158203125 79 75 87
2.8840062618255615 -2.211588144302368 9.439956665039062 34 30 36
2.9454357624053955 -0.17562271654605865 9.635680198669434 85 81 96
3.1259264945983887 0.21917612850666046 10.109757423400879 91 87 98
3.1259264945983887 0.21917612850666046 10.109757423400879 91 87 98
3.1635615825653076 0.7845255732536316 9.980389595031738 13 9 13
2.3229455947875977 3.2400295734405518 7.291504859924316 109 101 100
2.650413990020752 3.1949551105499268 8.028210639953613 92 86 86
2.5937862396240234 3.1089401245117188 7.84572696685791 83 78 76
2.142388343811035 1.6914249658584595 5.965585708618164 105 99 98
-0.2291831374168396 1.1165955066680908 6.055200099945068 48 43 49
0.24917593598365784 3.259549856185913 5.765985488891602 73 66 61
-1.1644949913024902 0.3905216455459595 4.824482440948486 63 59 63
-1.2019466161727905 -0.449876606464386 4.6862406730651855 49 45 49
-0.9481510519981384 2.158827066421509 5.26261568069458 30 26 29
-0.1842004656791687 3.273979902267456 5.792629718780518 117 110 108
2.514045476913452 1.7286120653152466 9.364474296569824 61 57 61
-1.5051662921905518 -1.6357591152191162 4.1586527824401855 42 37 39
-0.8055764436721802 1.7209737300872803 5.353296756744385 32 27 31
-1.5918848514556885 0.36168625950813293 4.311000823974609 42 38 43
-1.3429592847824097 0.40278756618499756 4.623377799987793 123 117 124
-0.9022333025932312 1.316921591758728 5.081413269042969 87 82 89
-1.093133807182312 1.5429649353027344 4.978585243225098 57 52 58
-1.557811975479126 -0.4290081560611725 4.242097854614258 153 149 153
-1.5468688011169434 -0.6239387392997742 4.23769998550415 124 120 126
-0.017467904835939407 2.7146737575531006 6.474883079528809 55 50 53
-0.9243592619895935 1.3503539562225342 5.202328681945801 21 16 23
-0.7022367119789124 3.290930986404419 5.405539035797119 140 131 127
-0.3608610928058624 0.520793080329895 5.735341548919678 16 12 17
-1.2084071636199951 -0.04943440482020378 4.692598342895508 67 63 66
-1.5172959566116333 -1.4097440242767334 4.175988674163818 20 16 18
-1.0900371074676514 1.120936632156372 4.83575439453125 15 11 15
-1.5918848514556885 0.36168625950813293 4.311000823974609 42 38 43
-1.5552124977111816 -0.4499441981315613 4.217979907989502 102 99 103
-0.6006587147712708 1.7332395315170288 5.6698222160339355 16 13 16
-0.420016348361969 3.2877914905548096 5.621870517730713 116 110 108
-0.35838782787323 3.291368246078491 5.646118640899658 96 89 86
-1.4721009731292725 2.177621841430664 4.6208930015563965 39 33 37
-1.5182280540466309 -1.2352392673492432 4.188149452209473 72 67 69
-0.19928281009197235 3.274010181427002 5.706028461456299 73 66 63
-0.9455809593200684 1.7501275539398193 5.226428031921387 14 10 12
-0.9455714225769043 1.7501168251037598 5.226399898529053 14 10 12
-0.5703660845756531 0.9329272508621216 5.591601371765137 23 18 21
-1.437764286994934 1.3533817529678345 4.564106464385986 85 79 82
-0.5703701972961426 0.9329365491867065 5.591639518737793 23 18 21
-0.570351779460907 0.9328916668891907 5.591452598571777 23 18 21
-0.014596440829336643 3.2934868335723877 5.72200345993042 138 127 123
-1.4471909999847412 1.5627598762512207 4.568295478820801 27 21 24
-0.5703549385070801 0.9328961372375488 5.591470241546631 23 18 21
-1.5794111490249634 0.7577539682388306 4.271406173706055 86 80 84
-1.1983073949813843 -0.6284295916557312 4.682596683502197 91 86 90
3.144275188446045 -1.1981205940246582 9.999395370483398 17 13 17
3.1443629264831543 -1.1981455087661743 9.999706268310547 17 13 17
-1.0090194940567017 -1.2593353986740112 5.257119178771973 54 49 55
-0.25729554891586304 2.727541446685791 6.1620402336120605 23 17 19
-1.3050307035446167 2.1797146797180176 4.8183746337890625 35 31 33
-1.269608736038208 0.9616629481315613 4.76826810836792 17 10 13
-1.0456486940383911 0.5443337559700012 4.953389644622803 24 18 23
-1.2283644676208496 -0.0705016553401947 4.693511486053467 93 89 93
-0.779802143573761 1.9438618421554565 5.44643497467041 16 10 11
-0.8776700496673584 0.5464556813240051 5.129212379455566 39 34 38
-0.8723310232162476 -0.07308655232191086 5.122066020965576 109 105 107
-1.5123108625411987 -1.0000044107437134 4.705946922302246 77 77 93
3.09183669090271 -0.25335562229156494 9.699230194091797 98 95 104
-1.0692267417907715 0.7537978887557983 4.938421726226807 59 54 58
-1.0689518451690674 0.7536790370941162 4.9377923011779785 59 54 58
-1.2846789360046387 1.7681658267974854 4.807640552520752 20 14 15
0.24929587543010712 3.259050130844116 5.765194416046143 73 66 61
-0.07039421796798706 3.2344257831573486 5.5464911460876465 92 82 80
-0.3681733310222626 0.1400080770254135 5.763091564178467 35 30 34
2.704960823059082 -0.26242539286613464 9.297026634216309 28 23 33
-0.9450178742408752 1.9512991905212402 5.27918815612793 23 16 17
-1.4325159788131714 0.9605402946472168 4.569110870361328 79 74 77
-0.20181231200695038 0.15085415542125702 5.940717697143555 35 30 34
-0.43628594279289246 3.376633882522583 5.729370594024658 100 94 91
0.25527048110961914 3.285796642303467 5.955502986907959 127 118 115
-0.2806023061275482 3.2735326290130615 5.939365386962891 127 119 114
-0.7518581748008728 1.5361288785934448 5.400924205780029 46 41 45
-1.3961684703826904 0.13725101947784424 4.4899725914001465 106 101 104
-0.30407199263572693 3.2582645416259766 5.952490329742432 87 79 74
-0.6004236340522766 1.732787013053894 5.6679840087890625 16 13 16
0.08592894673347473 3.2861225605010986 6.031728744506836 39 31 29
-1.6667208671569824 2.3944900035858154 4.4062418937683105 41 36 37
-1.2255624532699585 0.1554492563009262 4.703927993774414 18 13 17
-0.8895695805549622 -0.24619854986667633 5.078407287597656 12 8 15
2.6209068298339844 -0.4529474377632141 9.323412895202637 26 21 27
-1.2073315382003784 -0.23800508677959442 4.688609600067139 85 80 84
-1.2582674026489258 1.0072394609451294 4.750864505767822 42 35 38
-1.4324856996536255 0.9605197906494141 4.569009304046631 79 74 77
-0.7466785907745361 0.744418740272522 5.400519371032715 20 15 19
-0.8744537234306335 -0.0533592589199543 5.181637763977051 30 25 28
0.9054540991783142 3.298553943634033 6.232210636138916 83 76 74
-0.9863809943199158 2.7692651748657227 5.294083595275879 50 45 46
0.05813049525022507 3.2586095333099365 6.253806114196777 151 143 139
2.6064200401306152 -0.6353871822357178 9.285463333129883 6 1 6
0.05757351964712143 3.260591506958008 6.259373188018799 151 143 139
2.467481851577759 0.28550001978874207 9.283716201782227 38 32 40
-0.7113037705421448 0.3462459146976471 5.399922847747803 50 44 48
-0.7079337239265442 0.3475489914417267 5.375990867614746 27 21 25
-0.8836906552314758 2.781886577606201 5.412190914154053 34 29 32
-0.7022436857223511 3.290945053100586 5.4055609703063965 140 131 127
-0.8478726148605347 -0.8640560507774353 5.148810863494873 47 43 44
-0.8478797674179077 -0.8640610575675964 5.148834705352783 47 43 44
-1.0550600290298462 0.3507230877876282 4.952189922332764 22 17 21
-1.596067190170288 0.5660828948020935 4.307527542114258 19 13 18
-0.8478915095329285 -0.8640764355659485 5.148906230926514 47 43 44
-1.6042530536651611 0.9772657155990601 4.3207902908325195 18 13 17
-1.025163173675537 -0.4418368339538574 4.934175491333008 144 141 145
-1.4026894569396973 0.35477781295776367 4.5176167488098145 26 20 26
2.501791477203369 -0.8307363986968994 9.182485580444336 24 19 24
-0.47262391448020935 3.3133544921875 5.472325325012207 78 72 67
0.03322465345263481 2.5201475620269775 6.529782295227051 9 7 13
2.540118455886841 0.8208814263343811 9.270047187805176 61 53 64
-0.1706225574016571 3.2317311763763428 6.034860134124756 77 71 67
0.3156481981277466 3.2821922302246094 6.017118453979492 129 120 117
-0.20690199732780457 0.6979812383651733 6.012002468109131 97 93 97
-1.0931752920150757 1.543003797531128 4.978702068328857 57 52 58
-0.5053086280822754 -0.6054697632789612 5.529149532318115 20 15 19
-1.0523228645324707 -1.6730788946151733 4.785782337188721 56 52 55
-1.2107151746749878 -0.23707354068756104 4.69561767578125 85 80 84
0.11303293704986572 3.270559310913086 5.977057456970215 124 116 114
1.9640231132507324 2.003261089324951 8.863974571228027 19 16 22
0.020128199830651283 3.302549362182617 5.801585674285889 49 39 34
0.08419575542211533 3.281230926513672 5.6648736000061035 93 84 80
-0.825673520565033 -1.4312045574188232 5.074196815490723 72 68 68
-0.38966313004493713 0.7248769402503967 5.720921993255615 94 88 93
-0.2963036298751831 3.174121618270874 5.6316633224487305 79 71 67
-0.07140461355447769 3.2918314933776855 5.739650249481201 52 42 40
-0.23331096768379211 3.272407293319702 6.154203414916992 58 49 43
-0.24719204008579254 1.711424469947815 6.068714141845703 18 14 19
0.44509589672088623 3.2437057495117188 6.018729209899902 63 54 50
-1.124504804611206 0.3844517469406128 4.734684467315674 74 69 73
-0.41975826025009155 1.7071250677108765 5.846632480621338 40 35 39
2.87813138961792 1.585037350654602 9.974372863769531 19 15 21
-0.7421231865882874 1.1662805080413818 5.461584091186523 33 28 31
0.07385464757680893 2.2851057052612305 6.510064601898193 60 54 60
-1.4265410900115967 0.913055956363678 4.534706115722656 37 32 36
-0.5234777927398682 -0.06784769147634506 5.583384037017822 20 15 19
2.5211734771728516 -1.213169813156128 9.22929859161377 18 13 17
-0.9075283408164978 1.1396795511245728 5.204917907714844 21 16 20
-0.2285619080066681 1.2816162109375 5.86915397644043 74 69 73
0.15686050057411194 3.2101237773895264 6.0873494148254395 101 95 92
-0.17853154242038727 3.287060260772705 5.792827606201172 97 90 87
-0.37336844205856323 2.730161428451538 6.016570568084717 24 18 23
0.559386670589447 3.143587350845337 6.2602715492248535 76 66 65
3.056856870651245 0.6517565250396729 10.059706687927246 19 15 26
-0.9961802959442139 2.226374864578247 5.4002861976623535 76 72 75
0.4967038631439209 0.49867117404937744 6.797861099243164 10 7 11
2.805534601211548 -0.8135713338851929 9.589223861694336 13 8 11
-1.0508990287780762 1.762855052947998 5.139349460601807 96 92 96
-0.8657454252243042 -0.08201827108860016 5.154394149780273 46 40 44
-1.4265409708023071 0.9130509495735168 4.53470516204834 37 32 36
0.43148237466812134 3.3025407791137695 5.8899245262146 123 115 111
0.25156542658805847 1.6940981149673462 6.736780166625977 9 3 8
-1.5122277736663818 -0.9999457001686096 4.705798149108887 77 77 93
1.3491640090942383 3.2075793743133545 7.472725868225098 106 97 95
0.29317978024482727 3.2729432582855225 6.034163475036621 117 107 103
-0.2018197774887085 0.15078063309192657 5.940779685974121 35 30 34
-0.09023080766201019 1.5685553550720215 6.255273342132568 17 13 20
-0.29381486773490906 2.5280370712280273 6.10940408706665 23 18 22
-1.4557515382766724 1.7561087608337402 4.592588901519775 79 75 79
-0.8167580366134644 1.664637804031372 5.37671422958374 95 89 98
-1.320612907409668 -0.018347952514886856 4.605962753295898 40 36 40
0.883718729019165 1.4821892976760864 7.5138936042785645 30 25 29
-0.05132419243454933 3.266674280166626 5.957828044891357 91 82 80
2.1118857860565186 1.762651801109314 8.904773712158203 21 16 19
-0.18535253405570984 3.2594940662384033 6.131089687347412 123 114 109
-1.0281777381896973 1.7789151668548584 5.119415760040283 123 119 123
0.17018406093120575 3.291933536529541 5.967867851257324 114 105 100
2.360121726989746 0.28918522596359253 9.164796829223633 49 45 51
-1.257463812828064 1.3931936025619507 4.8051042556762695 132 127 130
0.4099466800689697 3.2818973064422607 5.7428178787231445 112 103 99
-1.6296931505203247 1.9782756567001343 4.3999481201171875 85 80 82
-0.2876899242401123 2.729377031326294 6.157366752624512 55 49 53
-1.3394207954406738 0.40049874782562256 4.610893249511719 135 129 136
-0.8777722716331482 -0.06909381598234177 5.107177734375 98 94 97
-0.2071240395307541 -0.0516713410615921 6.040189743041992 15 10 14
-0.6822075843811035 0.5183324217796326 5.390536785125732 63 57 62
0.28887611627578735 -0.053143490105867386 6.69539213180542 15 11 15
-0.5417507886886597 0.5720488429069519 5.591986656188965 28 23 28
-0.25732624530792236 3.184673547744751 5.861252784729004 120 113 108
-0.5027568340301514 -0.463246613740921 5.547168254852295 93 87 91
-0.05580858513712883 3.1934545040130615 6.252371788024902 106 97 92
-1.5123915672302246 -0.5519605278968811 4.281589984893799 146 141 149
-0.8024601936340332 -0.8585754632949829 5.0853681564331055 31 27 28
-0.09693008661270142 3.2514729499816895 6.3184285163879395 143 134 129
0.46104466915130615 0.5207658410072327 6.860884666442871 89 86 90
-0.0853850245475769 3.316667318344116 5.875131607055664 90 83 80
-0.708012044429779 0.3475598096847534 5.376276969909668 27 21 25
2.9041590690612793 -1.5389790534973145 9.47156047821045 48 44 47
-0.031957052648067474 -0.04742298275232315 6.1403727531433105 11 6 10
-0.1950884610414505 3.178144931793213 6.003087043762207 98 90 85
2.561411142349243 0.4593690037727356 9.28238296508789 34 29 39
0.15140777826309204 3.175793409347534 6.108229160308838 109 104 101
0.2794203460216522 3.251906156539917 6.3500590324401855 119 112 109
-0.5905039310455322 3.256096839904785 5.3937907218933105 80 72 69
-0.09277640283107758 1.5210356712341309 6.296539783477783 16 11 15
-1.5814331769943237 1.1601848602294922 4.30927848815918 132 127 130
-1.4388411045074463 1.1735047101974487 4.551219463348389 75 71 76
0.34710612893104553 3.157090187072754 6.385776042938232 47 40 37
0.21245096623897552 3.2910985946655273 5.944689750671387 92 83 78
-1.1271467208862305 2.7953319549560547 5.065723896026611 35 30 33
-0.35595548152923584 -0.24854375422000885 5.778134346008301 30 25 29
1.3304784297943115 3.2087323665618896 7.554948806762695 134 125 124
-1.3201444149017334 0.394144207239151 4.544388771057129 112 106 113
-0.03770073130726814 3.306396245956421 5.667886257171631 61 52 49
-0.034588925540447235 3.2757866382598877 5.866982936859131 116 109 107
0.09263163805007935 3.285968780517578 5.8128862380981445 63 53 48
0.25858035683631897 3.2616610527038574 5.6041388511657715 73 65 59
0.19866253435611725 3.260254144668579 5.607585906982422 98 91 86
-1.648561716079712 -0.45045188069343567 4.1056928634643555 46 40 47
-0.6488205790519714 -1.2363855838775635 5.290768146514893 19 15 18
0.32889318466186523 3.2507095336914062 5.609802722930908 99 90 88
-0.3565644919872284 3.277712345123291 5.910555362701416 100 91 86
1.3595994710922241 1.6570372581481934 8.124703407287598 22 17 21
-0.7095820903778076 -0.4404084086418152 5.40433931350708 96 90 94
-1.2316937446594238 -0.2390490174293518 4.692317485809326 155 151 154
-1.2975515127182007 -0.022264203056693077 4.575414657592773 124 119 123
-1.6367844343185425 0.27488017082214355 4.176594257354736 141 130 135
0.1662716120481491 3.283655881881714 6.153021335601807 77 70 67
2.691128969192505 1.1886861324310303 9.547039985656738 87 83 94
-1.296593427658081 0.1406809389591217 4.622936725616455 108 103 110
2.2840747833251953 1.60859215259552 9.245833396911621 17 13 17
-1.4359790086746216 1.2225008010864258 4.537949085235596 28 24 31
0.020726842805743217 3.2478978633880615 6.108903884887695 42 35 32
0.5289973616600037 3.3576157093048096 5.838058948516846 65 56 52
-0.04273805022239685 3.280147075653076 5.669871807098389 69 59 55
-0.7277343273162842 2.3567123413085938 5.544973373413086 42 38 42
-0.9978894591331482 1.9780652523040771 5.165053844451904 68 63 67
-0.3010522425174713 3.3133997917175293 5.661120891571045 65 58 56
0.3219449520111084 3.248831033706665 6.554281234741211 114 106 104
-0.9186574220657349 -1.6621328592300415 4.909640312194824 45 40 42
-0.8813521862030029 -0.011539469473063946 5.057278633117676 79 76 79
2.1949329376220703 -0.8240319490432739 8.750327110290527 21 16 19
-1.3670053482055664 -0.44316181540489197 4.472685813903809 20 14 22
-2.07369065284729 -2.0387661457061768 4.905348300933838 73 68 69
-1.2696208953857422 0.9616668224334717 4.768299579620361 17 10 13
2.621021270751953 -0.4529359042644501 9.323824882507324 26 21 27
-1.505183458328247 -1.6357768774032593 4.158690452575684 42 37 39
-1.1379112005233765 2.5671093463897705 5.051814079284668 75 70 72
-1.2019519805908203 -0.4498696029186249 4.6862568855285645 49 45 49
2.5018296241760254 -0.8307657837867737 9.18265151977539 24 19 24
-1.5090813636779785 -1.460322380065918 4.169737339019775 43 36 38
-1.6042529344558716 0.9772622585296631 4.320788860321045 18 13 17
-0.7662460803985596 1.7279738187789917 5.439715385437012 14 10 12
-1.4106158018112183 1.331207275390625 4.480195045471191 47 42 45
-1.517362356185913 -1.2345666885375977 4.186722755432129 72 67 69
-1.432521104812622 0.9605446457862854 4.569122791290283 79 74 77
-0.9264029860496521 1.5414773225784302 5.244352340698242 38 33 37
-1.4377385377883911 1.3533636331558228 4.564058780670166 85 79 82
-1.2319138050079346 0.7480179071426392 4.772582530975342 28 23 24
-1.6263121366500854 1.7674628496170044 4.367114067077637 70 65 69
-0.8776971101760864 0.5464631915092468 5.129293441772461 39 34 38
-0.42376598715782166 1.5298821926116943 5.862205505371094 13 8 14
-1.6128292083740234 1.3713488578796387 4.332045078277588 87 84 88
-0.9219921827316284 1.3479639291763306 5.195443153381348 21 16 23
-0.5703526139259338 0.9328948259353638 5.591464996337891 23 18 21
-0.8055760264396667 1.7209734916687012 5.353294849395752 32 27 31
-1.432482123374939 0.960517168045044 4.569001197814941 79 74 77
-1.2758394479751587 1.5557219982147217 4.829314231872559 37 33 36
3.144216299057007 -1.1981005668640137 9.999173164367676 17 13 17
-1.591892123222351 0.36168786883354187 4.311020851135254 42 38 43
-0.9456073641777039 1.7501572370529175 5.226502418518066 14 10 12
-1.4029200077056885 0.3548826277256012 4.518042087554932 26 20 26
-1.4471884965896606 1.5627542734146118 4.568289279937744 27 21 24
-1.055077314376831 0.350728303194046 4.952232837677002 22 17 21
-1.266371488571167 0.3373934030532837 4.784456729888916 61 56 60
-1.4649791717529297 1.9746609926223755 4.5916361808776855 38 34 37
-1.0435969829559326 -0.04136143997311592 4.885008811950684 39 35 39
-0.7080109119415283 0.34757521748542786 5.376256465911865 27 21 25
-0.45246678590774536 3.270914316177368 5.69302225112915 55 48 46
-0.2938023507595062 2.5279998779296875 6.109328746795654 23 18 22
-0.09086577594280243 3.2765321731567383 5.722412586212158 127 119 117
-0.22735944390296936 3.2848236560821533 5.74108362197876 54 47 44
-1.3313140869140625 2.795414447784424 4.859020709991455 15 11 14
0.5971847772598267 3.3099722862243652 5.792105674743652 61 52 50
-1.4221386909484863 -1.6625381708145142 4.29162073135376 58 53 54
-1.5172916650772095 -1.4097411632537842 4.175981521606445 20 16 18
0.16726340353488922 3.297018527984619 5.801884651184082 85 77 72
0.2516234219074249 3.2440364360809326 5.741037845611572 93 85 80
-0.19698695838451385 3.295025110244751 5.832217216491699 120 113 110
-0.326736181974411 -0.438671350479126 5.779974937438965 20 17 21
-0.8147934079170227 -1.469470739364624 5.158989906311035 34 28 29
0.08415091037750244 3.2977540493011475 6.050014972686768 39 31 29
0.33786964416503906 3.3110835552215576 5.709850788116455 74 64 62
-0.7668772339820862 1.3169788122177124 5.403580188751221 65 60 66
0.2414064109325409 1.4891672134399414 6.6281867027282715 13 9 14
0.29571545124053955 3.2779898643493652 5.8632073402404785 45 35 34
0.6362417340278625 3.254518985748291 5.811863899230957 86 76 72
-0.6441702246665955 -1.2313117980957031 5.274014472961426 19 15 18
-0.6287597417831421 2.749053716659546 5.706175327301025 15 11 13
-0.16944557428359985 3.233961820602417 5.811944484710693 46 40 36
-1.5586448907852173 -0.9699994921684265 4.436853885650635 26 27 48
-0.218971386551857 0.7045817375183105 6.081274509429932 85 81 84
-1.5123143196105957 -1.0000065565109253 4.705952167510986 77 77 93
-1.5122188329696655 -0.9999390840530396 4.705780982971191 77 77 93
-0.4524618089199066 3.2709920406341553 5.693137168884277 82 75 72
0.006001709029078484 3.2273998260498047 5.835672855377197 120 111 108
-0.4524596929550171 3.270908832550049 5.693009853363037 55 48 46
-0.28058716654777527 3.2734999656677246 5.939305305480957 127 119 114
-1.5746568441390991 -0.8354763388633728 4.175767421722412 117 113 118
0.29160410165786743 3.2825489044189453 5.978314399719238 122 113 110
0.3388242721557617 3.2662463188171387 6.01569128036499 109 99 95
-0.25813350081443787 3.187410593032837 5.865708351135254 120 113 108
2.1846117973327637 0.44982054829597473 8.582719802856445 64 59 65
1.6779963970184326 -0.26623156666755676 8.188468933105469 29 24 28
-0.16074210405349731 3.289846181869507 6.023353099822998 79 73 69
-0.8478713035583496 -0.864054799079895 5.14880895614624 47 43 44
-0.43067046999931335 2.510453224182129 5.8918070793151855 48 43 47
2.8737847805023193 -1.6033995151519775 9.639198303222656 36 33 36
2.7008044719696045 0.3206723928451538 10.158846855163574 80 75 84
2.87380313873291 -1.6034120321273804 9.63925838470459 36 33 36
-0.8225338459014893 -0.8377695679664612 5.143694877624512 121 117 120
0.012129728682339191 3.216865062713623 5.952922344207764 56 47 45
-0.2937992513179779 2.5279836654663086 6.109297752380371 23 18 22
0.3108953535556793 3.2606756687164307 6.043985843658447 138 128 124
0.28239011764526367 3.269183874130249 6.075745105743408 114 104 100
0.06867707520723343 3.2706849575042725 6.068258762359619 70 62 60
-0.14799658954143524 3.242741107940674 6.0124921798706055 141 134 131
-0.24720226228237152 1.711459755897522 6.068856239318848 18 14 19
0.3224417567253113 3.2604522705078125 6.0551066398620605 51 41 37
-1.443103551864624 1.2225807905197144 4.5482964515686035 36 31 38
-0.17062458395957947 3.231656551361084 6.034731864929199 77 71 67
2.405191659927368 0.0975322350859642 9.034507751464844 14 9 14
-1.273450255393982 1.3589645624160767 4.7892351150512695 21 16 20
-1.588800311088562 1.162333607673645 4.327630996704102 162 157 159
-0.9253265261650085 2.1076884269714355 5.136882781982422 60 55 59
-0.7374386787414551 1.1657100915908813 5.449826240539551 50 45 48
-0.9863818883895874 2.769266366958618 5.294086456298828 50 45 46
-0.49347224831581116 -0.6273414492607117 5.475454330444336 27 22 26
0.15214228630065918 3.188688278198242 6.132636547088623 98 93 90
-0.055781472474336624 3.1938822269439697 6.253110408782959 106 97 92
2.5741477012634277 1.967531442642212 9.596846580505371 14 11 18
-0.7609812617301941 1.145322322845459 5.400996685028076 30 24 28
-0.14823876321315765 3.302039384841919 5.6222453117370605 141 133 128
-1.1184698343276978 2.5496954917907715 5.0165252685546875 109 103 106
2.2989447116851807 2.0041396617889404 9.321468353271484 58 53 58
0.555380642414093 3.281379461288452 6.509969234466553 41 33 31
-1.0589599609375 -0.44509994983673096 4.968188285827637 83 79 85
0.08923619240522385 1.27043879032135 6.285029411315918 65 62 66
-0.43784764409065247 3.3965671062469482 5.7608208656311035 106 100 97
2.8052589893341064 -0.8134840726852417 9.588274002075195 13 8 11
-1.6263197660446167 1.7674691677093506 4.367122650146484 70 65 69
-0.682327151298523 -0.42928963899612427 5.309910774230957 52 46 49
-1.0931531190872192 1.5429764986038208 4.978640079498291 57 52 58
-0.32672831416130066 -0.4386533200740814 5.779738426208496 20 17 21
-0.9847328662872314 2.581228256225586 5.259589195251465 23 17 20
-0.6288625001907349 2.7492313385009766 5.706507205963135 15 11 13
-0.5532380938529968 0.5835483074188232 5.655501842498779 76 71 76
-0.9021941423416138 1.3168805837631226 5.081299781799316 87 82 89
0.7547538876533508 3.2206645011901855 6.7169108390808105 105 96 94
0.22972705960273743 2.697874069213867 6.776782035827637 16 11 14
0.8135834336280823 3.245598554611206 6.790004730224609 90 80 78
-1.5985444784164429 0.40115877985954285 4.276857376098633 47 44 51
-0.036988452076911926 3.290970802307129 5.637820243835449 70 61 58
-1.1397701501846313 -0.24648317694664001 4.793251991271973 21 17 20
-0.8593818545341492 -0.23392735421657562 4.90464448928833 22 17 23
-1.3050212860107422 2.1797051429748535 4.818355560302734 35 31 33
2.8199656009674072 -0.4376034736633301 9.590149879455566 128 123 131
-1.2976590394973755 0.4193347096443176 4.623664379119873 113 108 114
-1.6474106311798096 1.96432626247406 4.354169845581055 44 39 42
-1.624595284461975 1.414238452911377 4.3892436027526855 70 65 69
-0.6385900378227234 2.5590245723724365 5.7089409828186035 25 20 24
-1.3429681062698364 0.402791827917099 4.623408317565918 123 117 124
-0.907521665096283 1.1396803855895996 5.20488977432251 21 16 20
-0.25728315114974976 2.7275028228759766 6.161964416503906 23 17 19
-1.3879696130752563 1.140594482421875 4.457220554351807 102 98 104
-1.678742527961731 2.6244804859161377 4.395292282104492 30 26 28
-0.8512651324272156 -0.0804135873913765 5.0916876792907715 39 33 37
-0.5052446126937866 -0.07252226769924164 5.537084579467773 93 89 92
-0.09025237709283829 1.5686097145080566 6.255446434020996 17 13 20
-1.2082557678222656 -0.049430862069129944 4.692253589630127 67 63 66
1.3146429061889648 3.2408463954925537 7.487734317779541 85 75 73
-0.8746556043624878 -0.05336039885878563 5.182199001312256 30 25 28
-1.4649797677993774 1.9746605157852173 4.5916361808776855 38 34 37
-0.16957831382751465 3.282559633255005 5.642209529876709 116 110 106
-1.0435984134674072 -0.04136114567518234 4.885010719299316 39 35 39
-1.1834243535995483 0.3973586857318878 4.867436408996582 111 107 111
-0.4336155354976654 2.4909839630126953 5.902961730957031 82 78 81
-0.4142073392868042 3.284942865371704 5.648399829864502 127 120 117
-1.095263123512268 1.157791018486023 4.987547397613525 78 73 76
-0.9455996751785278 1.7501484155654907 5.226480484008789 14 10 12
2.6739323139190674 0.43870994448661804 9.230863571166992 18 13 23
-0.7709900140762329 0.2590457499027252 5.260578632354736 121 115 122
2.5225086212158203 0.5166778564453125 9.911163330078125 91 86 95
-0.7785919904708862 1.97163724899292 5.449039459228516 21 17 17
-1.2353761196136475 0.3518877327442169 4.744828224182129 21 16 19
2.5137131214141846 1.7283366918563843 9.362975120544434 61 57 61
0.03321533650159836 2.5206923484802246 6.530986309051514 9 7 13
-0.34751754999160767 0.33623239398002625 5.673985481262207 86 80 84
2.514599561691284 1.7290573120117188 9.367121696472168 61 57 61
-0.3686069846153259 0.3673076033592224 5.753476142883301 20 15 19
3.056920289993286 0.6517733335494995 10.059950828552246 19 15 26
-1.6367607116699219 0.27487602829933167 4.176549434661865 141 130 135
0.38299500942230225 2.689683198928833 6.983429908752441 72 67 74
2.7462158203125 0.6434882283210754 9.599040985107422 45 41 51
0.49670398235321045 0.498670756816864 6.797857284545898 15 11 15
-1.050970196723938 1.7629284858703613 5.1395368576049805 96 92 96
1.9640005826950073 2.003236770629883 8.863870620727539 19 16 22
0.28841134905815125 0.12206704169511795 6.599580764770508 25 21 26
-0.12394005805253983 3.348175048828125 5.958395957946777 120 113 111
-1.0970710515975952 1.7236655950546265 5.012571811676025 58 54 57
-0.3005695641040802 3.284186840057373 5.7186431884765625 41 34 32
2.89443039894104 0.5042117238044739 9.812596321105957 46 41 54
0.22972284257411957 2.6978960037231445 6.776834487915039 16 11 14
-0.8223004937171936 -0.8745740652084351 5.146403789520264 68 63 65
-0.19284836947917938 3.2578988075256348 5.6775221824646 89 82 80
-1.3730437755584717 2.7944328784942627 4.764081001281738 43 38 41
-1.0194957256317139 -1.4567536115646362 5.246238708496094 66 62 64
2.310694932937622 0.09710855036973953 8.992602348327637 17 12 17
-1.457541823387146 2.1344892978668213 4.580869197845459 90 84 88
-0.3596489429473877 -0.03916218876838684 5.69800329208374 94 89 94
-0.09380721300840378 3.290086030960083 5.564600944519043 69 60 56
-1.1484920978546143 0.38794833421707153 4.8349761962890625 50 46 50
-0.5972956418991089 1.9032492637634277 5.669773578643799 21 16 18
-0.5495891571044922 0.9570233821868896 5.6152262687683105 53 48 51
0.5439455509185791 3.242018461227417 6.458876609802246 111 101 100
-1.7170076370239258 1.572973370552063 4.26748514175415 134 129 130
-0.7411171197891235 0.7417852282524109 5.382012367248535 16 10 15
