ply
format ascii 1.0
element vertex 719
property float x
property float y
property float z
property uchar red
property uchar green
property uchar blue
end_header
2.5190768241882324 0.5313714146614075 5.732877731323242 126 119 104
0.5402252674102783 4.095027923583984 7.803433895111084 98 92 87
2.5655224323272705 0.3404843509197235 5.569051265716553 69 64 53
-3.9136674404144287 2.650442123413086 17.51849937438965 18 11 8
2.5116121768951416 0.3210913836956024 5.717627048492432 110 103 89
-3.294217348098755 -3.440828323364258 17.642210006713867 136 132 131
-3.914064407348633 2.6506271362304688 17.5198917388916 18 11 8
-2.8585493564605713 2.659492015838623 17.382347106933594 82 66 50
-0.06837879866361618 4.261497497558594 7.494615077972412 63 56 51
-0.16298410296440125 4.257711887359619 7.490457534790039 97 91 86
-2.8580093383789062 2.65901780128479 17.37911605834961 82 66 50
-3.678424596786499 2.6748206615448 17.183881759643555 77 72 69
-3.7619712352752686 2.7309741973876953 17.074146270751953 164 159 156
1.518591284751892 -0.08516036719083786 5.972185134887695 40 31 25
1.0954129695892334 1.0872628688812256 6.498887538909912 23 18 20
1.0955127477645874 1.0873351097106934 6.499251365661621 23 18 20
1.0641977787017822 -0.6832306981086731 6.184994220733643 20 15 17
0.05883436277508736 4.2350664138793945 7.528892517089844 143 138 134
0.07155883312225342 4.2500176429748535 7.56085729598999 165 159 155
1.5803738832473755 1.0907083749771118 6.244816303253174 153 147 135
1.4768997430801392 -1.5636996030807495 5.790159702301025 98 91 83
2.4387800693511963 0.2827506363391876 6.136064529418945 67 60 48
-8.114578247070312 -2.911374092102051 31.130048751831055 99 95 103
-0.1850525587797165 4.08212947845459 8.901252746582031 94 88 84
-0.23381394147872925 4.1419677734375 7.672809600830078 136 130 125
1.1998823881149292 -1.508760929107666 5.667577266693115 152 148 147
1.1897125244140625 -3.0563321113586426 5.553257942199707 74 69 67
1.1897118091583252 -3.056326389312744 5.5532546043396 74 69 67
1.1843465566635132 -1.5203046798706055 5.63523530960083 103 99 98
-3.7968568801879883 -0.04331650212407112 17.801803588867188 225 219 211
-4.7820611000061035 -2.664825439453125 21.911760330200195 41 40 52
1.1827445030212402 -1.552176833152771 5.641177654266357 102 99 100
-0.13806404173374176 4.157614707946777 8.301233291625977 81 72 67
-3.2686381340026855 1.256980299949646 17.58138084411621 52 46 41
-4.786445140838623 -2.665126085281372 21.93202018737793 129 129 141
-0.47834184765815735 4.158299922943115 8.24737548828125 146 139 134
2.4749276638031006 0.8168436884880066 6.124924182891846 131 122 107
-8.258005142211914 -2.6692557334899902 31.669116973876953 105 102 109
0.511519730091095 4.152046203613281 7.973827362060547 151 143 140
1.0792407989501953 1.3471240997314453 6.5776848793029785 118 116 118
-0.2050856053829193 4.124298095703125 8.208818435668945 168 162 157
2.479088306427002 0.8128093481063843 6.142589092254639 99 91 76
1.0971076488494873 -2.7089715003967285 5.655399322509766 86 81 80
-0.6262865662574768 4.246521949768066 7.677999019622803 56 50 45
0.7639914155006409 -1.0858213901519775 6.99782133102417 40 35 36
1.255462408065796 1.440021276473999 6.184473514556885 140 134 138
0.6330580711364746 0.0643233209848404 7.5833330154418945 120 115 117
0.4627372622489929 4.224490165710449 7.6914143562316895 144 138 135
1.4980915784835815 -0.9826112985610962 5.891362190246582 62 53 46
-3.6346609592437744 -0.002217343542724848 17.62214469909668 164 151 143
1.6305073499679565 3.467378854751587 6.603391647338867 95 89 78
-0.6758049130439758 4.162745952606201 8.28734016418457 127 119 115
1.5734275579452515 0.2522496283054352 6.121847629547119 54 47 32
-0.28029289841651917 4.066069602966309 8.74807071685791 150 142 138
1.2515919208526611 1.4646096229553223 6.160755157470703 151 145 150
0.05950116738677025 0.7215708494186401 9.210918426513672 66 60 65
-0.5574638843536377 4.257379531860352 7.628695011138916 97 91 86
-0.2720186710357666 4.074027061462402 8.694640159606934 142 134 128
1.4641838073730469 -2.431455612182617 5.66523551940918 122 115 106
1.5926640033721924 2.32208251953125 6.49992561340332 67 60 54
0.07849570363759995 4.2127251625061035 7.688999176025391 58 49 45
0.6192593574523926 4.2300872802734375 7.587580680847168 72 66 64
2.4776241779327393 0.04325708746910095 6.067153453826904 147 139 122
0.10926202684640884 4.039751052856445 8.71652889251709 143 136 132
2.4569711685180664 0.027815524488687515 6.102325916290283 96 91 73
-0.5882601737976074 4.166532516479492 7.8431172370910645 162 155 151
1.0642037391662598 -0.6832281947135925 6.185009956359863 20 15 17
0.19614969193935394 4.1972270011901855 7.8421950340271 160 154 150
2.49311900138855 0.49845147132873535 6.041762828826904 136 130 116
1.2559353113174438 1.7383108139038086 6.23464822769165 107 103 105
0.22763818502426147 4.138916015625 8.31389331817627 147 141 138
0.5468167662620544 4.128641128540039 7.7470703125 117 111 107
0.04474122077226639 4.303593635559082 7.643749237060547 124 118 114
-3.8382043838500977 2.9467287063598633 17.27027702331543 56 50 47
2.5012919902801514 1.0473201274871826 6.202998638153076 112 108 94
-14.277494430541992 -3.219902753829956 30.028329849243164 26 22 27
-0.012638160027563572 4.215110778808594 7.336515426635742 122 114 110
-0.8122548460960388 3.824920177459717 9.721177101135254 119 112 106
-0.1322719305753708 4.313958168029785 7.663017272949219 119 114 109
1.255648136138916 2.050086259841919 6.264296054840088 96 91 92
1.4708667993545532 0.5368874669075012 6.148458480834961 142 136 130
-0.5530349612236023 4.3231024742126465 7.404549598693848 118 110 104
1.260162353515625 2.949763059616089 6.429006099700928 102 101 101
-2.5895347595214844 2.6581342220306396 16.85993003845215 126 103 79
-4.787291526794434 -1.5262281894683838 22.148597717285156 82 81 92
-4.418522834777832 2.8551509380340576 18.089458465576172 20 14 9
-3.444448709487915 2.696197986602783 17.218769073486328 108 102 100
-0.928185224533081 4.256686687469482 7.543193340301514 101 94 87
-0.2244914025068283 4.242176055908203 7.470238208770752 119 113 107
-0.3386995494365692 4.277789115905762 7.296993732452393 95 90 84
0.03634881228208542 4.246260166168213 7.463932037353516 154 149 144
-3.470060110092163 2.5223822593688965 17.18565559387207 29 22 18
-0.16279186308383942 4.259368419647217 7.491243362426758 97 91 86
-2.697239398956299 -3.6823158264160156 15.95621109008789 28 23 25
0.3681716322898865 4.267639636993408 8.630341529846191 139 131 127
1.4971370697021484 -0.3586233854293823 5.969837188720703 57 49 43
0.036983612924814224 -0.4345802664756775 9.057669639587402 104 98 100
1.57457435131073 0.8900275230407715 6.2090301513671875 112 105 91
-14.278080940246582 -2.6351561546325684 30.12188720703125 85 81 87
1.038712501525879 -1.2824493646621704 5.989620685577393 123 121 121
-0.2279505580663681 4.051588535308838 8.574105262756348 172 164 158
0.01754060387611389 4.207638263702393 7.469610691070557 123 117 113
0.4962618350982666 4.137074947357178 8.087098121643066 98 91 87
1.2005279064178467 -0.3290253281593323 5.93310022354126 56 54 55
-0.03604847565293312 4.109682559967041 8.192885398864746 106 100 95
1.2601584196090698 2.949726104736328 6.4289350509643555 102 101 101
0.1927449256181717 -0.6819668412208557 8.597257614135742 32 27 32
-0.16102340817451477 4.359052658081055 7.219935417175293 105 100 95
-14.27747917175293 -3.2198994159698486 30.02829933166504 26 22 27
-14.065677642822266 -2.8837671279907227 29.635112762451172 76 71 76
1.4456466436386108 -0.06491795182228088 6.006590366363525 165 161 159
-0.11858224868774414 4.2541351318359375 7.5669050216674805 89 84 79
0.05452681705355644 4.147688865661621 7.786409854888916 149 140 135
-3.3933534622192383 2.942216396331787 17.01750946044922 39 35 33
2.4652323722839355 0.8445394039154053 6.198918342590332 136 124 109
-0.0713457241654396 4.2749810218811035 7.153113842010498 138 132 127
-14.277985572814941 -2.6351377964019775 30.121700286865234 85 81 87
0.5101516842842102 4.163909435272217 7.487170219421387 67 61 58
-0.10037858039140701 4.156401634216309 8.046826362609863 53 44 40
1.6305099725723267 3.467381715774536 6.603396415710449 95 89 78
0.047670878469944 4.22326135635376 7.568207263946533 128 123 118
-0.24249301850795746 4.202216148376465 7.97586727142334 157 150 146
1.07258141040802 2.2528574466705322 6.783135890960693 127 123 124
1.036684274673462 -1.2422845363616943 6.143418788909912 51 50 52
0.018784279003739357 4.240034103393555 7.541922092437744 81 75 71
0.4518880546092987 4.1957316398620605 8.40038776397705 115 108 103
0.3267916440963745 4.159886360168457 8.765348434448242 53 47 42
0.7726616859436035 4.224531173706055 7.472795486450195 64 58 55
1.191698670387268 -0.09413409233093262 5.881899833679199 56 51 56
2.44278621673584 0.3897724747657776 6.254710674285889 105 97 81
2.3115055561065674 0.16151709854602814 6.194211959838867 91 85 70
-0.3067898452281952 4.107539176940918 8.535585403442383 148 141 136
-14.996423721313477 -4.357161998748779 31.93914794921875 40 37 42
1.6094096899032593 3.1809439659118652 6.548558235168457 60 55 44
1.1861742734909058 -1.2050809860229492 5.74265718460083 95 96 99
-1.1181527376174927 3.802346706390381 10.755208015441895 172 164 157
-6.790382385253906 -6.738962173461914 18.288034439086914 223 195 176
1.0091389417648315 -2.191641092300415 6.008067607879639 150 148 147
1.0552252531051636 -1.2329168319702148 5.898484230041504 125 126 126
-0.04307865723967552 4.168492317199707 7.7607197761535645 125 119 114
1.0185415744781494 -1.3201810121536255 6.179230213165283 62 60 60
1.492301344871521 -1.268353819847107 5.908443450927734 98 92 83
-0.012641740962862968 4.215175151824951 7.336636066436768 122 114 110
2.4776155948638916 0.04325687885284424 6.067121505737305 147 139 122
1.1841912269592285 -2.9868674278259277 5.428858757019043 112 107 105
-8.081965446472168 -4.054861545562744 30.751558303833008 25 19 21
1.5205159187316895 -0.38602593541145325 5.978706359863281 114 106 93
1.0559016466140747 -0.033022504299879074 6.337601184844971 16 11 13
1.495550274848938 -2.7484772205352783 5.632345199584961 110 101 86
0.9113317131996155 -1.3345834016799927 6.507660865783691 120 116 118
1.5182650089263916 -0.08515394479036331 5.970885753631592 40 31 25
-0.55086749792099 4.314027786254883 7.235564708709717 69 62 56
-8.030871391296387 -4.609415531158447 30.529869079589844 26 20 25
0.22453057765960693 4.270662784576416 7.312877655029297 74 67 61
-0.16300055384635925 4.257817268371582 7.49064302444458 97 91 86
2.5542497634887695 0.3890654444694519 5.575547218322754 119 114 104
-0.16301076114177704 4.2578043937683105 7.490607261657715 97 91 86
-12.779199600219727 -4.250657081604004 27.497737884521484 78 72 69
0.6031837463378906 4.325235366821289 7.770275592803955 128 122 120
1.0971758365631104 1.375879168510437 6.550863265991211 98 95 97
-8.114908218383789 -2.909522533416748 31.131338119506836 96 93 100
-8.854500770568848 -6.151638507843018 32.420196533203125 201 196 198
0.7639920115470886 -1.0858228206634521 6.997836112976074 40 35 36
0.7639982104301453 -1.085831880569458 6.997886657714844 40 35 36
0.6593517065048218 1.5210938453674316 7.784772872924805 95 90 89
-1.1480317115783691 2.332310438156128 12.79794979095459 92 87 87
0.7530335783958435 -0.49150291085243225 6.951326847076416 32 28 27
-3.265350818634033 -4.363765239715576 17.228256225585938 34 29 34
1.042140007019043 -2.1823437213897705 5.990780830383301 119 117 116
1.5803807973861694 1.0907061100006104 6.244848728179932 153 147 135
-9.024392127990723 -6.121619701385498 33.16734313964844 39 34 36
1.0721077919006348 0.7518341541290283 6.43861198425293 70 65 65
0.03198469802737236 4.284244060516357 7.214419841766357 101 94 91
-3.838189125061035 2.9466991424560547 17.270235061645508 56 50 47
2.501304864883423 1.0473260879516602 6.203049182891846 112 108 94
-9.025084495544434 -6.122018814086914 33.16962432861328 39 34 36
1.0954173803329468 1.0872750282287598 6.498958587646484 23 18 20
1.5181816816329956 -1.876227855682373 5.775313377380371 105 96 83
-3.8503785133361816 2.793156862258911 17.44929313659668 161 156 152
-0.2821219861507416 4.076168060302734 8.776575088500977 142 134 130
-2.858423948287964 2.659381628036499 17.3815860748291 82 66 50
-8.2555513381958 -2.6684794425964355 31.6607666015625 105 102 109
2.493694543838501 0.8637163639068604 6.162015914916992 172 166 153
0.22453050315380096 4.270646095275879 7.312841892242432 74 67 61
2.4782466888427734 0.8136516809463501 6.139101982116699 99 91 76
2.4790613651275635 0.8128045201301575 6.142527103424072 99 91 76
-8.06980037689209 -3.766284942626953 30.775714874267578 28 23 26
1.572676420211792 0.8040392398834229 6.19696569442749 84 79 66
0.21557602286338806 4.368372440338135 7.283116817474365 123 117 112
1.2601627111434937 2.9497673511505127 6.429014205932617 102 101 101
0.19822534918785095 1.0488051176071167 8.95199203491211 38 36 39
2.654313564300537 0.66483074426651 5.749451160430908 82 77 65
0.8040924668312073 2.467076063156128 7.546785354614258 109 105 105
2.4936437606811523 0.6470797061920166 5.764882564544678 97 93 80
-8.099472045898438 -3.4784610271453857 30.93193817138672 100 95 101
2.4443938732147217 0.5359588861465454 6.027158260345459 113 108 94
-9.54857063293457 -5.501375198364258 34.0650634765625 121 115 121
1.462803602218628 -0.9485061764717102 5.862833023071289 147 142 140
1.5456650257110596 0.5224378705024719 6.115387916564941 162 155 141
1.11093008518219 -0.9952735900878906 6.04275369644165 56 52 52
1.086829662322998 0.4919056296348572 6.415381908416748 32 27 28
1.086845874786377 0.49193060398101807 6.415830135345459 32 27 28
0.49521124362945557 0.585328996181488 8.062883377075195 108 103 104
-3.268528938293457 1.2569572925567627 17.580936431884766 52 46 41
-12.567511558532715 -8.320170402526855 32.71458053588867 191 159 144
2.5655412673950195 0.3404967486858368 5.569116592407227 69 64 53
2.511601209640503 0.3210991322994232 5.717599391937256 110 103 89
2.4413535594940186 0.3111339509487152 6.2198076248168945 59 51 38
-14.364253044128418 -4.764407634735107 30.635908126831055 56 49 49
0.24216046929359436 4.093362331390381 8.159337997436523 150 144 141
-0.06668359786272049 4.343712329864502 7.481495380401611 172 165 160
2.439513683319092 0.2836647927761078 6.138764381408691 67 60 48
0.24658159911632538 4.310060977935791 8.467100143432617 108 102 99
-3.039397716522217 -2.9374239444732666 17.089780807495117 15 10 16
-2.696378469467163 -3.681112051010132 15.951086044311523 28 23 25
-7.651728630065918 -5.101189136505127 28.760770797729492 35 28 30
0.04514472186565399 4.297118663787842 7.628491401672363 120 115 111
-4.710155487060547 -3.7840933799743652 21.49700927734375 40 40 48
1.5896378755569458 1.6977523565292358 6.347787857055664 97 90 78
-4.069157600402832 0.17907512187957764 17.51335906982422 63 46 36
-3.809603691101074 0.18916581571102142 17.408126831054688 93 81 76
0.7585587501525879 -1.6781140565872192 6.856451034545898 117 113 113
2.443122148513794 -0.10576938092708588 6.036965847015381 192 185 168
1.0794594287872314 1.349475383758545 6.591113567352295 118 116 118
0.06880080699920654 4.24128532409668 7.547430515289307 165 160 156
1.1992720365524292 -0.32656750082969666 5.904236316680908 62 60 61
-0.025472505018115044 4.200372219085693 7.60394811630249 97 93 90
-3.4703428745269775 2.5225937366485596 17.186748504638672 29 22 18
0.9434828162193298 1.0322941541671753 6.895622253417969 157 152 157
1.1897060871124268 -3.056314468383789 5.553230285644531 74 69 67
-3.306124448776245 -3.454479217529297 17.690786361694336 141 136 135
0.47767022252082825 4.286996364593506 7.261875629425049 76 71 68
-3.6782386302948 2.674692392349243 17.183116912841797 77 72 69
1.040566086769104 -1.2470077276229858 6.109842777252197 73 72 73
0.9592857360839844 2.5270187854766846 7.117290496826172 68 63 64
1.1769367456436157 -2.75225567817688 5.490992069244385 108 102 104
0.6330181956291199 0.06438133865594864 7.584297180175781 120 115 117
1.184977412223816 -1.2062674760818481 5.728122711181641 57 58 61
-0.06991355121135712 4.21485710144043 7.371491432189941 86 78 74
-4.760193824768066 -4.63754940032959 21.396703720092773 70 68 78
-0.9167163968086243 3.8348162174224854 10.468864440917969 152 144 139
1.2127009630203247 -0.3164439797401428 5.861800193786621 56 52 57
-4.690240383148193 -4.910873889923096 21.197477340698242 72 71 81
2.4569637775421143 0.02780536375939846 6.102306365966797 96 91 73
1.0257128477096558 -2.436049461364746 5.923242092132568 108 106 106
-4.842035293579102 -2.111269950866699 22.24225425720215 78 78 90
0.7585657835006714 -1.6781072616577148 6.856494426727295 117 113 113
2.4569637775421143 0.02780492603778839 6.102306365966797 96 91 73
2.4569711685180664 0.027815524488687515 6.102325916290283 96 91 73
-3.2652902603149414 -4.363661766052246 17.228012084960938 34 29 34
-4.7865753173828125 -2.665205717086792 21.932510375976562 129 129 141
1.0636073350906372 -1.5927371978759766 6.089492321014404 52 48 47
1.0636351108551025 -1.5927956104278564 6.089711666107178 52 48 47
-4.293481349945068 -4.261843204498291 11.56344223022461 211 182 163
1.2054284811019897 -1.5155872106552124 5.697863578796387 156 152 152
0.1866474747657776 4.294951915740967 7.188783168792725 72 66 61
0.12216322869062424 4.1588945388793945 7.7607293128967285 76 70 65
-8.010946273803711 -4.30264139175415 30.46761703491211 69 63 68
-0.18901684880256653 4.214913368225098 7.909219741821289 118 112 107
0.909885823726654 -0.7312102913856506 6.4844889640808105 48 42 43
0.41045477986335754 4.181567192077637 7.652929782867432 125 119 118
0.33163851499557495 4.140707969665527 8.027994155883789 79 74 70
1.462853193283081 -0.9485387802124023 5.8630499839782715 147 142 140
0.616522490978241 -0.8349153399467468 7.401579856872559 99 94 95
0.059500716626644135 0.7215719819068909 9.210923194885254 66 60 65
-14.85615062713623 -3.466322898864746 31.991849899291992 149 145 151
2.3161067962646484 0.2264108806848526 6.239992141723633 156 149 133
1.5661652088165283 0.2861843705177307 6.0953145027160645 60 53 37
-7.396186351776123 -6.760486125946045 18.222753524780273 218 189 171
0.3548235595226288 4.114406108856201 8.322093963623047 127 120 116
0.4759017527103424 4.2230634689331055 7.474855899810791 150 144 141
-0.09182684123516083 4.037679195404053 8.614106178283691 133 127 123
-0.7432905435562134 4.353610515594482 7.553040981292725 60 52 47
0.4459114670753479 4.37629508972168 7.95113468170166 126 121 118
-0.7899670004844666 3.8939247131347656 10.0360689163208 124 116 110
1.5616612434387207 2.551252841949463 6.3524041175842285 120 113 106
1.053770661354065 -1.2631826400756836 6.055883884429932 148 147 147
2.6574199199676514 0.5795601010322571 5.718796253204346 127 121 108
1.111011028289795 -0.9953587055206299 6.043241500854492 56 52 52
-0.5743585824966431 4.2707414627075195 7.256625175476074 136 129 122
-0.4756183326244354 4.243554592132568 7.422367095947266 142 136 130
2.442790985107422 0.3897753953933716 6.254729270935059 105 97 81
-3.9139013290405273 2.6505613327026367 17.519306182861328 18 11 8
-3.4703292846679688 2.522585153579712 17.18670082092285 29 22 18
2.4494097232818604 0.7766583561897278 6.163300037384033 155 147 131
0.616517186164856 -0.8349186182022095 7.401751518249512 99 94 95
1.1832528114318848 -2.783618450164795 5.651531219482422 91 87 87
0.5456728935241699 4.135331153869629 7.877313137054443 139 133 128
1.2103681564331055 -1.5046557188034058 5.695913314819336 27 22 22
-0.5574650168418884 4.257424831390381 7.628778457641602 97 91 86
-0.09699881821870804 0.9558321833610535 9.754295349121094 57 53 57
0.1823401153087616 4.124876499176025 7.818727970123291 141 135 131
1.6268471479415894 3.501941680908203 6.603444576263428 52 46 37
-0.3711297810077667 4.29022216796875 7.158252716064453 133 126 121
0.08352454006671906 4.196186542510986 7.650196075439453 59 50 45
-4.418518543243408 2.8551487922668457 18.089445114135742 20 14 9
0.8344889879226685 -3.158478021621704 6.346138000488281 50 45 46
1.5206669569015503 -0.38611993193626404 5.9793267250061035 114 106 93
1.2559425830841064 1.7383222579956055 6.234696388244629 107 103 105
0.31181633472442627 4.089132308959961 8.385452270507812 137 129 125
0.4764721989631653 -0.5823832750320435 7.8438401222229 102 97 99
0.01877632364630699 4.240077972412109 7.541989803314209 81 75 71
0.19448064267635345 4.164765357971191 7.777412414550781 154 148 144
-0.094610296189785 4.153348445892334 8.162480354309082 90 81 77
-9.236446380615234 -5.395373821258545 34.13475036621094 71 65 70
1.5713880062103271 0.2513740062713623 6.102803707122803 86 79 64
-0.4783344864845276 4.158281326293945 8.247336387634277 146 139 134
1.071685791015625 -0.9859006404876709 6.187431335449219 129 124 125
-0.13259758055210114 4.3172526359558105 7.66666316986084 119 114 109
-0.7431685328483582 4.352865219116211 7.551771640777588 60 52 47
-1.286062479019165 -1.446727991104126 12.268457412719727 88 81 80
1.034043788909912 -0.9812402725219727 5.9729814529418945 83 79 80
2.5083534717559814 0.7786523103713989 6.170455455780029 86 79 63
0.6720895767211914 -3.010953426361084 8.041549682617188 63 58 56
0.32687294483184814 4.15950870513916 8.764595985412598 53 47 42
2.4877052307128906 0.2906549274921417 5.729912757873535 69 62 47
1.26016366481781 2.9497766494750977 6.4290385246276855 102 101 101
1.1897063255310059 -3.056314468383789 5.5532307624816895 74 69 67
2.4555740356445312 0.53987056016922 6.07003116607666 137 131 117
1.3239485025405884 -2.920290231704712 5.530235767364502 85 81 80
1.5538249015808105 -2.8290586471557617 5.48714017868042 79 72 59
1.176938533782959 -2.75225567817688 5.490999221801758 108 102 104
0.8344799876213074 -3.158742666244507 6.346620082855225 50 45 46
1.1572768688201904 -2.7218215465545654 5.528042316436768 47 43 43
1.5206226110458374 -0.3860898017883301 5.9791436195373535 114 106 93
2.472426652908325 0.5890500545501709 6.126096248626709 28 22 11
2.5191140174865723 0.5313968658447266 5.7330145835876465 126 119 104
1.0257128477096558 -2.436048984527588 5.9232401847839355 108 106 106
-8.069339752197266 -3.766187906265259 30.774152755737305 28 23 26
1.0421279668807983 -2.182323932647705 5.99070930480957 119 117 116
1.0421279668807983 -2.182321071624756 5.990702152252197 119 117 116
2.502917528152466 0.1965833455324173 6.086042881011963 125 119 103
0.5090867280960083 4.173009872436523 7.999423027038574 132 124 120
1.223238229751587 0.26601049304008484 6.022896766662598 128 124 130
1.244702696800232 2.329939842224121 6.302473068237305 105 100 101
1.4768996238708496 -1.563700556755066 5.790162086486816 98 91 83
1.574338674545288 0.7213506102561951 6.170976161956787 84 76 62
1.097176432609558 1.3758848905563354 6.550886154174805 98 95 97
-0.05973084270954132 4.175853252410889 8.074721336364746 125 116 112
-2.5807535648345947 -1.047242283821106 16.040340423583984 13 10 16
-4.840973854064941 -2.110821485519409 22.237253189086914 78 78 90
1.592659592628479 2.3220772743225098 6.499912738800049 67 60 54
-3.2653157711029053 -4.363705635070801 17.22811508178711 34 29 34
2.5169119834899902 0.6922772526741028 5.6922993659973145 101 99 90
-3.7302393913269043 -4.509163856506348 19.114946365356445 145 143 147
1.2187716960906982 0.2441462129354477 5.934513092041016 30 26 31
1.0642411708831787 -0.6832461953163147 6.185178279876709 20 15 17
-7.994411945343018 -4.292236328125 30.412099838256836 90 85 88
1.49117910861969 -1.2931853532791138 5.82493257522583 160 153 144
1.466181993484497 -1.2794716358184814 5.777680397033691 124 118 111
1.5348706245422363 -1.3060836791992188 5.866547107696533 116 109 95
-4.757823944091797 -4.635730743408203 21.388038635253906 70 68 78
1.5200284719467163 0.19074806571006775 5.939718723297119 131 124 112
-4.757452964782715 -4.635402202606201 21.386484146118164 70 68 78
1.4923021793365479 -1.2683556079864502 5.908452033996582 98 92 83
0.11172202974557877 4.206944942474365 7.507979393005371 143 135 131
1.5726627111434937 0.8040482997894287 6.196911811828613 84 79 66
2.4790632724761963 0.8128006458282471 6.14253568649292 99 91 76
2.4749372005462646 0.8167955875396729 6.124753952026367 131 122 107
-8.101490020751953 -5.974005699157715 30.3070011138916 70 63 65
1.5756009817123413 0.8038188815116882 6.208888530731201 136 131 118
2.511610746383667 0.32109567523002625 5.717617988586426 110 103 89
1.1769375801086426 -2.7523810863494873 5.490606784820557 108 102 104
1.512434720993042 0.49246370792388916 6.09506368637085 116 109 100
-0.28630760312080383 4.046824932098389 8.63630485534668 63 55 49
-9.025237083435059 -6.122190475463867 33.17012405395508 39 34 36
1.241223931312561 1.133448839187622 6.153813362121582 32 28 29
2.4860165119171143 0.0036001792177557945 6.028084754943848 99 94 76
1.545641541481018 0.5224243402481079 6.115152359008789 162 155 141
2.4569709300994873 0.02781648375093937 6.102342128753662 96 91 73
1.1929240226745605 -0.9630737900733948 5.758342742919922 75 71 72
1.2559425830841064 1.7383222579956055 6.234696388244629 107 103 105
1.1109302043914795 -0.9952746629714966 6.042758941650391 56 52 52
1.0559009313583374 -0.033023327589035034 6.337558746337891 16 11 13
2.4776217937469482 0.04325701668858528 6.067134857177734 147 139 122
-3.665093421936035 0.1023293063044548 17.598623275756836 28 14 10
0.6593606472015381 1.521053671836853 7.784555912017822 95 90 89
1.501403570175171 -0.08334605395793915 6.050853252410889 133 126 123
0.06344080716371536 4.205561637878418 7.483251094818115 106 101 97
-7.499061107635498 -4.515562534332275 28.36554718017578 100 95 99
-0.1629961133003235 4.257758617401123 7.49053430557251 97 91 86
-9.236358642578125 -5.395318984985352 34.13446044921875 71 65 70
0.055134352296590805 4.219095230102539 7.762994289398193 91 82 77
-3.9136664867401123 2.6504406929016113 17.518465042114258 18 11 8
1.108899474143982 1.6820396184921265 6.595430374145508 55 50 51
-4.069100856781006 0.1790681630373001 17.51315689086914 63 46 36
1.1088957786560059 1.6819411516189575 6.595022201538086 55 50 51
-0.012685097754001617 4.215338230133057 7.3370819091796875 122 114 110
0.2025621384382248 4.276397705078125 7.386181831359863 64 57 51
-8.028905868530273 -4.60922384262085 30.522090911865234 57 51 56
0.400747686624527 4.274203300476074 7.333004951477051 92 87 83
-3.6779727935791016 2.6745007038116455 17.182004928588867 77 72 69
-4.735823154449463 -3.224827289581299 21.66682243347168 27 26 35
0.22453294694423676 4.270634174346924 7.312842845916748 74 67 61
-0.2826346457004547 4.287487030029297 7.281543731689453 158 153 147
2.496997594833374 0.37262773513793945 5.710095405578613 120 114 100
-3.7830069065093994 2.7439234256744385 17.206180572509766 170 165 162
-0.2735387682914734 4.284120559692383 7.206733703613281 177 172 166
2.5654101371765137 0.3404184877872467 5.568669319152832 69 64 53
-1.1644927263259888 2.665806770324707 12.898621559143066 30 26 26
2.511605739593506 0.32108640670776367 5.717611312866211 110 103 89
-1.1480714082717896 2.3323538303375244 12.798206329345703 92 87 87
2.310303211212158 0.16142697632312775 6.189010143280029 91 85 70
1.2441718578338623 1.4663939476013184 6.1593337059021 124 118 123
-3.388136863708496 2.6480345726013184 17.195697784423828 22 16 13
1.293508529663086 -2.923368453979492 5.5131916999816895 120 114 115
0.8344883918762207 -3.1584999561309814 6.346177577972412 50 45 46
0.11465969681739807 4.195373058319092 7.827037811279297 76 70 66
1.4628504514694214 -0.9485337138175964 5.8630218505859375 147 142 140
0.8066207766532898 4.244442939758301 7.267313003540039 94 90 88
-0.2244899421930313 4.242164611816406 7.47021484375 119 113 107
-3.9139177799224854 2.6505649089813232 17.519363403320312 18 11 8
1.430009365081787 -2.4181201457977295 5.635348796844482 150 146 143
1.5149933099746704 -2.275859832763672 5.693328380584717 82 72 55
0.7899283766746521 0.6911992430686951 7.256425857543945 154 149 153
0.696196973323822 4.225602149963379 7.437513828277588 137 132 129
1.5066094398498535 -0.11576636880636215 6.017111778259277 114 108 102
0.5156282782554626 4.208817958831787 7.838919639587402 138 133 130
1.5568100214004517 0.6240445375442505 6.135347366333008 137 130 115
1.1088937520980835 1.6819734573364258 6.595160961151123 55 50 51
2.593099594116211 0.5970318913459778 5.6491923332214355 96 91 81
1.0738967657089233 -3.0487782955169678 5.725638389587402 89 84 84
1.2090622186660767 -1.5012261867523193 5.669693946838379 36 32 32
2.556213855743408 0.30193933844566345 5.557661533355713 85 79 64
1.2224522829055786 -0.6347423195838928 5.842486381530762 86 81 83
2.4493720531463623 0.7766413688659668 6.1632256507873535 147 139 124
2.5152411460876465 0.6549564599990845 5.841683387756348 113 109 94
0.04895104840397835 4.187589168548584 7.8604536056518555 152 144 138
2.449401617050171 0.776651918888092 6.163268089294434 155 147 131
0.2941393554210663 4.211392402648926 7.927370071411133 136 130 126
1.1784377098083496 -2.422309637069702 5.584938049316406 59 54 55
0.19894495606422424 4.193055629730225 7.734904766082764 105 100 96
1.0587204694747925 -1.2706726789474487 6.084028244018555 159 158 158
1.2104227542877197 -0.6068390011787415 5.798306465148926 63 59 65
-0.74095618724823 3.930631399154663 9.929290771484375 85 76 71
2.4876978397369385 0.29065218567848206 5.729894161224365 69 62 47
1.0683549642562866 -0.7024496793746948 6.392675399780273 74 69 71
1.1572513580322266 -2.447153329849243 5.533565998077393 83 78 79
-0.09461505711078644 4.153410911560059 8.162569046020508 90 81 77
-0.15019643306732178 4.332797527313232 8.162885665893555 72 66 61
1.1110247373580933 -0.9953693151473999 6.043310642242432 56 52 52
-0.021763380616903305 4.155876636505127 8.068251609802246 164 155 151
0.2366381287574768 4.121273517608643 8.216565132141113 156 150 147
1.5180646181106567 1.3894790410995483 6.182790279388428 136 131 122
0.23880714178085327 4.163131237030029 8.170644760131836 67 61 58
-3.8536312580108643 2.814162492752075 17.08734703063965 19 13 12
-0.9901475310325623 4.215925216674805 7.910484790802002 76 69 63
-0.16830021142959595 4.23276948928833 7.626255989074707 103 98 93
-0.44382086396217346 4.265540599822998 7.261626720428467 121 113 108
-3.4703783988952637 2.5226290225982666 17.18695068359375 29 22 18
1.5661873817443848 0.2861799895763397 6.0954484939575195 60 53 37
0.19398173689842224 -0.1036609336733818 8.737251281738281 94 89 91
-0.1903771311044693 4.208069324493408 7.910148620605469 66 60 55
0.8103938102722168 1.5787923336029053 7.392915725708008 11 6 7
-3.2550530433654785 2.659041404724121 16.672317504882812 29 24 23
2.47773814201355 -0.5318640470504761 5.9700846672058105 165 158 142
0.07304926216602325 4.060913562774658 8.648022651672363 152 147 142
2.484147787094116 0.13292180001735687 6.00327205657959 150 143 127
-0.7434855699539185 4.354201793670654 7.553983688354492 60 52 47
1.0669137239456177 -3.0670981407165527 5.701895713806152 48 42 42
1.3239516019821167 -2.9202983379364014 5.530250549316406 85 81 80
1.5538249015808105 -2.829058885574341 5.487141132354736 79 72 59
1.1769459247589111 -2.7524003982543945 5.490797996520996 108 102 104
1.1769343614578247 -2.752361297607422 5.4904093742370605 108 102 104
1.176935076713562 -2.7523670196533203 5.490462779998779 108 102 104
0.8344883918762207 -3.158470869064331 6.346123695373535 50 45 46
1.4641889333724976 -2.431480884552002 5.665290832519531 122 115 106
1.4160470962524414 -2.3499631881713867 5.479783058166504 142 137 131
1.1658921241760254 -2.355349540710449 5.563977241516113 74 70 74
1.025712013244629 -2.436047315597534 5.92323637008667 108 106 106
1.1773804426193237 -2.144589424133301 5.604472637176514 40 37 39
1.506605625152588 -2.151869297027588 5.691033840179443 137 128 114
-7.3961639404296875 -6.760461330413818 18.22270393371582 218 189 171
1.0420002937316895 -2.1820497512817383 5.989895343780518 119 117 116
1.4849086999893188 -1.8328062295913696 5.649360179901123 54 45 33
1.0153932571411133 -1.8446251153945923 6.0357232093811035 118 116 118
1.1906193494796753 -1.565590262413025 5.678004264831543 60 57 57
1.4769026041030884 -1.5637052059173584 5.790178298950195 98 91 83
1.4768937826156616 -1.5637118816375732 5.790183067321777 98 91 83
1.0643556118011475 -1.6096560955047607 6.035645008087158 120 116 115
1.2159897089004517 -1.5099533796310425 5.7140607833862305 46 41 41
1.0349498987197876 -1.6038626432418823 6.102175712585449 27 22 22
-12.56767749786377 -8.320283889770508 32.71498107910156 191 159 144
-11.962526321411133 -8.329645156860352 32.78782272338867 214 189 173
-3.265467882156372 -4.363988399505615 17.22874641418457 34 29 34
1.4862980842590332 -1.296528697013855 5.8367133140563965 135 129 119
1.5348620414733887 -1.3060696125030518 5.86646032333374 116 109 95
-4.7576799392700195 -4.6355814933776855 21.387399673461914 70 68 78
1.5074957609176636 -1.3017780780792236 6.065261363983154 119 113 107
-8.096806526184082 -5.970949649810791 30.291473388671875 70 63 65
-9.276334762573242 -6.6953511238098145 34.12213897705078 105 99 102
-2.5782365798950195 -3.1013293266296387 15.866436958312988 23 16 18
-4.56179666519165 -3.8904521465301514 20.612445831298828 67 66 77
0.24553529918193817 4.281572341918945 7.36474084854126 125 118 112
0.20256276428699493 4.276397228240967 7.386178970336914 64 57 51
0.14719684422016144 4.274128437042236 7.400615215301514 87 80 76
0.025774210691452026 4.249957084655762 7.4048004150390625 121 115 110
1.4591944217681885 -0.9545020461082458 5.738502502441406 42 35 31
1.4628477096557617 -0.9485321044921875 5.863006114959717 147 142 140
-0.012682884931564331 4.215218544006348 7.336867809295654 122 114 110
0.22723433375358582 4.238485336303711 7.4092888832092285 125 117 113
0.17663949728012085 4.239268779754639 7.4376139640808105 46 38 34
-0.1630108505487442 4.257804870605469 7.490608215332031 97 91 86
-4.735254287719727 -3.2243926525115967 21.664634704589844 27 26 35
0.6415449380874634 4.2649245262146 7.5872368812561035 126 121 119
-4.905014514923096 -3.137514591217041 22.376916885375977 123 124 135
0.0673467218875885 4.164308071136475 7.477065563201904 52 47 42
-0.025462182238698006 4.200260162353516 7.603752136230469 97 93 90
0.7786650061607361 -0.7945525050163269 6.896742820739746 117 114 116
0.6165263652801514 -0.8349160552024841 7.401485443115234 99 94 95
0.173979252576828 -0.969059944152832 8.588411331176758 28 26 29
1.4381145238876343 -0.6442275643348694 5.860172271728516 180 176 176
1.0642415285110474 -0.683244526386261 6.18519401550293 20 15 17
1.2224462032318115 -0.6347253322601318 5.842482566833496 86 81 83
1.2732746601104736 3.5369982719421387 6.474348068237305 85 82 84
1.2732632160186768 3.5368969440460205 6.474113464355469 85 82 84
-4.753423690795898 -1.8018485307693481 22.021944046020508 44 44 54
-0.05972791835665703 4.175729751586914 8.074475288391113 125 116 112
0.2024947851896286 4.122940540313721 8.022622108459473 130 123 120
-2.5804405212402344 -1.0471587181091309 16.038511276245117 13 10 16
1.0673236846923828 -0.39710620045661926 6.30210542678833 117 112 112
1.1967380046844482 -0.37785452604293823 5.885036945343018 106 101 103
1.5205224752426147 -0.3860292136669159 5.97872257232666 114 106 93
-0.2868245840072632 4.0902838706970215 8.603198051452637 146 138 132
1.510292649269104 -0.2899506390094757 5.95823860168457 82 75 63
-0.14186660945415497 4.06834602355957 8.643535614013672 117 111 107
0.661376416683197 -0.24312809109687805 7.352165699005127 21 18 21
1.102158784866333 2.8743410110473633 6.764948844909668 56 51 53
2.4425315856933594 -0.13583903014659882 6.058593273162842 68 61 43
1.2664039134979248 2.637442111968994 6.362554550170898 91 88 90
1.5185891389846802 -0.08515474945306778 5.972200393676758 40 31 25
1.5021299123764038 -0.08479425311088562 6.059024333953857 126 120 117
1.0975232124328613 2.5513477325439453 6.733732223510742 45 41 40
1.274103045463562 2.3336641788482666 6.309131622314453 134 130 131
2.409508466720581 -0.07943420112133026 6.024838447570801 75 68 51
1.2168062925338745 -0.05130647122859955 5.943906784057617 29 24 26
0.9592907428741455 2.5270333290100098 7.117332935333252 68 63 64
0.6533920764923096 2.7094173431396484 7.99436092376709 56 51 52
2.486252546310425 0.003548137843608856 6.02897310256958 99 94 76
-3.958343029022217 0.020931221544742584 17.618139266967773 76 59 49
-4.047575950622559 0.0843333974480629 18.021739959716797 42 26 16
-3.5327816009521484 0.10613023489713669 18.001445770263672 187 176 170
-4.017307281494141 0.12969079613685608 17.570148468017578 184 173 162
0.8040801286697388 2.4670474529266357 7.546716690063477 109 105 105
-3.7879655361175537 0.16986709833145142 16.303754806518555 89 72 64
0.6691280007362366 2.4353160858154297 7.912725448608398 37 32 33
1.5961788892745972 1.8025039434432983 6.35647439956665 71 63 52
1.079163670539856 0.19655729830265045 6.362624645233154 153 149 150
1.4995839595794678 0.16450253129005432 6.049576759338379 115 108 102
2.311467170715332 0.16151440143585205 6.194058418273926 91 85 70
1.255963683128357 1.7383530139923096 6.234821319580078 107 103 105
2.4680163860321045 0.17946437001228333 6.121372222900391 102 95 78
1.075819492340088 0.19349820911884308 6.19598388671875 106 104 104
1.5574370622634888 0.19645151495933533 6.085677623748779 105 97 84
2.432502269744873 0.2030535787343979 6.027103900909424 163 157 141
1.5896363258361816 1.6977477073669434 6.347775459289551 97 90 78
1.1088978052139282 1.6819645166397095 6.595124244689941 55 50 51
1.2441719770431519 1.4663944244384766 6.159334182739258 124 118 123
0.629944920539856 0.3428262174129486 7.581737518310547 147 142 143
1.566133737564087 0.2861596345901489 6.0951104164123535 60 53 37
2.4391863346099854 0.2834632694721222 6.13795280456543 67 60 48
2.4491374492645264 0.31529518961906433 6.2421488761901855 55 48 34
2.4888570308685303 0.2952268421649933 5.678897857666016 89 82 67
1.5180772542953491 1.3895121812820435 6.182941436767578 136 131 122
2.5115807056427 0.321092814207077 5.717511177062988 110 103 89
2.442779302597046 0.3897688686847687 6.254683017730713 105 97 81
2.456794261932373 0.4107278883457184 6.236645698547363 109 101 85
2.4786248207092285 0.40931618213653564 6.027142524719238 123 117 104
0.49520143866539 0.5853546857833862 8.06307315826416 108 103 104
1.060576319694519 0.49335777759552 6.458175182342529 164 160 162
1.508825659751892 0.4823514521121979 6.085533142089844 112 105 96
1.209957480430603 0.4843825399875641 6.029754161834717 108 102 107
2.514960527420044 0.4567146897315979 5.572739601135254 103 97 85
1.5803742408752441 1.090709924697876 6.2448248863220215 153 147 135
2.501361846923828 1.0473510026931763 6.20318603515625 112 108 94
-3.8380062580108643 2.9464845657348633 17.26955223083496 56 50 47
1.0954067707061768 1.0871247053146362 6.497962474822998 23 18 20
-3.678286075592041 2.674730062484741 17.183340072631836 77 72 69
2.493767499923706 0.6471236944198608 5.765316963195801 97 93 80
-3.6777255535125732 2.674363613128662 17.181243896484375 77 72 69
-3.914052963256836 2.650636672973633 17.519840240478516 18 11 8
-3.6454148292541504 2.6515085697174072 17.376482009887695 129 121 117
-3.6774742603302 2.6741952896118164 17.180234909057617 77 72 69
2.587294101715088 0.9029548168182373 5.947782039642334 116 109 95
-3.4703385829925537 2.5225956439971924 17.18675994873047 29 22 18
2.493636131286621 0.8636803030967712 6.161797046661377 172 166 153
2.4790711402893066 0.8128069639205933 6.142543792724609 99 91 76
-4.668012619018555 2.5767340660095215 18.460716247558594 117 107 100
2.4782094955444336 0.8136332631111145 6.1389079093933105 99 91 76
2.4839792251586914 0.835064172744751 6.223907947540283 72 61 47
1.4902074337005615 -0.2625749707221985 5.9466352462768555 142 135 131
2.4841601848602295 0.1329396516084671 6.003333568572998 150 143 127
0.34625324606895447 0.5454418063163757 8.471572875976562 17 13 15
0.2238505780696869 4.211143970489502 8.030206680297852 83 76 73
-0.8980650305747986 3.81005859375 10.333342552185059 74 65 61
1.1421782970428467 -2.97829270362854 5.335057735443115 81 74 71
1.290688157081604 -2.9069511890411377 5.480933666229248 121 116 116
1.1569780111312866 -2.7180049419403076 5.519601821899414 47 43 43
1.5104273557662964 -2.822016477584839 5.777559280395508 87 79 68
1.1572524309158325 -2.447147846221924 5.533545970916748 83 78 79
1.1784608364105225 -2.4227662086486816 5.586019992828369 59 54 55
1.4641878604888916 -2.4314780235290527 5.665279388427734 122 115 106
1.57564377784729 2.301023244857788 6.426519870758057 93 87 79
0.9592893719673157 2.5270283222198486 7.1173176765441895 68 63 64
1.5756865739822388 2.3011794090270996 6.4269490242004395 93 87 79
1.1781519651412964 -2.1516335010528564 5.622543811798096 34 31 32
1.5066131353378296 -2.1518540382385254 5.691067695617676 137 128 114
1.4440891742706299 -2.10624361038208 5.584925174713135 81 73 67
1.160063624382019 -2.0873849391937256 5.580500602722168 132 131 132
-7.395939826965332 -6.7602105140686035 18.222217559814453 218 189 171
1.1114670038223267 2.282520055770874 6.690392017364502 31 26 27
1.4816932678222656 -1.8615754842758179 5.7398176193237305 38 31 23
0.897752046585083 -1.9838755130767822 6.490938663482666 96 91 91
0.997976541519165 -1.8391255140304565 6.017395496368408 139 137 140
1.476904273033142 -1.5637174844741821 5.790213108062744 98 91 83
1.0649313926696777 -1.6244465112686157 6.066793918609619 121 117 116
1.273106336593628 1.8081837892532349 6.319524765014648 97 94 98
-3.265507698059082 -4.364060878753662 17.228906631469727 34 29 34
0.9654939770698547 1.9258006811141968 7.026751518249512 17 12 12
1.5175564289093018 -1.3055970668792725 5.9156107902526855 47 42 31
1.4923028945922852 -1.2683587074279785 5.90845251083374 98 92 83
-2.6812593936920166 -3.383458375930786 16.00499153137207 16 11 12
1.5491241216659546 1.6526973247528076 6.187213897705078 82 76 67
-4.798150539398193 -4.291894435882568 21.675392150878906 130 129 141
-2.7960288524627686 -3.2582943439483643 16.49261474609375 75 68 69
-8.837221145629883 -6.106790065765381 32.34758377075195 199 194 197
-3.379948139190674 -3.355686664581299 18.042814254760742 129 124 125
1.1235535144805908 1.383264183998108 6.518233299255371 23 21 21
2.517798662185669 1.3345067501068115 6.385172367095947 102 96 82
1.4981392621994019 -0.9826433062553406 5.891406536102295 62 53 46
1.0971704721450806 1.3758705854415894 6.5508294105529785 98 95 97
1.4737755060195923 -0.9777879118919373 5.893665790557861 46 41 39
1.506716012954712 1.1647162437438965 6.26885986328125 71 66 64
-1.1480998992919922 2.3323781490325928 12.798369407653809 92 87 87
-4.735345363616943 -3.22446346282959 21.664976119995117 27 26 35
1.0955328941345215 1.087348222732544 6.499310493469238 23 18 20
1.0955281257629395 1.0873351097106934 6.499233245849609 23 18 20
0.9338634610176086 -0.7750650644302368 6.484740257263184 93 88 92
-2.6843528747558594 2.64825701713562 16.96574592590332 134 108 82
-2.8584353923797607 2.6593852043151855 17.381629943847656 82 66 50
2.587301731109619 0.9029923677444458 5.947761058807373 116 109 95
-4.840997695922852 -2.1109495162963867 22.238056182861328 78 78 90
-2.7592244148254395 -1.3818700313568115 16.615203857421875 63 59 69
2.58730411529541 0.9029611349105835 5.947811603546143 116 109 95
-3.6993467807769775 2.554511070251465 17.08330726623535 82 74 70
2.5575127601623535 0.9213511347770691 6.206662654876709 96 86 73
-3.470271110534668 2.5225472450256348 17.186525344848633 29 22 18
2.450260639190674 -0.44636282324790955 6.114192485809326 80 73 57
1.183962345123291 -0.3782849907875061 5.829654216766357 103 98 100
1.4953932762145996 -0.3694283068180084 5.979892253875732 40 34 26
2.618757963180542 0.8488621115684509 5.866703510284424 78 72 60
2.493739366531372 0.8637423515319824 6.1621856689453125 172 166 153
2.4748334884643555 0.8167961835861206 6.124463081359863 131 122 107
2.4405386447906494 0.8081299662590027 6.293917179107666 98 89 73
2.4493777751922607 0.776645839214325 6.163259506225586 147 139 124
1.4983375072479248 -0.1169409304857254 5.991387844085693 102 95 92
2.446514129638672 -0.11227644234895706 6.056414604187012 174 167 150
1.0440629720687866 -0.09506889432668686 6.296252727508545 130 125 126
1.5185879468917847 -0.08516149967908859 5.972156047821045 40 31 25
2.4469335079193115 -0.06070132926106453 6.057156562805176 57 50 33
1.2168630361557007 -0.050506219267845154 5.944363117218018 29 24 26
2.5152292251586914 0.654933512210846 5.841628074645996 113 109 94
1.0558955669403076 -0.033022407442331314 6.337556838989258 16 11 13
1.5642462968826294 0.6489025950431824 6.13748025894165 60 52 38
2.4862124919891357 0.003553372109308839 6.028811931610107 99 94 76
-4.047382831573486 0.07944949716329575 18.020875930786133 67 51 41
0.6190627813339233 0.06407511234283447 7.899264812469482 129 124 126
-4.56230354309082 0.19886691868305206 19.203401565551758 128 113 102
-4.2687482833862305 0.20122389495372772 18.374914169311523 74 56 47
2.311481475830078 0.16151484847068787 6.1941680908203125 91 85 70
1.0756577253341675 0.19396620988845825 6.185726165771484 105 102 102
2.4538004398345947 0.21848607063293457 5.999192237854004 111 104 88
1.4821277856826782 0.23044919967651367 6.085422992706299 133 128 125
1.5749309062957764 0.24842847883701324 6.138261795043945 103 96 81
1.503196358680725 0.48198285698890686 6.089570999145508 110 105 96
1.0608563423156738 0.4971114993095398 6.4614481925964355 109 105 106
2.511608839035034 0.321110337972641 5.7175374031066895 110 103 89
0.9525510668754578 2.815213918685913 7.1887125968933105 88 84 86
1.2601648569107056 2.9497883319854736 6.429060459136963 102 101 101
1.6094359159469604 3.1810214519500732 6.548683166503906 60 55 44
-0.05971325561404228 4.175398349761963 8.0738525390625 125 116 112
-0.025453053414821625 4.200549602508545 7.604254245758057 97 93 90
0.0543120875954628 4.223628044128418 7.58074426651001 47 42 37
0.1290932595729828 4.2009406089782715 7.652078628540039 73 67 62
1.0339967012405396 -1.0252410173416138 6.2355804443359375 107 104 104
1.0529574155807495 -0.3241533041000366 6.2443389892578125 104 98 106
0.3462578356266022 0.5454399585723877 8.471536636352539 17 13 15
-3.753131628036499 2.5410780906677246 17.742599487304688 34 26 22
1.1658918857574463 -2.355346918106079 5.5639729499816895 74 70 74
-7.469768524169922 -7.4602227210998535 18.13067054748535 102 87 75
0.17397943139076233 -0.9690445065498352 8.588299751281738 28 26 29
0.3707151412963867 4.289655685424805 7.778474807739258 113 108 105
1.2440234422683716 1.5710340738296509 6.223893642425537 59 53 58
1.6083037853240967 2.7553036212921143 6.478447437286377 51 44 33
-0.2530479431152344 4.175455570220947 7.636401653289795 119 113 108
1.1446038484573364 -3.0687503814697266 5.396235466003418 81 76 76
-0.14186854660511017 4.068353652954102 8.643550872802734 117 111 107
1.5032895803451538 2.0168263912200928 6.356531620025635 99 97 97
-9.796607971191406 -8.00745964050293 26.773468017578125 83 72 67
0.6533922553062439 2.7094197273254395 7.9943623542785645 56 51 52
1.5830515623092651 1.2169948816299438 6.256258964538574 103 95 82
0.18186455965042114 4.134022235870361 8.182868003845215 160 154 151
1.1764494180679321 -1.4720555543899536 5.657135009765625 126 122 125
-0.22330708801746368 4.170111179351807 8.307119369506836 130 124 119
0.7416344285011292 4.261676788330078 7.456910610198975 139 135 130
0.48490962386131287 -0.0009342371486127377 7.931726455688477 56 52 54
1.463728904724121 -2.7440810203552246 5.6272454261779785 67 61 53
1.1572669744491577 -2.4472992420196533 5.534006118774414 83 78 79
1.4386239051818848 -2.4403281211853027 5.657419681549072 42 37 36
1.181459903717041 -2.1569621562957764 5.637789726257324 35 33 34
1.4583123922348022 -2.172172784805298 5.735136985778809 69 63 62
-7.396132469177246 -6.760433673858643 18.222623825073242 218 189 171
1.160094976425171 -2.08449387550354 5.587197303771973 131 131 132
1.014329195022583 -2.207969903945923 6.081644058227539 58 56 56
1.4884816408157349 -1.8836109638214111 5.8095269203186035 37 30 22
-9.79659366607666 -8.007450103759766 26.7734375 83 72 67
1.0641800165176392 -1.6142383813858032 6.029160022735596 121 117 116
-4.148446559906006 -4.437682151794434 19.19087028503418 19 18 26
-8.226174354553223 -6.738261699676514 29.89518928527832 87 79 80
