ply
format ascii 1.0
element vertex 717
property float x
property float y
property float z
property uchar red
property uchar green
property uchar blue
end_header
-2.0804126262664795 -1.3290722370147705 5.947041988372803 123 118 118
-1.3672831058502197 3.0697267055511475 7.244596481323242 15 11 12
-0.6754336953163147 0.4509393572807312 8.2582368850708 139 132 134
-1.8879430294036865 -1.3243157863616943 6.114925861358643 30 25 25
4.334343433380127 2.1909515857696533 16.80030632019043 219 215 214
4.331608295440674 2.1895811557769775 16.79085922241211 219 215 214
-1.7583673000335693 -1.402501106262207 6.559243202209473 89 80 79
-1.3323283195495605 -1.6965882778167725 8.067239761352539 33 27 27
-1.5794382095336914 -1.6932371854782104 8.056178092956543 58 48 42
-1.744102954864502 -1.3507930040359497 6.513160705566406 41 31 30
3.1589462757110596 -2.7665345668792725 13.395845413208008 15 9 14
-1.9097256660461426 1.0024456977844238 6.396383762359619 110 105 104
2.79708194732666 -1.279319167137146 13.25943374633789 13 7 9
4.524951934814453 2.5337114334106445 16.608963012695312 86 76 69
7.988007545471191 -2.1793439388275146 22.116546630859375 34 28 28
3.4278998374938965 -2.832092761993408 14.006091117858887 21 15 25
4.990314960479736 -1.716266393661499 17.596471786499023 3 2 10
-1.7144173383712769 0.9910630583763123 6.585560321807861 16 8 9
4.295112609863281 1.34266996383667 16.796449661254883 59 51 43
-2.0720372200012207 -1.141615629196167 5.9721598625183105 78 72 72
-0.8641006350517273 1.1912425756454468 8.044599533081055 126 119 122
-1.1609704494476318 0.6887011528015137 7.2237982749938965 118 111 114
-1.7534512281417847 -1.2410991191864014 6.57832145690918 36 30 34
-2.280381441116333 -1.1062757968902588 6.112024307250977 107 102 99
-2.0587356090545654 -1.089636206626892 5.949188709259033 40 32 32
4.469865798950195 -0.35422080755233765 16.36429786682129 21 20 29
4.66144323348999 -0.1454286277294159 17.1580810546875 20 20 28
-1.9027106761932373 -1.1008192300796509 6.325418949127197 165 160 161
-2.2705800533294678 0.7754080295562744 6.175917625427246 142 138 134
4.4408979415893555 -2.7816853523254395 16.030820846557617 36 33 42
-2.2631242275238037 -1.8767995834350586 6.009696006774902 95 90 87
2.7511379718780518 -2.1026358604431152 13.110525131225586 25 19 20
3.0524752140045166 -2.1302244663238525 13.677505493164062 90 87 90
3.422285795211792 -2.276448965072632 14.7953519821167 62 58 63
3.052342414855957 -2.1301584243774414 13.677181243896484 90 87 90
3.4065909385681152 -2.105443000793457 14.050337791442871 98 96 97
2.855201005935669 -1.522429347038269 13.55319881439209 68 63 64
5.012537002563477 0.04530993849039078 17.459882736206055 40 37 48
-2.2694315910339355 -0.8930335640907288 6.142245769500732 125 120 119
-1.9623095989227295 -0.9163344502449036 6.402978420257568 14 8 9
-1.8787879943847656 -0.8849620223045349 6.17502498626709 33 27 28
2.732991933822632 -1.8137023448944092 12.949438095092773 132 127 128
4.320962905883789 -2.2478909492492676 15.971048355102539 76 72 77
-1.7730011940002441 -0.8143466711044312 5.852734088897705 18 12 13
3.086244821548462 -1.926709771156311 13.78492546081543 57 53 51
4.6540207862854 -2.263676404953003 16.576696395874023 6 6 14
2.8074862957000732 -1.7030094861984253 13.31704330444336 20 14 17
2.999971866607666 -1.7302954196929932 13.425201416015625 157 153 152
2.8071720600128174 -1.7028443813323975 13.315620422363281 20 14 17
4.340388774871826 -2.0286028385162354 15.97311019897461 26 24 29
8.212069511413574 -2.8287160396575928 22.089454650878906 35 28 31
4.052274227142334 -2.0414235591888428 15.948762893676758 152 143 132
2.943894147872925 -1.7183973789215088 13.598357200622559 59 56 59
2.807194709777832 -1.7028615474700928 13.315744400024414 20 14 17
-2.2703893184661865 1.2057815790176392 6.178767204284668 107 103 97
3.1582372188568115 -1.7589986324310303 14.115091323852539 12 9 9
-1.8756085634231567 0.7701762318611145 6.282416343688965 42 37 37
9.064949989318848 -2.796767234802246 23.289424896240234 50 43 49
4.593805313110352 -1.8810006380081177 16.70470428466797 53 53 59
-1.3721896409988403 0.9509168267250061 7.107433319091797 25 17 17
3.697883367538452 -1.5150295495986938 13.445510864257812 29 28 35
6.798595428466797 -2.571479558944702 23.567174911499023 4 4 13
4.765054225921631 -1.7671984434127808 16.63796615600586 140 139 150
7.201207637786865 -2.195101261138916 20.06972312927246 40 32 34
-2.291909694671631 -0.6274279356002808 6.130082130432129 119 115 112
8.642877578735352 -2.4274981021881104 23.282562255859375 75 69 70
8.643020629882812 -2.4275145530700684 23.282949447631836 75 69 70
8.873047828674316 -2.518249034881592 24.614259719848633 108 101 102
-1.898743987083435 -0.6174964308738708 6.255242824554443 108 103 104
3.1122634410858154 -1.9872287511825562 13.801445007324219 55 51 50
2.7968292236328125 -1.27921462059021 13.258302688598633 13 7 9
2.4656271934509277 -1.092753529548645 11.305948257446289 46 41 41
9.35543155670166 -2.4058969020843506 24.530187606811523 145 140 139
3.0724735260009766 -1.3191324472427368 13.853703498840332 44 39 38
9.15959644317627 -2.2484679222106934 24.054779052734375 124 117 109
4.662717342376709 -1.4745159149169922 17.0123348236084 10 11 15
7.951348304748535 -1.7596344947814941 22.02703857421875 110 103 104
8.658051490783691 -2.0287270545959473 23.334369659423828 62 55 56
7.951255798339844 0.041135482490062714 22.197845458984375 92 88 93
-1.9002444744110107 -0.4094317555427551 6.275242805480957 84 77 79
7.844384670257568 -1.573237419128418 21.881269454956055 48 41 42
7.887820720672607 -0.9785469174385071 22.078662872314453 33 27 29
3.182393789291382 1.2677991390228271 14.570167541503906 36 30 32
-0.20150960981845856 -0.05474264547228813 9.141411781311035 27 20 21
8.314067840576172 -1.6330170631408691 22.911828994750977 37 29 30
-2.294639825820923 -0.42797526717185974 6.118130683898926 23 18 17
8.690218925476074 -1.656868577003479 23.434141159057617 49 40 40
7.9475321769714355 -1.5081629753112793 21.76020622253418 157 149 150
8.58579158782959 -1.445292592048645 23.267704010009766 151 146 148
-2.2941055297851562 -0.3921286165714264 6.152076244354248 125 120 119
2.47619891166687 -0.8432013392448425 12.741570472717285 18 11 14
-1.8671979904174805 -2.0845654010772705 6.311710357666016 48 42 39
4.281106948852539 -0.7605478763580322 15.735005378723145 38 37 44
4.0587849617004395 -3.2663815021514893 16.28404998779297 56 52 62
-1.270728588104248 -0.42158111929893494 6.710050582885742 70 64 65
3.1363589763641357 -2.8925375938415527 13.75589370727539 18 11 17
-0.8843990564346313 -0.470480352640152 8.021575927734375 19 13 13
2.904472827911377 1.6885590553283691 13.205011367797852 90 85 84
-1.707900881767273 1.4522361755371094 6.615509510040283 99 93 94
-0.4781009554862976 3.6740145683288574 7.5962138175964355 124 113 107
7.910727500915527 -1.1719272136688232 22.145946502685547 32 27 28
2.5322048664093018 -0.6496504545211792 13.010353088378906 31 25 30
-1.5413615703582764 1.6688966751098633 6.919276714324951 19 11 12
-1.370245099067688 0.7265992164611816 7.148606300354004 148 143 142
3.226459503173828 -0.7148539423942566 14.675058364868164 6 3 7
-1.5490498542785645 1.213352084159851 6.8900604248046875 12 6 8
7.911172389984131 -1.1720010042190552 22.147159576416016 32 27 28
7.888176441192627 -0.9785751104354858 22.07964324951172 33 27 29
8.433229446411133 -0.9934914708137512 23.193885803222656 94 88 93
-1.037157416343689 3.051382303237915 7.833883762359619 96 91 91
-1.363161325454712 -0.4346483051776886 7.048985004425049 40 34 35
9.785365104675293 -0.8884645104408264 24.910545349121094 128 118 110
-1.3455264568328857 -0.211847722530365 6.957010746002197 36 31 32
9.785554885864258 -0.8884942531585693 24.911073684692383 128 118 110
3.205627202987671 -1.785657286643982 14.326176643371582 12 9 9
9.049826622009277 -2.7924952507019043 23.251882553100586 50 43 49
-1.047849416732788 -0.9179941415786743 7.6984333992004395 23 17 19
8.106742858886719 -0.6681599617004395 22.62486457824707 123 119 122
9.690397262573242 -0.7000294923782349 23.328397750854492 172 163 156
-2.293534517288208 -0.1506166011095047 6.18787956237793 126 121 120
-1.0253955125808716 1.6192626953125 7.75614595413208 19 13 14
-1.172377347946167 3.0509815216064453 7.504459381103516 23 18 20
-1.7236007452011108 0.7513153553009033 6.599250316619873 171 163 163
-0.6830294132232666 0.8783522248268127 8.115551948547363 76 68 69
-2.071690797805786 -0.1467931568622589 6.023504257202148 20 14 15
3.0895774364471436 0.17987440526485443 14.285905838012695 39 33 38
-1.5322492122650146 1.8840571641921997 6.910528182983398 99 92 92
-1.6990972757339478 1.9247266054153442 6.722189426422119 135 128 128
8.773873329162598 -1.107104778289795 23.39031410217285 173 170 172
-1.0400227308273315 2.817622423171997 7.765365123748779 12 7 8
-1.54190194606781 0.7388079166412354 6.839309215545654 30 25 26
9.93596076965332 -0.3097085654735565 26.111434936523438 71 66 66
9.11384105682373 -0.21052436530590057 24.129987716674805 55 51 55
2.100865602493286 -0.41040292382240295 12.338314056396484 18 12 13
4.255789279937744 -0.14933757483959198 16.62509536743164 100 92 81
-0.5127977728843689 -0.06750722229480743 8.253660202026367 116 109 110
4.9068684577941895 -1.9046823978424072 17.270780563354492 4 3 11
8.940542221069336 -0.20330525934696198 23.675920486450195 48 44 48
9.893129348754883 -0.5710524320602417 25.090076446533203 42 35 31
-2.3632218837738037 -0.021947309374809265 6.0927863121032715 164 160 155
-1.5453916788101196 1.4362471103668213 6.9314141273498535 70 63 63
-1.3672813177108765 3.0696990489959717 7.244539260864258 15 11 12
-1.9433637857437134 2.479031562805176 6.559767723083496 87 82 81
-1.532102108001709 2.6138670444488525 6.910809516906738 86 80 81
-1.5320961475372314 2.6138596534729004 6.910794734954834 86 80 81
2.198295831680298 -1.8826912641525269 12.274165153503418 28 23 23
4.210793495178223 0.06802403926849365 16.40797233581543 88 79 68
-0.3635983467102051 2.773003339767456 8.957025527954102 16 11 13
-0.5340937972068787 3.6496331691741943 7.329753398895264 118 109 101
8.64306640625 -2.427520275115967 23.283069610595703 75 69 70
-0.5208980441093445 2.041757583618164 8.57175350189209 51 42 41
7.693523406982422 -2.203277111053467 21.470720291137695 100 93 95
-2.2481207847595215 1.4649993181228638 6.180375576019287 132 127 122
-1.038016676902771 3.059530735015869 7.850197792053223 96 91 91
-1.8748315572738647 0.958087682723999 6.340967655181885 117 111 110
2.853273630142212 0.21201029419898987 14.487833976745605 31 24 31
4.227262020111084 0.26497185230255127 16.54707145690918 76 68 56
9.342927932739258 -0.6625003218650818 24.525339126586914 80 70 59
8.083224296569824 0.4732992351055145 22.61055564880371 118 114 119
-1.0225390195846558 1.3870948553085327 7.678786754608154 104 98 103
2.7849087715148926 -2.0253024101257324 12.862136840820312 39 34 36
8.083930015563965 0.47335702180862427 22.612428665161133 118 114 119
-0.5065117478370667 0.20331889390945435 8.385669708251953 121 114 116
-1.0347086191177368 0.22787690162658691 7.737719535827637 28 22 21
-1.8755438327789307 2.6522445678710938 6.402321815490723 80 74 73
-1.6991397142410278 -0.7738124132156372 6.521106243133545 148 142 143
-0.8524182438850403 1.6091506481170654 8.001553535461426 37 31 32
-0.8484915494918823 1.5996230840682983 7.955618381500244 56 50 51
-2.269667625427246 1.2371761798858643 6.18192720413208 59 53 48
2.954115152359009 -1.5158640146255493 13.612469673156738 22 17 19
-1.368595838546753 0.24577774107456207 7.07977294921875 39 34 35
-1.878909707069397 1.2380006313323975 6.381820201873779 130 122 122
-2.09952974319458 -1.5826343297958374 5.9616193771362305 29 24 23
-2.2912213802337646 -1.8204752206802368 6.038961887359619 136 133 126
-2.010591983795166 -2.051408529281616 5.8526835441589355 152 146 142
4.510272026062012 0.2785555422306061 16.592687606811523 111 110 120
2.1974542140960693 0.24318230152130127 12.914427757263184 40 34 39
2.4765396118164062 -0.8432928919792175 12.74321460723877 18 11 14
3.1642043590545654 0.5984189510345459 14.437525749206543 6 1 4
1.1017059087753296 3.589298725128174 7.289556980133057 138 129 123
1.3965470790863037 1.407213568687439 11.681839942932129 15 10 12
3.86956524848938 2.296382427215576 16.64832305908203 142 136 125
3.232409715652466 -0.13584211468696594 14.486493110656738 169 162 162
-1.4292166233062744 -2.1386077404022217 7.118847370147705 103 97 98
4.359501361846924 1.1501998901367188 17.030467987060547 104 98 86
-1.7145094871520996 0.9911147952079773 6.585832595825195 16 8 9
3.0511550903320312 -2.762202024459839 13.872479438781738 15 7 11
-0.16481690108776093 3.6356041431427 8.12798023223877 165 153 146
3.2063424587249756 -0.07457801699638367 14.33565902709961 83 76 72
1.4622396230697632 3.5399985313415527 7.111907482147217 74 65 59
-1.0791871547698975 -0.46285051107406616 7.694873809814453 23 17 19
-1.1012986898422241 3.164614200592041 7.973040580749512 69 63 64
2.9716081619262695 -1.0995992422103882 13.7808256149292 13 9 14
-0.3834526240825653 -0.7331264615058899 8.895423889160156 29 23 24
-0.8749459981918335 0.6860517263412476 8.002633094787598 16 10 11
-2.2290549278259277 -2.123760223388672 5.86492919921875 87 79 78
-2.160555839538574 -2.089264154434204 5.838939666748047 118 112 106
-2.0582144260406494 -2.1112945079803467 5.995650768280029 136 130 126
-2.0301434993743896 -2.0433082580566406 5.891295433044434 40 34 30
-2.0074565410614014 -2.0546391010284424 5.960330963134766 48 42 39
-1.8209912776947021 -1.9604434967041016 5.889013290405273 90 84 81
-1.7921323776245117 -2.1099181175231934 6.627641201019287 85 78 77
-1.6817678213119507 -2.122680902481079 6.703145980834961 130 124 119
-2.3243587017059326 -1.8645778894424438 5.952232837677002 71 65 59
-2.330213785171509 -1.89981210231781 6.036242485046387 82 77 72
-2.3553740978240967 -1.8685699701309204 5.960400581359863 118 113 105
-2.060728073120117 -1.8452166318893433 5.9012770652771 109 102 99
-2.068373918533325 -1.8154493570327759 5.954374313354492 120 113 112
-2.4793434143066406 -1.8185362815856934 6.074412822723389 65 57 49
-1.7509843111038208 -1.830396056175232 6.5315351486206055 25 16 16
-2.2744648456573486 -1.5762203931808472 6.061435222625732 91 86 84
4.4071526527404785 1.6045470237731934 17.2119140625 111 103 92
-2.0528481006622314 -1.4552959203720093 5.942634105682373 35 30 30
-1.368455410003662 -1.8562424182891846 7.8923540115356445 115 108 105
-2.061093807220459 -1.3678001165390015 5.930109024047852 140 135 133
5.2817888259887695 1.845650315284729 19.48863410949707 64 60 61
4.613524913787842 1.5928548574447632 16.963298797607422 63 59 60
-1.7583523988723755 -1.4024658203125 6.5591654777526855 89 80 79
3.1361043453216553 -2.892312526702881 13.75484848022461 18 11 17
-1.5794357061386108 -1.6932353973388672 8.056170463562012 58 48 42
-1.7441143989562988 -1.3507990837097168 6.513185024261475 41 31 30
-1.7442119121551514 -1.3508633375167847 6.513524532318115 41 31 30
3.5760498046875 -3.0461652278900146 14.891075134277344 44 37 45
3.987060785293579 -3.269134521484375 16.171348571777344 66 62 71
-1.3698534965515137 0.7264516949653625 7.146824359893799 148 143 142
-1.362718105316162 -1.5366624593734741 7.98834228515625 118 108 102
-1.753453016281128 -1.2411012649536133 6.578326225280762 36 30 34
-2.2801971435546875 -1.10623300075531 6.1115241050720215 107 102 99
-1.2996439933776855 -1.4393986463546753 8.01291275024414 45 38 38
-1.340038776397705 -1.3580971956253052 7.912204265594482 123 115 113
4.441922187805176 -2.7822983264923096 16.034303665161133 43 40 50
2.4399282932281494 -2.074289083480835 12.450291633605957 31 25 26
2.753354072570801 -2.1043243408203125 13.121074676513672 25 19 20
3.947023868560791 -2.9299659729003906 18.42728042602539 21 15 17
3.051750898361206 -2.1297597885131836 13.674476623535156 90 87 90
-1.0978811979293823 -1.2222323417663574 7.975581169128418 20 14 14
3.3104236125946045 -2.201507329940796 14.63274097442627 50 48 50
2.7829084396362305 -1.8995625972747803 13.179739952087402 19 14 14
3.2001874446868896 -2.04779052734375 14.152355194091797 55 51 50
2.7848613262176514 -1.900853157043457 13.189022064208984 19 14 14
-2.2490432262420654 -0.8620436787605286 6.117438793182373 145 140 141
-1.912988543510437 -0.868837833404541 6.234448432922363 44 38 39
4.498682975769043 -2.2482850551605225 16.25658416748047 25 24 31
8.0549955368042 -2.7777462005615234 21.685060501098633 35 28 31
2.8072400093078613 -1.7028765678405762 13.315930366516113 20 14 17
4.3400373458862305 -2.028449058532715 15.971866607666016 26 24 29
-1.9184070825576782 0.7810811400413513 6.333200454711914 111 106 106
3.157724380493164 -1.8328993320465088 14.846073150634766 147 144 147
-2.2703776359558105 0.7753831148147583 6.175588607788086 142 138 134
9.062849998474121 -2.7961318492889404 23.284080505371094 50 43 49
-1.1646802425384521 0.9200616478919983 7.327466011047363 114 107 108
3.1497623920440674 -1.7542835474014282 14.077058792114258 12 9 9
3.912041664123535 -1.9542224407196045 15.916610717773438 178 169 151
-1.0476468801498413 -0.9178237915039062 7.696986198425293 23 17 19
2.2150139808654785 -1.4736768007278442 12.400131225585938 64 57 60
4.5330071449279785 -1.924364686012268 16.495771408081055 165 165 171
3.1447243690490723 -1.605605959892273 14.067352294921875 189 184 185
4.070068359375 -1.8017834424972534 16.00260353088379 189 181 162
2.310171127319336 -1.3803532123565674 12.998860359191895 98 92 95
4.583287239074707 -1.7083702087402344 16.03440284729004 133 132 143
-2.2918965816497803 -0.6274277567863464 6.130044460296631 119 115 112
2.1312687397003174 -1.2779523134231567 12.38064193725586 19 12 16
2.2492451667785645 -1.2825877666473389 12.575915336608887 26 20 22
8.642839431762695 -2.4274826049804688 23.282466888427734 75 69 70
4.166697978973389 2.3235275745391846 17.8480167388916 172 164 151
5.11498498916626 -1.8122841119766235 17.83021354675293 140 139 150
4.160916328430176 -1.620220422744751 16.084609985351562 166 162 160
4.172873020172119 2.2079761028289795 16.959814071655273 149 147 145
-1.7051301002502441 -0.6509444713592529 6.568697929382324 37 31 32
2.873417615890503 -1.3096226453781128 13.594951629638672 13 7 9
4.334105491638184 2.1908440589904785 16.79960823059082 219 215 214
3.073794364929199 -1.3196868896484375 13.859580039978027 44 39 38
8.634087562561035 -2.2295172214508057 23.24620246887207 39 31 32
9.339313507080078 -2.4020020961761475 24.489463806152344 145 140 139
4.334393501281738 2.190986156463623 16.800500869750977 219 215 214
-1.372167706489563 0.9508978128433228 7.107334613800049 25 17 17
3.3858704566955566 1.870849370956421 14.441740989685059 94 90 82
3.0966732501983643 -1.1954972743988037 14.09463882446289 151 147 152
4.48696231842041 2.2218589782714844 16.400924682617188 94 86 81
4.143205642700195 2.3867337703704834 17.406654357910156 179 175 166
7.936131000518799 -1.7580276727676392 21.985597610473633 43 36 37
8.75574016571045 -1.855170488357544 23.580753326416016 96 89 88
8.185112953186035 -1.6862926483154297 22.489444732666016 42 34 35
-1.5640767812728882 0.9621610045433044 6.835187911987305 25 18 18
-1.9152213335037231 -0.406936377286911 6.243685722351074 25 19 21
-1.8734480142593384 -0.40953871607780457 6.272164821624756 38 32 33
-1.5499358177185059 0.9736634492874146 6.9172043800354 145 140 139
-0.8644521832466125 -0.5008536577224731 7.988368511199951 97 91 91
4.437147617340088 -1.0159088373184204 16.460494995117188 134 133 137
3.90567684173584 2.307100296020508 16.377174377441406 130 123 111
4.684447765350342 -1.029043436050415 17.0369873046875 69 67 73
3.2269132137298584 -0.714929461479187 14.677055358886719 6 3 7
-1.8536028861999512 0.9429889917373657 6.282041072845459 104 97 97
-1.714387059211731 0.9910469055175781 6.585465431213379 16 8 9
-0.5179085731506348 1.2889552116394043 8.493620872497559 97 90 91
-1.9095591306686401 1.002354383468628 6.395939350128174 110 105 104
9.784225463867188 -0.88839191198349 24.90766143798828 128 118 110
10.063726425170898 -0.8973618745803833 24.96295928955078 124 111 104
-1.34702467918396 -0.24340888857841492 7.004237651824951 115 109 110
3.091724157333374 -0.47359898686408997 14.158483505249023 50 44 49
9.783923149108887 -0.8883800506591797 24.90690040588379 128 118 110
10.1834135055542 -0.8036019206047058 25.088130950927734 54 42 34
-1.896270751953125 0.982505202293396 6.258138179779053 29 23 24
9.689797401428223 -0.7000030875205994 23.327009201049805 172 163 156
-1.909716248512268 1.002442717552185 6.396363258361816 110 105 104
3.6807267665863037 2.3579585552215576 14.864950180053711 55 51 45
-0.7067553400993347 3.6530768871307373 7.142371654510498 93 84 76
9.342672348022461 -0.6624780893325806 24.52469825744629 80 70 59
-2.293483018875122 -0.15061740577220917 6.187737941741943 126 121 120
9.988478660583496 -0.7275208830833435 25.43894386291504 146 136 127
-0.5271536111831665 3.6928892135620117 7.563071250915527 151 142 134
-2.0717008113861084 -0.14679303765296936 6.023528099060059 20 14 15
4.469869613647461 -0.3542236089706421 16.364307403564453 21 20 29
4.663945198059082 -0.14542382955551147 17.166677474975586 20 20 28
-0.16834302246570587 -0.0794697254896164 7.787569046020508 59 52 52
4.256797790527344 -0.14940133690834045 16.628942489624023 100 92 81
4.661169528961182 -0.1454278528690338 17.157136917114258 20 20 28
-2.3632867336273193 -0.02194572053849697 6.092932224273682 164 160 155
-1.0505834817886353 0.00685945525765419 7.701722145080566 18 11 12
-1.735531210899353 1.2331821918487549 6.6985039710998535 167 159 159
4.21055793762207 0.06803455203771591 16.407140731811523 88 79 68
4.917036056518555 0.07663007825613022 17.8315486907959 42 41 51
-1.0380417108535767 3.05963397026062 7.850409984588623 96 91 91
-0.9423201084136963 3.0662412643432617 8.007740020751953 53 48 47
-2.2763311862945557 0.07476653158664703 6.152663230895996 111 107 106
-1.941066026687622 2.477771043777466 6.555143356323242 77 72 71
-1.1976995468139648 2.83133602142334 7.541093349456787 110 105 108
3.831634283065796 0.21863023936748505 17.316165924072266 112 106 109
4.227629661560059 0.2649761140346527 16.54844856262207 76 68 56
-0.8482763767242432 1.5991226434707642 7.953153133392334 56 50 51
-0.3253379464149475 2.9975173473358154 8.993220329284668 18 12 13
4.510044097900391 0.2785354554653168 16.591909408569336 111 110 120
8.082639694213867 0.4732379913330078 22.60896873474121 118 114 119
8.08349323272705 0.47332003712654114 22.611257553100586 118 114 119
5.376413345336914 0.44791844487190247 18.071989059448242 150 146 160
-1.0347181558609009 0.2278802990913391 7.737820625305176 28 22 21
4.284294128417969 0.48287108540534973 16.769262313842773 51 43 32
-1.5463924407958984 1.435071587562561 6.9297099113464355 97 90 90
2.6190857887268066 0.41775837540626526 13.442620277404785 11 6 13
2.6201443672180176 0.4180229902267456 13.447761535644531 11 6 13
-1.1799601316452026 0.23725278675556183 7.31210994720459 27 21 22
-2.2682301998138428 1.9004919528961182 6.185211181640625 41 35 30
-2.2681288719177246 1.9004071950912476 6.184999942779541 41 35 30
3.1351561546325684 0.5923750400543213 14.31847858428955 6 1 4
-1.7132270336151123 1.9264534711837769 6.639395236968994 21 15 14
-2.3081202507019043 0.29124897718429565 6.211340427398682 53 49 46
-0.35502204298973083 0.41413944959640503 8.911578178405762 13 8 12
-1.8938313722610474 0.30287668108940125 6.2932257652282715 28 21 22
4.359626293182373 1.1502314805984497 17.03094482421875 104 98 86
4.295287609100342 1.3427146673202515 16.797046661376953 59 51 43
4.607643127441406 1.3562501668930054 16.840652465820312 23 19 20
-1.912311315536499 0.5257681012153625 6.365687847137451 144 137 137
-0.898892879486084 1.8269439935684204 7.906062602996826 16 11 11
-0.43062740564346313 2.712009906768799 8.796284675598145 92 88 90
-0.546197772026062 -0.030226778239011765 8.597517967224121 35 27 28
-1.8671979904174805 -2.0845654010772705 6.311710357666016 48 42 39
-2.069779396057129 0.5482730865478516 6.039525508880615 152 145 146
-1.3322094678878784 -1.6964480876922607 8.066615104675293 33 27 27
-1.2823079824447632 3.039128303527832 7.249342441558838 24 20 22
-2.0638439655303955 -0.3740963935852051 5.994268417358398 148 141 145
-2.1550168991088867 -1.0722602605819702 5.9201459884643555 132 127 126
4.486495494842529 -2.9196412563323975 16.561561584472656 28 25 34
-1.3446227312088013 1.390138030052185 7.068775177001953 39 33 34
-1.8696722984313965 -0.873040497303009 6.257904052734375 37 31 32
8.44840145111084 -3.118722677230835 22.74859046936035 35 27 29
-0.6482943892478943 0.8850679397583008 8.254266738891602 65 58 60
7.887683868408203 -0.9785333871841431 22.078235626220703 33 27 29
-2.30786395072937 -0.4322909712791443 6.14513635635376 70 65 62
7.368930339813232 2.6668877601623535 22.07490348815918 75 66 57
-2.1132192611694336 0.6589024066925049 6.109551906585693 147 136 136
8.751076698303223 -2.804238796234131 22.86891746520996 92 86 92
-1.3672800064086914 3.069697141647339 7.24453592300415 15 11 12
-1.7122254371643066 1.6692051887512207 6.650805473327637 76 68 68
6.393191814422607 -1.6493430137634277 20.655427932739258 40 34 43
5.313262939453125 -4.327770233154297 13.895467758178711 110 98 88
7.950291633605957 0.041042156517505646 22.19525909423828 92 88 93
3.232970952987671 -0.1358519047498703 14.48876953125 169 162 162
2.7512364387512207 0.20457494258880615 13.97095012664795 18 12 19
-2.27638840675354 1.1661349534988403 6.178210258483887 66 62 57
-0.9696515202522278 3.6182775497436523 7.2858805656433105 102 93 85
2.963916778564453 -2.5996298789978027 13.177234649658203 28 20 25
5.0111308097839355 -0.176137775182724 17.899965286254883 130 128 140
-1.9624305963516235 2.7724077701568604 6.070226669311523 104 99 98
-0.905311107635498 0.6798758506774902 7.925298690795898 16 11 12
3.037581205368042 0.09396416693925858 14.452277183532715 65 59 66
-0.3925718665122986 0.6457133293151855 8.778521537780762 35 30 30
-1.0206741094589233 -1.829731822013855 7.437253475189209 43 35 33
-1.3195970058441162 -1.3113240003585815 8.065679550170898 44 39 40
-1.9960861206054688 -2.7355382442474365 6.084205150604248 45 38 35
-2.160536289215088 -2.0892446041107178 5.838886260986328 118 112 106
-2.1315903663635254 -2.029691219329834 5.696618556976318 74 68 63
-2.0108795166015625 -2.059598445892334 5.840866565704346 135 130 126
-1.83279287815094 -2.151040554046631 6.752878665924072 62 56 55
-1.681780457496643 -2.1226959228515625 6.703189373016357 130 124 119
5.31533145904541 -4.329354286193848 13.900496482849121 110 98 88
-2.3302783966064453 -1.8998570442199707 6.036403179168701 82 77 72
-2.3018226623535156 -1.8621426820755005 6.049239635467529 105 100 94
-2.060725688934326 -1.8452156782150269 5.901282787322998 109 102 99
-2.1885170936584473 -1.7858935594558716 5.804149150848389 124 119 114
-2.0170068740844727 -1.773358702659607 5.830689430236816 155 148 146
-1.7441744804382324 -1.864740014076233 6.459126949310303 124 118 117
-1.8141533136367798 -1.8972426652908325 6.679640293121338 37 30 27
-1.7509188652038574 -1.8303191661834717 6.531320095062256 25 16 16
-2.049457550048828 -1.5777736902236938 5.893483638763428 41 36 35
-2.052884340286255 -1.4553213119506836 5.9427337646484375 35 30 30
-2.288499116897583 -1.3509882688522339 6.1019673347473145 47 42 40
-0.9809741377830505 -1.5595968961715698 7.237504005432129 41 34 33
-1.8649338483810425 -1.3429292440414429 6.223590850830078 29 24 25
-1.3322283029556274 -1.6964693069458008 8.066720962524414 33 27 27
-1.7735329866409302 -1.371485710144043 6.605569362640381 66 57 56
3.5758795738220215 -3.0460171699523926 14.890358924865723 44 37 45
3.5543320178985596 -2.956873655319214 14.592215538024902 17 13 21
3.051288604736328 -2.762319326400757 13.873093605041504 15 7 11
-2.0719761848449707 -1.1415908336639404 5.9720139503479 78 72 72
3.8059675693511963 -2.8809900283813477 15.387983322143555 27 23 30
-2.2803966999053955 -1.1063299179077148 6.1120710372924805 107 102 99
-2.1524264812469482 -1.1050151586532593 6.039821624755859 96 90 90
-1.2997667789459229 -1.4395134449005127 8.01356315612793 45 38 38
-1.3830640316009521 -1.3812512159347534 7.875627040863037 48 39 38
-1.850645661354065 -1.0755541324615479 6.187140464782715 151 145 146
-1.4140037298202515 -1.4249837398529053 8.260748863220215 128 122 118
-1.3197269439697266 -1.3116166591644287 8.066224098205566 44 39 40
2.917710781097412 -2.1102442741394043 13.723100662231445 130 125 126
2.4866108894348145 -1.6905447244644165 11.174202919006348 88 85 87
2.429715633392334 -2.087132453918457 13.979660034179688 60 55 57
2.1983730792999268 -1.8827526569366455 12.274565696716309 28 23 23
3.21081805229187 -2.1251254081726074 14.53935718536377 137 134 136
3.765949010848999 -2.413560390472412 16.68324089050293 100 95 95
2.412390947341919 -1.9468517303466797 13.624565124511719 87 82 84
-2.0785274505615234 -0.8512638807296753 6.035262107849121 171 164 165
-2.033179521560669 -0.9298502206802368 6.714794158935547 32 26 27
4.32078742980957 -2.2715675830841064 16.226337432861328 42 37 40
-2.0335299968719482 -0.9299302697181702 6.715800762176514 32 26 27
6.151844501495361 -2.997297763824463 21.90141487121582 14 13 22
8.447067260742188 -3.1182730197906494 22.745140075683594 35 27 29
2.3734793663024902 -1.7511804103851318 13.271001815795898 81 74 77
-1.8487321138381958 -0.8080205321311951 6.2185587882995605 77 70 73
3.104032278060913 -1.7820295095443726 13.765457153320312 61 55 50
4.715606689453125 -2.108837604522705 17.292516708374023 163 161 166
3.912716865539551 -1.9545468091964722 15.919170379638672 178 169 151
4.077534198760986 -1.8623046875 15.895918846130371 161 152 138
4.750210762023926 -2.0303444862365723 17.312746047973633 161 161 166
3.2209300994873047 -1.6685826778411865 14.487019538879395 137 136 139
2.258046865463257 -1.4546449184417725 12.736783981323242 101 94 98
4.132494926452637 -1.763468861579895 15.418724060058594 44 43 46
1.9533370733261108 -1.196469783782959 11.126535415649414 95 88 93
-2.2918801307678223 -0.6274207830429077 6.130003929138184 119 115 112
7.5483078956604 -2.196997880935669 21.047359466552734 92 86 87
8.520968437194824 -2.443014144897461 23.445241928100586 18 12 12
8.643007278442383 -2.427504062652588 23.282913208007812 75 69 70
10.25448226928711 -2.6914827823638916 25.91114616394043 96 89 92
4.775213718414307 -1.705888032913208 16.729326248168945 132 131 142
3.267768144607544 -1.296663522720337 12.839405059814453 104 98 88
-1.725135087966919 -0.6567091941833496 6.632818698883057 37 31 32
8.923728942871094 -2.3910882472991943 24.013765335083008 134 127 128
-1.4159049987792969 -0.6924335360527039 7.239675998687744 56 50 51
3.9679205417633057 -1.8109166622161865 18.764793395996094 25 18 20
5.162336826324463 -1.7776585817337036 18.19938087463379 18 16 24
4.268585681915283 -1.4985524415969849 15.662825584411621 166 165 172
5.380316257476807 -1.8366671800613403 19.507221221923828 160 159 167
4.845449924468994 -1.6127265691757202 17.660579681396484 155 153 161
3.188380241394043 -1.2315797805786133 14.546629905700684 141 137 142
3.003457546234131 -1.1113946437835693 13.911775588989258 13 9 14
-2.2804501056671143 -0.4766268730163574 6.076519012451172 46 41 41
5.400503635406494 -1.4606332778930664 19.847387313842773 23 22 26
8.690306663513184 -1.6568931341171265 23.43439292907715 49 40 40
7.812483310699463 -1.4814378023147583 21.487396240234375 122 114 115
-1.9274362325668335 -0.4078512489795685 6.277409076690674 25 19 21
-1.8593674898147583 -0.40696606040000916 6.252738952636719 34 28 29
4.384067058563232 -1.0409400463104248 15.98811149597168 131 130 135
-0.8843917846679688 -0.47047317028045654 8.021491050720215 19 13 13
4.684535503387451 -1.0290931463241577 17.03725242614746 69 67 73
-1.0574467182159424 -0.4700150191783905 7.9191131591796875 30 23 25
1.4772473573684692 -0.5972886085510254 11.49118423461914 17 12 13
3.2233126163482666 -0.7144449353218079 14.661369323730469 6 3 7
3.105875015258789 -0.4741104245185852 14.253923416137695 39 33 38
-1.0401357412338257 -0.23501701653003693 7.673712253570557 44 39 38
4.1009440422058105 -0.5531110763549805 16.04894256591797 112 103 87
9.689676284790039 -0.7000004053115845 23.326702117919922 172 163 156
7.258610248565674 -0.5512177348136902 19.27134132385254 107 99 96
-2.0830438137054443 -0.13492926955223083 5.8831377029418945 127 121 122
10.404561042785645 -0.5330174565315247 24.96387481689453 89 78 76
4.470417022705078 -0.35420334339141846 16.36629295349121 14 13 21
3.2328896522521973 -0.13585588335990906 14.488661766052246 169 162 162
4.661862850189209 -0.14541690051555634 17.159496307373047 20 20 28
9.11290168762207 -0.21049362421035767 24.12759780883789 55 51 55
2.738865375518799 -0.01983836479485035 13.480182647705078 30 23 30
7.951509952545166 0.041139088571071625 22.198566436767578 92 88 93
-1.5845588445663452 0.051733389496803284 6.765564918518066 155 149 152
-2.2763495445251465 0.0747770145535469 6.152717113494873 111 107 106
3.0895416736602783 0.17987510561943054 14.285774230957031 39 33 38
8.083758354187012 0.4733440577983856 22.611989974975586 118 114 119
5.375734806060791 0.44784414768218994 18.069828033447266 150 146 160
-1.798715353012085 0.17469929158687592 6.331326961517334 111 99 99
-1.3466815948486328 0.21342583000659943 7.01584529876709 111 106 107
2.8335297107696533 0.42972779273986816 14.061468124389648 85 78 88
3.130641460418701 0.591741144657135 14.301127433776855 6 1 4
-0.2076570987701416 0.40038689970970154 9.177132606506348 26 21 23
-0.6621548533439636 0.44025030732154846 8.076007843017578 127 120 122
4.359415531158447 1.1501779556274414 17.030181884765625 104 98 86
4.28076171875 1.0762568712234497 15.974822998046875 31 29 32
-0.20929430425167084 0.6293204426765442 9.010741233825684 64 58 61
-0.3925747871398926 0.6457161903381348 8.778552055358887 35 30 30
4.2953925132751465 1.3427505493164062 16.797428131103516 59 51 43
4.604361534118652 1.3552672863006592 16.82978057861328 23 19 20
-1.9124500751495361 0.5258162617683411 6.366067409515381 144 137 137
3.115154981613159 1.3618007898330688 14.16231632232666 105 98 99
6.848813056945801 2.0298287868499756 20.64857292175293 69 63 59
-1.3698577880859375 0.726453423500061 7.146834373474121 148 143 142
-1.723576307296753 0.7513039708137512 6.5991668701171875 171 163 163
-1.8048557043075562 0.7406660318374634 6.146018028259277 85 78 79
-2.2705137729644775 0.775385320186615 6.175757884979248 142 138 134
-1.097726583480835 0.9560829997062683 7.809162616729736 81 74 77
7.369162559509277 2.6669600009918213 22.075586318969727 75 66 57
-2.2705960273742676 0.7754276990890503 6.176011085510254 142 138 134
-1.1540883779525757 0.9065573811531067 7.236467361450195 125 118 119
2.8006720542907715 1.820570468902588 14.314453125 66 58 59
2.494089365005493 1.7725218534469604 13.48228931427002 46 38 38
4.981213569641113 2.5956759452819824 19.64865493774414 73 69 67
3.7416722774505615 1.8990237712860107 14.527417182922363 183 178 174
4.028810024261475 2.2743351459503174 16.99044418334961 30 27 22
-1.550205111503601 0.9247795939445496 6.898139953613281 47 41 40
4.5947346687316895 2.3015329837799072 16.82201385498047 159 148 141
-1.5499547719955444 0.9736710786819458 6.9172682762146 145 140 139
4.648725509643555 2.4528069496154785 16.72197914123535 68 59 55
-1.7144010066986084 0.9910538196563721 6.5854949951171875 16 8 9
-0.3937070369720459 1.359907865524292 8.866231918334961 104 98 98
-1.9097198247909546 1.0024418830871582 6.396366596221924 110 105 104
4.100007057189941 2.6721198558807373 16.515512466430664 37 33 29
3.8759679794311523 2.700437307357788 16.10391616821289 61 58 53
4.06239128112793 2.797415018081665 16.49599838256836 65 61 58
-1.5490334033966064 1.2133290767669678 6.889981746673584 12 6 8
-1.5709450244903564 1.193678617477417 6.777871131896973 20 14 17
-1.7355479001998901 1.2331904172897339 6.698547840118408 167 159 159
-1.6917016506195068 1.2340010404586792 6.706180095672607 129 121 121
-1.0759912729263306 1.3314812183380127 7.239337921142578 85 78 81
-1.996816873550415 1.3245385885238647 6.7079997062683105 104 96 96
-1.9096176624298096 1.24590003490448 6.318812847137451 153 145 145
-0.3507554531097412 1.7976775169372559 8.871285438537598 16 10 12
-1.589669108390808 1.4445186853408813 6.930156230926514 26 18 18
-1.9136196374893188 1.4527722597122192 6.330203056335449 26 18 18
-2.2440402507781982 1.4301046133041382 6.141862392425537 75 69 64
-1.7122222185134888 1.6692019701004028 6.6507954597473145 76 68 68
-2.262317419052124 1.6789329051971436 6.168578624725342 132 126 118
-0.6844346523284912 2.5479395389556885 8.409586906433105 137 132 133
-2.268234968185425 1.9004969596862793 6.185230731964111 41 35 30
-0.9423164129257202 3.066246271133423 8.007749557495117 53 48 47
-2.020714521408081 2.3939719200134277 6.051022529602051 108 101 98
-1.172529697418213 3.051680088043213 7.506101608276367 23 18 20
0.18356627225875854 3.5448873043060303 8.661386489868164 69 60 54
0.17680104076862335 3.574434995651245 8.614853858947754 154 143 138
-2.0587518215179443 -2.0566205978393555 5.905655384063721 42 36 31
-2.066636323928833 -2.035691738128662 5.929755210876465 131 126 122
-1.9356234073638916 -2.1998109817504883 6.757753849029541 85 80 78
-2.3302500247955322 -1.8998335599899292 6.036340713500977 82 77 72
-2.263439655303955 -1.8222529888153076 6.024782180786133 52 48 44
-1.8425921201705933 -1.9652934074401855 6.757650852203369 123 117 117
-1.7508606910705566 -1.8302574157714844 6.531132221221924 25 16 16
-2.2742300033569336 -1.5760706663131714 6.060911178588867 91 86 84
-1.4168680906295776 -1.8844835758209229 8.082077980041504 118 111 107
-2.288400888442993 -1.350936770439148 6.101743221282959 47 42 40
-2.017843246459961 -1.4512304067611694 6.7336506843566895 33 28 28
-1.758404016494751 -1.402477502822876 6.55935525894165 89 80 79
-1.5794575214385986 -1.6932512521743774 8.056259155273438 58 48 42
-1.7442222833633423 -1.3508700132369995 6.513535022735596 41 31 30
3.9784703254699707 -3.2558233737945557 16.013879776000977 115 109 119
3.051116943359375 -2.7621703147888184 13.87231159210205 15 7 11
3.2493042945861816 -2.491865634918213 13.268556594848633 43 40 46
3.888073205947876 -2.7941839694976807 15.230650901794434 41 37 46
-2.152416467666626 -1.1050108671188354 6.039798736572266 96 90 90
-2.0585825443267822 -1.0895617008209229 5.948763847351074 40 32 32
-1.4119594097137451 -1.484987735748291 8.235230445861816 124 115 111
-1.7737040519714355 -1.1705125570297241 6.554254055023193 117 112 114
-1.878915786743164 -1.0851361751556396 6.266876697540283 138 133 134
4.4411163330078125 -2.7818174362182617 16.031578063964844 36 33 42
2.752645492553711 -2.103813409805298 13.117874145507812 25 19 20
-1.0978624820709229 -1.222238302230835 7.975596904754639 20 14 14
2.7368595600128174 -1.9828431606292725 12.93911361694336 146 141 142
2.8756320476531982 -1.9617515802383423 13.00492000579834 117 114 116
3.1313934326171875 -2.106733798980713 13.906535148620605 28 25 27
2.8432555198669434 -1.9058979749679565 12.974080085754395 136 134 135
3.0057520866394043 -1.9379544258117676 13.357949256896973 47 43 42
-2.1827430725097656 -0.8474026918411255 5.9030585289001465 46 41 40
-2.1534698009490967 -0.8411391377449036 5.944225788116455 197 192 193
-2.101550340652466 -0.8417867422103882 5.932201385498047 190 185 186
-2.0310425758361816 -0.8372080326080322 5.930498123168945 159 152 153
4.499260425567627 -2.2485451698303223 16.258636474609375 25 24 31
4.052146911621094 -2.041358709335327 15.94827651977539 152 143 132
2.902852773666382 -1.663218379020691 13.59243392944336 133 129 134
3.912701368331909 -1.9545390605926514 15.919111251831055 178 169 151
2.9270718097686768 -1.5495902299880981 13.35439682006836 145 143 148
2.1470413208007812 -1.3922693729400635 12.154444694519043 98 91 94
3.376481771469116 -1.502037763595581 13.262396812438965 157 150 139
3.136373996734619 -1.5449025630950928 14.05225658416748 22 17 17
8.64306926727295 -2.4275240898132324 23.283079147338867 75 69 70
-1.8987888097763062 -0.6175164580345154 6.255389213562012 108 103 104
-1.816198468208313 -0.6758477687835693 6.711577892303467 18 12 13
-1.7588857412338257 -0.6715161800384521 6.791353702545166 44 38 39
2.9662256240844727 -1.3159855604171753 13.665879249572754 77 72 74
3.2747678756713867 -1.298646330833435 12.865653991699219 104 98 88
4.158333778381348 -1.4223994016647339 14.55359172821045 34 32 42
9.338887214660645 -2.401937961578369 24.488554000854492 145 140 139
8.056513786315918 -1.9122345447540283 22.42323875427246 118 110 111
8.1626558303833 -1.704912543296814 22.467863082885742 39 31 32
8.690369606018066 -1.6569042205810547 23.43454360961914 49 40 40
8.0880765914917 -1.5208975076675415 22.256511688232422 114 107 108
4.604179859161377 -1.1040756702423096 16.824098587036133 128 127 131
-1.8282470703125 -0.16348305344581604 6.567250728607178 173 166 168
4.469846725463867 -0.3542208969593048 16.364229202270508 21 20 29
9.9356689453125 -0.3097904622554779 26.11069107055664 71 66 66
9.113321304321289 -0.21051627397537231 24.128660202026367 55 51 55
4.917023181915283 0.07662525773048401 17.831464767456055 42 41 51
4.501662731170654 0.20280185341835022 16.460567474365234 114 113 123
5.373290061950684 0.4475841224193573 18.062076568603516 150 146 160
-1.3475537300109863 0.21082542836666107 7.009129047393799 93 88 89
4.284913539886475 0.48299363255500793 16.77161407470703 51 43 32
-1.7363083362579346 0.16746200621128082 6.1087517738342285 104 92 93
-1.4795141220092773 0.27411404252052307 6.6622490882873535 122 116 117
-2.308119535446167 0.29124343395233154 6.21132755279541 53 49 46
4.35921049118042 1.1501271724700928 17.02944564819336 104 98 86
-1.5463175773620605 0.5026238560676575 6.892910003662109 169 164 164
-1.9436583518981934 0.5379922389984131 6.566890716552734 72 65 66
3.021134614944458 1.310774564743042 13.748968124389648 106 99 100
-1.3702648878097534 0.7266064286231995 7.148687839508057 148 143 142
-1.7235863208770752 0.7513073682785034 6.5992021560668945 171 163 163
-1.8756349086761475 0.7701601386070251 6.2824273109436035 42 37 37
-1.8048551082611084 0.7406643629074097 6.1460137367248535 85 78 79
-1.9101945161819458 0.7616829872131348 6.2360405921936035 36 31 32
4.058681488037109 2.0790016651153564 16.18661117553711 132 127 121
3.406914234161377 1.8962085247039795 14.580506324768066 110 103 93
6.996347904205322 2.855987310409546 21.026756286621094 71 60 53
3.923802614212036 2.2718091011047363 16.425819396972656 133 127 117
4.6481523513793945 2.4524762630462646 16.719989776611328 68 59 55
4.263826370239258 2.562255859375 16.527681350708008 36 28 24
-1.8469371795654297 0.9566478729248047 6.049799919128418 94 88 89
4.34787130355835 2.728487253189087 17.325441360473633 26 20 14
-1.1754066944122314 1.4453189373016357 7.729399681091309 129 122 125
-1.222394347190857 1.4233232736587524 7.549849033355713 17 10 13
-0.8484001755714417 1.5994049310684204 7.954634666442871 56 50 51
-1.3483611345291138 1.625430941581726 7.137233257293701 50 42 42
-2.233534097671509 1.419287919998169 6.1132402420043945 66 61 56
-2.1199278831481934 1.4751018285751343 6.1149210929870605 122 117 112
-1.197699785232544 2.831343650817871 7.541109561920166 110 105 108
0.1768031120300293 3.5743179321289062 8.614617347717285 154 143 138
-2.1604063510894775 -2.089146614074707 5.838629722595215 118 112 106
-2.0588643550872803 -2.056765556335449 5.9059529304504395 42 36 31
-1.990099549293518 -2.0462441444396973 5.948393821716309 43 37 35
-1.9826037883758545 -1.9594917297363281 5.728822708129883 132 127 124
-1.795128583908081 -2.06400728225708 6.2901201248168945 34 28 25
-1.6904879808425903 -2.0242912769317627 6.341747283935547 36 28 25
-1.6862410306930542 -1.7785818576812744 6.267122268676758 36 29 26
-1.0758557319641113 -2.0814194679260254 7.645569801330566 91 84 83
-1.7386069297790527 -1.6379362344741821 6.405826091766357 114 108 109
-1.4729180335998535 -1.9479968547821045 8.380724906921387 120 114 109
-2.06115460395813 -1.367835521697998 5.930264949798584 140 135 133
-1.7921855449676514 -1.4401980638504028 6.60335636138916 116 111 110
-1.8893418312072754 -1.3593369722366333 6.2918500900268555 42 37 37
-1.0501694679260254 -1.6694161891937256 7.717743396759033 86 78 76
-1.7440496683120728 -1.3507497310638428 6.512946128845215 41 31 30
-1.7995390892028809 -1.3053655624389648 6.747944355010986 34 27 27
-1.3028042316436768 -1.5914185047149658 8.682290077209473 50 43 43
-1.8330683708190918 -1.1989414691925049 6.871895790100098 26 19 19
2.7534472942352295 -2.1043856143951416 13.121438026428223 25 19 20
-1.0461291074752808 -1.1974722146987915 7.824320316314697 34 27 25
3.440908670425415 -2.273134708404541 15.10982894897461 52 49 52
2.0551493167877197 -1.7320653200149536 11.635420799255371 97 92 93
4.498234272003174 -2.3781027793884277 16.2471981048584 168 165 175
-2.2472808361053467 -0.8683326244354248 6.046653747558594 47 42 41
4.0524678230285645 -2.0415289402008057 15.949519157409668 152 143 132
2.7522683143615723 -1.5495483875274658 12.875617027282715 139 136 141
3.911977767944336 -1.9541926383972168 15.916366577148438 178 169 151
4.797789096832275 -2.1083409786224365 17.476741790771484 157 156 162
2.947622537612915 -1.5768646001815796 13.349587440490723 149 148 152
4.276598930358887 -1.8425179719924927 16.003637313842773 89 87 89
2.2289528846740723 -1.2664469480514526 12.142173767089844 35 28 28
8.643386840820312 -2.427658796310425 23.283893585205078 75 69 70
-1.8541505336761475 -0.6122761368751526 6.198524475097656 145 140 141
4.443663597106934 -1.5369001626968384 16.186872482299805 160 158 167
9.339137077331543 -2.402008295059204 24.489164352416992 145 140 139
4.247915744781494 -1.8215326070785522 19.160768508911133 66 60 61
7.791396617889404 -1.859438419342041 21.73484992980957 112 104 106
6.511119842529297 -1.44368577003479 17.990629196166992 83 76 77
8.690727233886719 -1.6569771766662598 23.435592651367188 49 40 40
4.8965888023376465 -1.2018415927886963 17.819244384765625 131 130 135
3.0999650955200195 -0.900410532951355 13.973396301269531 38 33 35
4.918172359466553 0.076687291264534 17.83576774597168 42 41 51
4.279663562774658 0.20734429359436035 16.438982009887695 61 57 57
4.5154852867126465 0.2137320637702942 16.892662048339844 58 55 64
4.284260272979736 0.48287054896354675 16.769121170043945 51 43 32
-2.308119773864746 0.29124361276626587 6.211328506469727 53 49 46
4.409090042114258 1.1152615547180176 16.91449546813965 52 49 49
4.2557220458984375 1.313577651977539 16.354270935058594 33 30 27
4.849673748016357 1.5096697807312012 17.705474853515625 102 98 99
2.4669241905212402 0.9809845685958862 11.28698444366455 59 52 52
4.39963436126709 1.502888560295105 16.42803192138672 45 40 42
-1.8755261898040771 0.7701030969619751 6.28212308883667 42 37 37
7.369012355804443 2.6669108867645264 22.075172424316406 75 66 57
4.265751361846924 2.2556681632995605 16.844118118286133 47 47 51
4.925363540649414 2.450695276260376 17.96999740600586 111 102 97
-1.927804708480835 0.9897186756134033 6.295434474945068 18 12 13
4.311949253082275 2.686640501022339 17.13674545288086 25 19 13
4.292947292327881 2.509795904159546 16.01662254333496 34 26 21
-1.2223883867263794 1.4233161211013794 7.549818515777588 17 10 13
-1.8294308185577393 2.335991621017456 6.248985290527344 78 73 72
-2.160670518875122 -2.0893659591674805 5.839211940765381 118 112 106
-2.059743881225586 -2.0220606327056885 5.908251762390137 130 125 123
-1.728383183479309 -2.0650999546051025 6.460918426513672 36 28 25
-1.0773406028747559 -1.4939838647842407 8.083850860595703 56 48 47
3.249558687210083 -2.298588752746582 15.197978019714355 141 136 137
3.7331392765045166 -2.4357054233551025 16.382469177246094 32 29 30
2.9482004642486572 -1.661800742149353 13.787074089050293 137 133 138
3.1189956665039062 -1.7133647203445435 14.21328353881836 150 148 153
4.140967845916748 -1.8256967067718506 15.196575164794922 151 151 156
3.6621248722076416 -1.6245787143707275 14.16480827331543 80 75 73
9.5595064163208 -2.9460196495056152 26.183019638061523 95 88 90
2.5111215114593506 -1.232027530670166 12.229615211486816 40 32 33
2.8071186542510986 -1.2704854011535645 12.961462020874023 125 119 121
