ply
format ascii 1.0
element vertex 726
property float x
property float y
property float z
property uchar red
property uchar green
property uchar blue
end_header
-7.140151023864746 4.180381774902344 18.232200622558594 55 55 70
-7.355625629425049 -0.8849431276321411 18.826114654541016 52 53 62
-7.310498237609863 -1.3702975511550903 18.71515655517578 58 61 71
-7.854938983917236 -5.975096702575684 20.126405715942383 40 42 48
-7.509981632232666 -2.5930891036987305 19.40028190612793 14 14 19
-7.898280620574951 -6.784351348876953 20.442901611328125 65 68 81
-7.449601173400879 -1.4055416584014893 19.338788986206055 57 58 68
-7.478053092956543 -2.564641237258911 19.416305541992188 10 11 16
-7.058404445648193 3.2014753818511963 18.338848114013672 54 54 61
-7.560886859893799 -3.506253719329834 19.59890365600586 89 90 96
-7.641231060028076 -4.836414337158203 19.996623992919922 24 24 31
-7.115166664123535 4.658238887786865 18.648893356323242 48 47 59
-7.087754249572754 2.9225730895996094 18.621992111206055 9 9 14
-7.079487323760986 0.8625063300132751 18.699155807495117 8 8 14
-7.260201930999756 -2.155214548110962 19.229541778564453 56 57 65
-6.982077598571777 3.6609301567077637 18.652910232543945 74 74 79
-7.124794960021973 -1.399514079093933 19.0418701171875 54 54 67
-6.831109523773193 5.523716926574707 18.297321319580078 12 13 19
-7.028510093688965 1.806472897529602 18.83395004272461 16 16 21
-7.606890678405762 -7.474392890930176 20.399518966674805 20 19 24
-6.756277084350586 6.495201110839844 18.191667556762695 13 13 18
-6.817389965057373 11.562151908874512 18.263622283935547 29 26 30
-6.991311073303223 0.4888647496700287 18.874868392944336 73 79 93
-6.991311073303223 0.4888647496700287 18.874868392944336 73 79 93
-7.001129627227783 -0.09036365896463394 19.037994384765625 80 84 95
-6.7816548347473145 5.631684303283691 18.478282928466797 98 99 106
-6.79198694229126 3.1627330780029297 18.675140380859375 47 45 57
-7.589508056640625 -8.426692008972168 20.95604133605957 69 69 76
-7.002331733703613 0.4774859845638275 19.355510711669922 74 80 95
-6.133315086364746 10.19580078125 17.026765823364258 35 35 40
-6.646115303039551 7.397932052612305 18.279483795166016 43 43 47
-6.7993597984313965 0.19992700219154358 18.91390609741211 68 74 89
-7.422120094299316 -7.468262195587158 20.699094772338867 64 65 72
-7.4220404624938965 -7.4681925773620605 20.698902130126953 64 65 72
-6.643737316131592 7.283778190612793 18.558696746826172 58 57 63
-6.525533676147461 5.466461658477783 18.23920440673828 46 45 57
-6.577045917510986 9.256282806396484 18.360607147216797 57 57 63
-6.817304611206055 1.9183266162872314 19.083087921142578 91 91 98
-6.951292514801025 -1.4352412223815918 19.49485206604004 57 56 70
-6.843243598937988 1.3413859605789185 19.370298385620117 53 52 63
-6.842376708984375 -7.022890090942383 19.541221618652344 74 75 81
-6.685408592224121 1.0741952657699585 18.970890045166016 46 45 56
-6.453936576843262 9.15485954284668 18.32836151123047 46 45 55
-6.639920711517334 0.9937998652458191 18.893346786499023 43 44 52
-6.5943989753723145 0.09830791503190994 18.977947235107422 51 50 64
-6.420497417449951 1.9624844789505005 18.49968719482422 41 42 58
-7.14507532119751 -6.407323360443115 20.780908584594727 64 64 74
-7.13682746887207 -6.390841960906982 20.762712478637695 64 64 74
-6.226016521453857 4.039808750152588 18.52180290222168 43 44 56
-6.602086544036865 -0.9482560753822327 19.766767501831055 47 45 56
-6.829556941986084 -3.899040460586548 20.455163955688477 60 61 71
-6.458367824554443 -1.031626582145691 19.582763671875 60 59 68
-7.115348815917969 -9.03943157196045 21.684165954589844 47 47 55
-6.543929576873779 2.281362295150757 19.94575309753418 42 43 60
-6.475324630737305 -7.835359573364258 19.78268814086914 60 60 68
-6.764403820037842 -9.898517608642578 20.782411575317383 76 85 93
-6.402676105499268 -0.06721092760562897 19.762048721313477 37 39 51
-6.256085395812988 2.451289653778076 19.317283630371094 38 38 56
-6.403261661529541 -0.0672181248664856 19.763734817504883 37 39 51
-6.246250629425049 3.9949049949645996 19.322057723999023 95 96 101
-6.183588027954102 1.0324656963348389 19.41031265258789 42 44 56
-6.0828447341918945 2.0441317558288574 19.125160217285156 47 49 62
-5.995028018951416 2.009500026702881 18.88836669921875 48 50 63
-6.220583438873291 3.7197530269622803 19.629487991333008 38 38 51
-6.220583438873291 3.7197530269622803 19.629487991333008 38 38 51
-6.016200065612793 -4.551011085510254 19.23569679260254 47 47 52
-6.856144905090332 -9.424107551574707 21.678184509277344 26 26 31
-6.342920780181885 -2.381565570831299 20.181610107421875 19 19 26
-6.522221088409424 -7.5007171630859375 20.84792137145996 74 75 81
-6.579104900360107 -6.395345687866211 21.037647247314453 12 11 16
-6.384941577911377 -3.7623796463012695 20.514806747436523 13 14 19
-6.02671480178833 2.8670074939727783 19.489259719848633 16 16 21
-6.243249893188477 -2.272092580795288 20.128013610839844 97 97 104
-6.379746437072754 -4.711155891418457 20.577905654907227 12 11 16
-6.48065710067749 -5.480403900146484 21.051774978637695 51 50 61
-6.5223565101623535 -7.500875473022461 20.848363876342773 74 75 81
-5.970022678375244 4.1231818199157715 19.326967239379883 57 56 63
-5.821353912353516 5.873721122741699 18.87943458557129 72 72 80
-6.095669746398926 -0.051905930042266846 19.778310775756836 56 57 66
-6.572528839111328 -2.3636226654052734 21.158048629760742 38 37 45
-5.8931708335876465 4.678431034088135 19.20078468322754 78 81 92
-5.9560041427612305 3.960588216781616 19.410627365112305 13 13 17
-5.9560041427612305 3.960588216781616 19.410627365112305 13 13 17
-6.035806179046631 -1.0542672872543335 19.72836685180664 48 48 60
-6.397785186767578 -7.40077543258667 20.923627853393555 44 45 52
-6.04538106918335 -1.3050405979156494 19.826501846313477 5 5 11
-5.611206531524658 6.932279586791992 18.402511596679688 46 45 57
-5.787377834320068 6.099464416503906 19.00308609008789 69 70 79
-5.946906089782715 -0.202985480427742 19.848861694335938 11 9 13
-5.8099045753479 4.708102226257324 19.157136917114258 11 12 20
-5.8099045753479 4.708102226257324 19.157136917114258 11 12 20
-5.6721038818359375 8.192309379577637 18.710901260375977 50 49 58
-5.701024055480957 5.086309432983398 18.921836853027344 37 37 51
-5.6680521965026855 5.90050745010376 19.021665573120117 79 79 86
-5.6680521965026855 5.90050745010376 19.021665573120117 79 79 86
-5.505496025085449 6.574039459228516 18.454240798950195 118 120 125
-6.323357105255127 -3.760653495788574 21.24103355407715 95 95 103
-5.469679832458496 7.509125709533691 18.48731231689453 8 8 14
-5.947153091430664 0.9258794188499451 19.92913246154785 112 113 118
-5.757480621337891 3.216538190841675 19.412269592285156 51 51 62
-5.7577738761901855 3.216691732406616 19.413108825683594 51 51 62
-5.668076038360596 5.90053653717041 19.021751403808594 79 79 86
-5.478350639343262 9.422653198242188 18.61781120300293 14 13 19
-5.833077907562256 -0.22618365287780762 19.851415634155273 12 10 16
-5.51910924911499 8.603497505187988 18.912508010864258 71 72 77
-6.119531154632568 -3.4478342533111572 20.93778419494629 54 56 67
-5.445875644683838 4.81014347076416 18.7222843170166 98 97 104
-6.138374328613281 -6.418335914611816 21.073766708374023 62 63 71
-5.755400657653809 0.7540542483329773 19.76773452758789 63 64 71
-5.719749927520752 4.222333908081055 19.747297286987305 41 41 53
-5.549602508544922 5.154305934906006 19.30925750732422 40 40 52
-5.955067157745361 -2.6123478412628174 20.729032516479492 58 60 72
-5.316535472869873 10.972436904907227 18.552738189697266 52 53 61
-5.3275957107543945 1.3919404745101929 18.87624740600586 55 53 66
-5.966560363769531 -5.024898052215576 21.107858657836914 21 23 28
-6.01570987701416 -7.740160942077637 21.585798263549805 53 54 60
-5.587473392486572 -1.0074585676193237 19.859052658081055 47 47 57
-5.9663262367248535 -5.024734973907471 21.107162475585938 21 23 28
-5.541848182678223 3.200406551361084 19.807865142822266 47 47 55
-5.766027450561523 -2.644641876220703 20.68055534362793 61 61 71
-5.475724697113037 2.8818533420562744 19.741973876953125 45 45 52
-5.884396076202393 -5.297196865081787 21.189241409301758 48 48 55
-5.722178936004639 -3.125143527984619 20.77719497680664 44 44 52
-5.390317916870117 1.7716857194900513 19.617708206176758 44 46 60
-5.695498943328857 -2.8201797008514404 20.774410247802734 43 43 52
-5.558669090270996 -7.268855094909668 20.288467407226562 71 73 80
-5.267837047576904 6.2728657722473145 19.244140625 38 38 52
-5.256542682647705 5.056565284729004 19.27739715576172 61 61 70
-5.489467144012451 2.976872205734253 20.20294952392578 35 36 44
-5.477000713348389 2.2928175926208496 20.20907211303711 40 38 48
-5.582171440124512 -2.6148672103881836 20.605131149291992 64 64 72
-5.482825756072998 3.497035264968872 20.295673370361328 45 45 57
-5.661125183105469 0.02346220798790455 20.99171257019043 53 53 64
-5.5198469161987305 -7.436023235321045 20.693862915039062 53 56 62
-5.7438645362854 -7.882572650909424 21.458642959594727 43 44 51
-5.532031059265137 -2.2942676544189453 20.697114944458008 44 44 54
-5.829842567443848 -6.70494270324707 21.89617919921875 47 49 59
-5.295443058013916 3.189516305923462 19.943588256835938 72 75 81
-5.55373477935791 -5.0721893310546875 21.045433044433594 13 12 16
-5.24814510345459 0.27574071288108826 20.056989669799805 34 33 42
-5.810551166534424 -8.939481735229492 22.20969009399414 52 53 63
-5.544328689575195 0.9521409273147583 21.552518844604492 10 10 17
-5.139587879180908 0.29064786434173584 19.99611473083496 49 49 57
-5.246283531188965 1.4937247037887573 20.57716178894043 42 42 58
-4.932187557220459 -0.9569495916366577 19.372201919555664 43 42 52
-4.764087200164795 8.427453994750977 18.75282096862793 63 61 70
-5.052145957946777 0.826075553894043 19.94366455078125 55 56 64
-4.644403457641602 10.561275482177734 18.56234359741211 54 55 68
-4.644403457641602 10.561275482177734 18.56234359741211 54 55 68
-4.990210056304932 2.237116813659668 19.996681213378906 38 37 46
-4.823610305786133 8.381909370422363 19.329500198364258 44 43 54
-4.859622001647949 5.861274242401123 19.55244255065918 49 49 57
-5.067934989929199 -0.012943359091877937 20.391902923583984 64 65 72
-4.600662708282471 8.379572868347168 18.704055786132812 63 62 71
-4.667113780975342 6.980143070220947 19.154733657836914 41 45 52
-5.315119743347168 -9.093213081359863 21.860637664794922 34 35 43
-4.620492935180664 11.100671768188477 19.198978424072266 50 52 65
-5.103143692016602 -6.132139682769775 21.249849319458008 46 48 55
-4.669751167297363 5.872849464416504 19.477781295776367 46 46 55
-4.902545928955078 2.3217856884002686 20.49469566345215 39 39 50
-4.519528388977051 6.956038475036621 19.101205825805664 54 57 65
-5.02388858795166 -9.411823272705078 21.380672454833984 55 55 64
-4.683294296264648 2.951338291168213 19.983549118041992 47 47 57
-4.558400630950928 5.142275333404541 19.607189178466797 50 50 57
-4.89978551864624 -3.0403387546539307 21.098857879638672 60 62 69
-5.026236534118652 1.3211649656295776 21.675874710083008 40 40 50
-4.406745910644531 -0.11536300182342529 19.286556243896484 98 98 104
-4.951902389526367 -6.376331806182861 21.437387466430664 12 12 17
-4.951902389526367 -6.376331806182861 21.437387466430664 12 12 17
-4.545220851898193 5.92546272277832 19.721946716308594 49 48 58
-4.685433864593506 0.18314889073371887 20.344694137573242 44 44 53
-4.610641956329346 1.009734034538269 20.34148406982422 22 23 28
-4.464064598083496 7.163971424102783 19.47100257873535 68 72 77
-4.696277141571045 -0.24412812292575836 20.48905372619629 10 10 14
-4.898360252380371 -6.479953289031982 21.39284896850586 40 39 47
-4.5899658203125 3.116676092147827 20.315488815307617 19 17 22
-5.008305549621582 -3.9440157413482666 21.663612365722656 29 31 37
-4.409301280975342 8.488110542297363 19.27863121032715 44 43 54
-4.526920795440674 0.2706562876701355 19.955049514770508 32 33 40
-4.7956132888793945 -2.5860323905944824 21.0737361907959 12 14 20
-4.378189563751221 7.712024688720703 19.27695655822754 53 51 57
-4.77944278717041 -3.7083122730255127 21.221660614013672 17 19 24
-4.863923072814941 -6.34716796875 21.56748390197754 75 76 80
-4.580170154571533 1.9927932024002075 20.319190979003906 9 10 15
-4.8900017738342285 -7.966768264770508 21.774471282958984 51 51 56
-4.922298431396484 -4.624386310577393 21.9858341217041 52 52 63
-4.7253217697143555 -2.6626102924346924 21.001535415649414 36 38 42
-4.378754138946533 5.95826530456543 19.570682525634766 10 9 14
-4.398260593414307 5.096695899963379 19.624544143676758 15 14 19
-4.453855991363525 10.241314888000488 20.099246978759766 53 53 58
-4.533731937408447 -0.38594067096710205 20.451902389526367 62 62 69
-4.526127338409424 1.0540249347686768 20.423503875732422 99 100 105
-4.643054962158203 -5.293210506439209 20.952533721923828 36 37 45
-4.430551052093506 4.160787582397461 20.10616111755371 97 98 103
-4.280884265899658 7.732044219970703 19.336883544921875 16 15 20
-4.457294940948486 3.2849185466766357 20.31062126159668 42 42 49
-4.195796489715576 9.01951789855957 19.32793426513672 66 69 76
-4.950386047363281 -6.6828932762146 22.687255859375 84 85 89
-4.087159156799316 5.3732805252075195 19.651878356933594 36 36 43
-4.350320816040039 -3.2979345321655273 21.11960220336914 48 50 61
-4.146120548248291 -5.146917819976807 20.01055908203125 36 38 47
-4.589494705200195 0.2077290415763855 21.837825775146484 53 54 61
-4.122572422027588 2.95919132232666 20.19382667541504 42 41 51
-4.025761604309082 7.926474094390869 19.564027786254883 7 6 10
-4.002072334289551 5.269073963165283 19.785720825195312 40 39 45
-4.063158988952637 7.520543575286865 20.09671401977539 43 43 53
-4.172229290008545 3.4095799922943115 20.79155731201172 34 32 43
-4.141990661621094 -5.461761951446533 20.64293670654297 35 34 45
-3.9818050861358643 5.557944297790527 20.030725479125977 37 36 45
-3.9719393253326416 -0.23933638632297516 20.549787521362305 18 18 26
-4.2823805809021 -4.925556659698486 22.124553680419922 43 40 48
-4.2823805809021 -4.925556659698486 22.124553680419922 43 40 48
-3.8360819816589355 5.336933135986328 19.97981071472168 40 40 47
-4.069747447967529 -3.628838539123535 21.576778411865234 68 71 81
-3.978703260421753 -2.8689730167388916 21.698320388793945 40 40 52
-3.8513801097869873 -3.434370756149292 21.190771102905273 41 40 53
-3.7914109230041504 -3.5800211429595947 21.488861083984375 44 44 52
-3.7328617572784424 -3.827148914337158 21.91140365600586 43 44 49
-3.51462721824646 9.48225212097168 20.28021812438965 41 40 52
-3.518407106399536 2.271873950958252 20.397254943847656 43 44 54
-3.5083584785461426 0.8141310811042786 20.378955841064453 45 45 55
-3.8192570209503174 -6.707841396331787 22.202442169189453 40 41 49
-3.530818462371826 -8.835515022277832 20.825010299682617 28 28 34
-3.70634388923645 -3.6913716793060303 21.689664840698242 49 49 55
-3.6624844074249268 -3.5020904541015625 21.5401668548584 38 37 46
-3.4006049633026123 11.349891662597656 20.043684005737305 50 53 64
-3.2498302459716797 -0.10368409007787704 19.818553924560547 88 89 96
-3.390397310256958 3.1896231174468994 20.44589614868164 93 93 100
-3.67219614982605 -6.744175910949707 22.36697769165039 41 41 48
-3.4968340396881104 2.237764358520508 21.621917724609375 59 59 64
-3.285055637359619 -0.05174918845295906 20.857973098754883 41 43 50
-3.401108980178833 -4.6945061683654785 21.789579391479492 59 59 66
-3.1443750858306885 4.265254974365234 20.4977970123291 35 37 42
-3.1443750858306885 4.265254974365234 20.4977970123291 35 37 42
-3.2215988636016846 -2.4133529663085938 21.063663482666016 11 11 15
-3.143718719482422 5.150930881500244 20.249773025512695 9 9 12
-3.497399091720581 -7.167455673217773 22.602672576904297 54 55 62
-3.1915242671966553 3.50268292427063 20.66060447692871 51 49 59
-3.166975736618042 3.090604066848755 20.51499366760254 10 9 14
-3.127366304397583 -0.23409369587898254 20.77698516845703 21 22 29
-3.0232551097869873 8.169230461120605 20.010820388793945 50 48 53
-3.227510929107666 -1.3744598627090454 21.0758113861084 8 8 11
-3.382314920425415 -5.352738380432129 22.16698455810547 56 57 65
-3.276642084121704 -5.047644138336182 21.588180541992188 12 13 16
-3.185537338256836 -1.2674429416656494 21.03146743774414 92 92 95
-3.066223621368408 -1.3062301874160767 20.857242584228516 31 31 34
-3.049139976501465 5.958723545074463 20.193918228149414 37 36 48
-3.049139976501465 5.958723545074463 20.193918228149414 37 36 48
-2.982565402984619 0.9792826771736145 20.46839141845703 10 9 16
-3.282836675643921 -7.889543056488037 22.065107345581055 14 13 16
-3.2245962619781494 -4.320311546325684 21.80954360961914 87 87 94
-3.0435266494750977 -0.27329522371292114 20.803464889526367 46 45 55
-3.160895586013794 -4.134731769561768 21.752126693725586 40 41 46
-2.9838507175445557 6.6398396492004395 20.539581298828125 68 68 75
-3.0458240509033203 -0.09243586659431458 20.79644203186035 36 37 41
-3.0936837196350098 -1.2093912363052368 21.362272262573242 36 35 41
-3.0980348587036133 -1.60456383228302 21.4107608795166 40 40 43
-3.35109543800354 -1.4281436204910278 22.794862747192383 29 29 33
-2.9176485538482666 0.6970645785331726 20.805984497070312 41 41 48
-2.963042974472046 -1.195708990097046 21.23221206665039 23 22 29
-2.665473222732544 -1.192091464996338 19.7876033782959 91 90 95
-3.086256265640259 -5.309177398681641 22.362897872924805 31 32 38
-2.884997606277466 -1.4431095123291016 21.198591232299805 67 65 72
-2.9042856693267822 -2.756381034851074 21.522254943847656 59 58 66
-2.9857687950134277 -5.010623931884766 22.137842178344727 37 37 45
-2.9857687950134277 -5.010623931884766 22.137842178344727 37 37 45
-2.869879961013794 -3.102161169052124 21.433956146240234 50 50 61
-2.8079025745391846 -3.235957622528076 21.54391098022461 39 39 50
-2.714754343032837 0.8717937469482422 20.82578468322754 64 66 75
-2.6680898666381836 4.374198913574219 20.674402236938477 89 90 97
-2.4880659580230713 5.516641616821289 20.10951042175293 35 34 43
-2.638129472732544 -6.2075347900390625 21.737640380859375 46 46 56
-2.6788456439971924 -0.42108216881752014 22.206605911254883 34 34 47
-2.454665422439575 -0.012434274889528751 21.02581024169922 54 53 59
-2.4677822589874268 1.9988900423049927 21.298646926879883 40 39 49
-2.4579687118530273 -1.6866991519927979 21.350074768066406 30 29 40
-2.3896913528442383 2.3002498149871826 20.74666404724121 40 40 47
-2.3698198795318604 4.215766429901123 20.917037963867188 40 38 49
-2.4050707817077637 -3.1700329780578613 21.692306518554688 49 48 56
-2.266751766204834 0.9980708360671997 21.055130004882812 12 12 22
-2.440826892852783 -1.6135822534561157 21.75551986694336 66 65 76
-2.2036783695220947 6.091082572937012 20.1920166015625 36 35 47
-2.3219423294067383 -2.1556732654571533 21.47696876525879 64 64 72
-2.203056573867798 8.608546257019043 20.573631286621094 40 40 48
-2.142854928970337 -4.8949737548828125 20.69832420349121 32 32 39
-2.110142230987549 5.47104549407959 20.519208908081055 38 37 42
-2.127927541732788 4.177060127258301 20.731239318847656 46 44 54
-2.023516893386841 0.9946802258491516 21.032732009887695 12 12 18
-2.0732076168060303 -2.144925832748413 21.382598876953125 36 34 43
-2.063645839691162 -2.3507652282714844 21.684003829956055 62 62 66
-2.1708638668060303 4.082879066467285 22.78468132019043 61 61 73
-1.9686577320098877 2.073176383972168 21.251598358154297 53 50 56
-2.0548908710479736 -4.088399410247803 22.334064483642578 40 40 50
-1.9138457775115967 2.5089077949523926 21.01160430908203 52 51 61
-1.7861673831939697 2.871116876602173 20.083871841430664 51 52 62
-1.8132109642028809 4.1600341796875 20.997905731201172 48 48 57
-1.9330164194107056 6.416718006134033 22.420560836791992 43 44 53
-1.804806113243103 6.4240593910217285 21.08241081237793 37 37 46
-1.7643169164657593 5.501315593719482 20.71617889404297 33 32 38
-1.8605003356933594 -3.630974054336548 22.051538467407227 59 59 66
-1.7228082418441772 -1.9416741132736206 21.05940818786621 33 33 45
-1.6335128545761108 -0.22081346809864044 21.306594848632812 31 32 37
-1.6719764471054077 -2.627466917037964 21.878454208374023 26 24 28
-1.6505765914916992 5.709272861480713 20.940431594848633 40 40 48
-1.697761058807373 7.596194267272949 21.647266387939453 38 38 48
-1.6179519891738892 3.2632927894592285 20.819656372070312 79 79 84
-1.4336694478988647 6.942960262298584 19.400802612304688 15 14 20
-1.6212483644485474 1.6038695573806763 21.20433807373047 44 42 51
-1.679641604423523 -3.133737564086914 22.054821014404297 73 74 80
-1.5978384017944336 4.2196478843688965 21.0577392578125 75 75 80
-1.4923595190048218 4.282044887542725 20.71253776550293 94 94 100
-1.690991759300232 -3.7615084648132324 22.314891815185547 46 48 51
-1.690991759300232 -3.7615084648132324 22.314891815185547 46 48 51
-1.5763192176818848 3.0631234645843506 21.081899642944336 48 47 58
-1.5887553691864014 1.8950955867767334 21.308547973632812 45 43 48
-1.5343211889266968 -1.2132457494735718 21.4345703125 14 13 16
-1.557597279548645 6.393463611602783 20.89229393005371 8 6 12
-1.7194640636444092 -6.621404647827148 23.21552085876465 40 40 45
-1.5990773439407349 -2.7090249061584473 21.82613754272461 11 9 13
-1.5990773439407349 -2.7090249061584473 21.82613754272461 11 9 13
-1.4723271131515503 10.304515838623047 20.213083267211914 44 46 50
-1.5936939716339111 -2.5814685821533203 21.858604431152344 9 8 11
-1.60349702835083 -2.9204599857330322 22.03731918334961 13 13 17
-1.60349702835083 -2.9204599857330322 22.03731918334961 13 13 17
-1.4924707412719727 4.282232284545898 20.713150024414062 94 94 100
-1.6376636028289795 -5.386425495147705 22.82215690612793 10 9 11
-1.6376636028289795 -5.386425495147705 22.82215690612793 10 9 11
-1.4508944749832153 2.8159003257751465 21.148487091064453 29 29 42
-1.4526140689849854 6.496800899505615 21.406038284301758 37 37 42
-1.4557676315307617 -1.0880135297775269 21.461576461791992 46 48 53
-1.4699240922927856 1.495620608329773 21.288328170776367 66 66 73
-1.3908600807189941 -0.6219003200531006 21.221689224243164 39 38 47
-1.3826922178268433 -0.2150559276342392 21.470680236816406 46 47 52
-1.3634889125823975 -0.2172873318195343 21.290895462036133 46 47 52
-1.344680905342102 1.5020325183868408 21.021854400634766 64 66 74
-1.1575050354003906 3.365480422973633 21.310302734375 19 18 23
-1.1269904375076294 6.468210697174072 21.29422378540039 38 38 45
-1.125240683555603 3.407651424407959 21.33176040649414 90 90 95
-1.125240683555603 3.407651424407959 21.33176040649414 90 90 95
-1.1238386631011963 -1.4226994514465332 21.766210556030273 21 22 30
-1.1282788515090942 -2.1853175163269043 22.05957794189453 32 32 42
-1.023667573928833 8.416753768920898 21.23149299621582 48 48 54
-0.8611491918563843 2.931875467300415 19.03453826904297 28 28 33
-0.4542742669582367 6.9675984382629395 22.144725799560547 39 40 47
0.5484527349472046 -0.46133938431739807 1.6714342832565308 12 11 15
-5.8629655838012695 2.8270647525787354 19.395748138427734 95 94 99
-6.027521133422852 2.8673007488250732 19.491846084594727 16 16 21
-7.060643672943115 -6.824962139129639 18.8311710357666 65 66 72
-7.937451362609863 -7.691376209259033 21.270814895629883 76 77 83
-6.486082077026367 -6.2477898597717285 20.887115478515625 89 90 97
-7.855364799499512 -5.975379943847656 20.12737464904785 40 42 48
-4.919084072113037 -6.412735462188721 21.7120304107666 95 96 99
-4.318104267120361 -5.83372688293457 19.79034423828125 80 81 84
-4.318049430847168 -5.83366584777832 19.79014015197754 80 81 84
-4.937735557556152 -6.177831172943115 21.609365463256836 38 38 44
-5.478581428527832 9.42310619354248 18.61882781982422 14 13 19
-4.488182067871094 -5.053011894226074 19.879301071166992 37 38 45
-7.8634233474731445 -4.905777454376221 19.89242172241211 80 80 88
-6.133960723876953 -5.207577228546143 21.313312530517578 37 37 43
-6.385830402374268 -4.865918159484863 20.733266830444336 21 20 24
-3.3002402782440186 -5.186276912689209 22.407676696777344 7 8 12
-6.538330078125 9.063499450683594 18.05721664428711 49 49 55
-9.241260528564453 -3.6982040405273438 20.038047790527344 50 50 58
-7.638291835784912 -3.340026378631592 18.72991371154785 70 72 79
-6.613786220550537 -3.6890721321105957 20.72471046447754 21 22 28
-4.899350166320801 -3.738776445388794 21.218835830688477 27 28 34
-4.934993743896484 -2.6777822971343994 20.987092971801758 83 84 92
-4.742918491363525 -2.6712052822113037 21.06561279296875 36 38 42
-7.342828750610352 -2.4147117137908936 19.2537899017334 56 58 63
-1.5255182981491089 -2.6275382041931152 21.901498794555664 36 34 38
-5.477931499481201 7.519977569580078 18.514883041381836 8 8 14
-6.3439130783081055 -2.3819079399108887 20.184879302978516 19 19 26
-6.343137741088867 -2.3817079067230225 20.182287216186523 19 19 26
-6.343066215515137 -2.3816142082214355 20.182056427001953 19 19 26
-3.3882761001586914 -2.4486796855926514 21.47031593322754 68 70 74
-6.6461005210876465 7.397913455963135 18.279434204101562 43 43 47
-3.1992568969726562 -1.4275257587432861 21.330318450927734 110 110 113
-7.215216636657715 -1.2192277908325195 18.77627182006836 13 12 19
-3.389493465423584 -1.3809384107589722 21.26677703857422 50 50 56
-3.066200017929077 -1.306158185005188 20.857152938842773 31 31 34
-4.789573669433594 -1.2450973987579346 20.50485610961914 106 107 113
-5.188221454620361 -1.3768869638442993 22.594022750854492 77 77 83
-7.202136993408203 -1.1833763122558594 20.083457946777344 54 55 60
-1.534343957901001 -1.2132494449615479 21.434566497802734 14 13 16
-6.036297798156738 6.316281318664551 18.691572189331055 112 111 124
-2.6638951301574707 6.646065711975098 20.57648468017578 43 43 50
-1.5352509021759033 -0.24541336297988892 21.505369186401367 38 39 43
-3.064549207687378 6.235101699829102 20.194421768188477 33 32 38
-7.096465587615967 -0.24047940969467163 18.847412109375 55 55 59
-5.185102939605713 -0.16562120616436005 20.469219207763672 64 63 70
-6.781599521636963 5.6316399574279785 18.478120803833008 98 99 106
-4.2385430335998535 6.000851154327393 19.54315948486328 52 52 56
-1.522727370262146 6.423404693603516 21.188175201416016 86 85 90
-5.185359954833984 -0.1656293421983719 20.47010612487793 64 63 70
-6.781659126281738 5.631681442260742 18.478281021118164 98 99 106
-3.1628305912017822 -0.09799928963184357 20.868064880371094 96 97 103
-3.0458898544311523 -0.09243407845497131 20.79684066772461 36 37 41
-5.83714485168457 -0.08660875260829926 20.02876853942871 23 23 28
-2.390373706817627 -0.016022061929106712 21.101572036743164 82 81 88
-4.398167610168457 5.096590042114258 19.624208450317383 15 14 19
-4.5262227058410645 0.2706145644187927 19.95224952697754 32 33 40
-5.489922523498535 0.7832796573638916 19.974796295166016 13 14 20
-5.489477634429932 0.7831882238388062 19.97325325012207 13 14 20
-5.813243389129639 4.613079071044922 18.982563018798828 74 75 88
-7.918177127838135 0.7932780385017395 18.381750106811523 90 89 96
-4.610672473907471 1.0097618103027344 20.341548919677734 22 23 28
-5.8346781730651855 4.1723408699035645 19.273767471313477 30 30 37
-8.159391403198242 3.780517578125 17.853254318237305 77 77 83
-2.4452855587005615 1.081735372543335 21.30778694152832 60 60 70
-1.441096305847168 1.0518826246261597 21.033145904541016 31 30 35
-8.133602142333984 3.7554850578308105 17.801589965820312 87 88 94
-4.436460971832275 1.0498636960983276 20.282878875732422 37 39 44
-8.048505783081055 0.9429755806922913 18.703369140625 51 51 58
-5.807120323181152 4.045586109161377 19.308412551879883 34 34 39
-3.1443324089050293 4.265209674835205 20.497577667236328 35 37 42
-5.8516035079956055 3.9874954223632812 19.121295928955078 76 75 80
-6.527783393859863 3.753042697906494 18.3821964263916 25 25 30
-1.4699348211288452 1.4956368207931519 21.288427352905273 66 66 73
-5.851398468017578 3.9873781204223633 19.120681762695312 76 75 80
-7.05722188949585 1.749817967414856 18.85752296447754 100 101 106
-7.654688358306885 1.7132046222686768 18.41374397277832 109 108 118
-5.383851528167725 1.9815354347229004 19.863492965698242 4 4 8
-4.508194446563721 3.9899744987487793 20.060009002685547 56 56 60
-7.955959796905518 1.8241698741912842 18.73129653930664 13 13 22
-8.297231674194336 1.7994951009750366 18.11981964111328 66 66 72
-1.3310552835464478 3.420775890350342 21.567344665527344 12 11 17
-7.124802112579346 2.848376989364624 18.897146224975586 20 18 24
-3.299078941345215 3.0853209495544434 20.595338821411133 77 77 84
-7.3070220947265625 4.855510234832764 18.634973526000977 15 16 24
-5.306645393371582 -0.06337989866733551 20.521392822265625 96 97 106
-9.063838005065918 -7.414245128631592 19.899755477905273 48 51 65
-5.518986225128174 8.603376388549805 18.912158966064453 71 72 77
-6.294562816619873 3.933202028274536 19.13352394104004 124 122 130
-5.200638294219971 4.087058067321777 19.9069881439209 85 86 94
-8.029061317443848 -8.893946647644043 20.774768829345703 101 100 104
-7.732419967651367 -7.40386962890625 20.381935119628906 95 94 99
-6.973141193389893 -6.751147270202637 18.628753662109375 62 63 69
-7.937318801879883 -7.691257476806641 21.27050018310547 76 77 83
-6.486231327056885 -6.248000144958496 20.887649536132812 89 90 97
-4.731820106506348 -6.27162504196167 21.265417098999023 105 106 109
-4.731176853179932 -5.109163761138916 20.91072654724121 45 46 51
-7.641073226928711 -4.836304664611816 19.99622344970703 24 24 31
-6.230612277984619 -4.713788986206055 19.921302795410156 49 49 54
-5.184063911437988 -4.987813949584961 21.116296768188477 84 84 91
-6.385776519775391 -4.865900039672852 20.733064651489258 21 20 24
-6.866779804229736 -4.463114261627197 20.274002075195312 30 30 38
-9.24123477935791 -3.6981945037841797 20.03799819946289 50 50 58
-6.276856422424316 -3.775207996368408 20.52769660949707 23 23 29
-7.947399616241455 -3.497201681137085 19.428333282470703 10 11 19
-3.5654549598693848 -4.052212715148926 22.592937469482422 41 43 46
-3.3771886825561523 -3.8843839168548584 21.657278060913086 38 41 44
-7.560583591461182 -3.5061092376708984 19.598169326782227 89 90 96
-8.038597106933594 -3.472337007522583 19.472761154174805 110 112 119
-7.471880912780762 -3.46933913230896 19.36830711364746 84 85 93
-4.899549961090088 -3.7389369010925293 21.219684600830078 27 28 34
-4.7431817054748535 -2.6713321208953857 21.06661033630371 36 38 42
-8.653913497924805 -2.301783323287964 18.4704532623291 12 12 18
-7.342438697814941 -2.4145865440368652 19.25273323059082 56 58 63
-1.5255534648895264 -2.627553701400757 21.901533126831055 36 34 38
-6.343807220458984 -2.38191819190979 20.184532165527344 19 19 26
-3.2234315872192383 -2.414856195449829 21.07605743408203 11 11 15
-4.754365921020508 -1.261184573173523 20.704761505126953 19 19 24
-6.7395148277282715 -0.7306243181228638 19.78720474243164 82 81 90
-7.0965352058410645 -0.24048839509487152 18.847566604614258 55 55 59
-7.096336364746094 -0.24046628177165985 18.847118377685547 55 55 59
-8.151063919067383 -0.1973763257265091 17.61803436279297 52 52 59
-5.94697904586792 -0.20298877358436584 19.84911346435547 11 9 13
-6.022130489349365 -0.15601325035095215 19.694766998291016 68 69 74
-5.185359954833984 -0.1656293421983719 20.47010612487793 64 63 70
-3.0458338260650635 -0.09243554621934891 20.7965030670166 36 37 41
-5.985015392303467 -0.06706638634204865 20.50714683532715 67 68 73
-6.403456211090088 -0.06721307337284088 19.764238357543945 37 39 51
-4.526217937469482 0.2706236243247986 19.95223045349121 32 33 40
-5.4899067878723145 0.783277153968811 19.974748611450195 13 14 20
-2.982046365737915 0.979157030582428 20.465431213378906 10 9 16
-7.232488632202148 0.8440479040145874 18.799755096435547 116 116 123
-7.918120861053467 0.7932762503623962 18.381635665893555 90 89 96
-4.610781192779541 1.0097819566726685 20.342077255249023 22 23 28
-1.5857890844345093 1.0833429098129272 21.603578567504883 96 95 100
-1.3623616695404053 1.4441434144973755 20.97002410888672 20 21 29
-4.5062031745910645 1.7563862800598145 20.261871337890625 65 65 70
-1.4765267372131348 1.9520184993743896 20.888761520385742 25 23 26
-7.9555583000183105 1.8240793943405151 18.73039436340332 13 13 22
-6.5188775062561035 2.1380674839019775 21.11263656616211 41 40 46
-8.477947235107422 1.8597112894058228 18.290603637695312 16 14 21
-3.5700905323028564 2.276644706726074 21.975427627563477 63 64 69
-3.2275798320770264 2.2553257942199707 20.69884490966797 13 13 18
-6.026665687561035 2.8669891357421875 19.489126205444336 16 16 21
-5.908612251281738 2.8638994693756104 19.5533504486084 66 64 69
-3.3037214279174805 3.0867762565612793 20.566566467285156 89 90 96
-7.124604225158691 2.848316192626953 18.89662742614746 20 18 24
-1.6179558038711548 3.2632884979248047 20.819597244262695 79 79 84
-1.1022783517837524 3.1669914722442627 20.13412857055664 59 58 63
-4.665373802185059 4.01328706741333 19.96259307861328 57 58 62
-4.486053466796875 4.1650309562683105 20.337594985961914 98 98 103
-6.527847766876221 3.7530758380889893 18.38235092163086 25 25 30
-8.17921257019043 3.7274372577667236 17.828445434570312 16 16 22
-5.851287841796875 3.987305164337158 19.12036895751953 76 75 80
-8.279292106628418 3.833375930786133 18.0841064453125 73 73 80
-5.834817886352539 4.172455787658691 19.2741641998291 30 30 37
-8.078804016113281 4.491185665130615 17.97969627380371 110 111 117
-6.892351150512695 4.754345417022705 18.390161514282227 37 37 45
-4.346283912658691 5.914908409118652 19.70128631591797 73 73 78
-6.781650066375732 5.631681442260742 18.478269577026367 98 99 106
-3.0642738342285156 6.234660625457764 20.19304656982422 33 32 38
-5.668153285980225 5.900598049163818 19.021963119506836 79 79 86
-6.0360307693481445 6.316008567810059 18.690832138061523 112 111 124
-6.158379077911377 6.542663097381592 19.083843231201172 89 89 102
-5.530508518218994 6.510316371917725 18.59889793395996 12 13 19
-8.022768020629883 6.230210304260254 17.744836807250977 70 69 77
-5.8937273025512695 6.511383533477783 18.3594970703125 4 5 11
-4.312539100646973 6.889492511749268 19.338516235351562 7 8 14
-4.026827335357666 7.928069114685059 19.568145751953125 7 6 10
-7.934051513671875 7.293811321258545 17.90569496154785 75 75 83
-5.569111347198486 7.736222743988037 18.848323822021484 106 107 113
-7.253692626953125 9.957357406616211 19.754615783691406 54 54 60
-5.478413105010986 9.422840118408203 18.618328094482422 14 13 19
-7.928524494171143 9.01904582977295 17.76000213623047 114 112 117
-7.586587429046631 9.75152587890625 17.58375358581543 16 15 22
-7.732329368591309 -7.403794765472412 20.38172721862793 95 94 99
-7.732469081878662 -7.403982639312744 20.382131576538086 95 94 99
-7.732429027557373 -7.403876781463623 20.3819522857666 95 94 99
-6.48622465133667 -6.2479987144470215 20.88763427734375 89 90 97
-4.785497665405273 -6.326389312744141 21.435497283935547 97 98 102
-4.9377312660217285 -6.177829742431641 21.609342575073242 38 38 44
-6.866497039794922 -4.462915420532227 20.273292541503906 30 30 38
-9.241230964660645 -3.698193073272705 20.03799057006836 50 50 58
-6.276819705963135 -3.775169610977173 20.52758026123047 23 23 29
-8.364194869995117 -3.5960893630981445 19.47842788696289 18 18 24
-7.7937846183776855 -3.3763508796691895 18.306089401245117 49 50 56
-8.363609313964844 -3.5958633422851562 19.477203369140625 18 18 24
-7.9074602127075195 -3.572725296020508 19.538583755493164 6 6 14
-8.045869827270508 -3.503875970840454 19.516977310180664 114 115 123
-7.6948771476745605 -3.3693935871124268 18.768003463745117 82 83 91
-7.549195766448975 -3.5012295246124268 19.543128967285156 84 85 93
-4.89911413192749 -3.738600730895996 21.217817306518555 27 28 34
-8.111336708068848 -3.2071731090545654 19.14585304260254 53 54 62
-7.591333866119385 -2.3366994857788086 18.984207153320312 104 107 111
-1.5255283117294312 -2.627598762512207 21.901569366455078 36 34 38
-7.707490921020508 -2.2860426902770996 19.059932708740234 30 32 37
-6.34323263168335 -2.381662368774414 20.182575225830078 19 19 26
0.33449146151542664 -0.10088758915662766 1.0916632413864136 69 69 74
-6.27963399887085 -1.399857759475708 19.90323257446289 57 55 65
-6.20560359954834 -1.4132894277572632 20.098628997802734 91 90 97
-3.331394910812378 -1.4170137643814087 21.081806182861328 49 48 54
-7.5122151374816895 -1.2434954643249512 19.218568801879883 115 116 123
-4.872134685516357 -1.2501661777496338 20.776031494140625 98 100 106
-1.5343055725097656 -1.213224172592163 21.434242248535156 14 13 16
-7.154655933380127 -0.3194132149219513 19.186084747314453 79 78 84
-7.096461296081543 -0.2404811829328537 18.84739875793457 55 55 59
-5.283759593963623 -0.10275497287511826 20.46907615661621 8 8 15
-6.13826322555542 -0.07017192989587784 18.94464111328125 28 30 42
-3.023277521133423 0.9014595746994019 20.760025024414062 81 81 86
-7.9178876876831055 0.7932475805282593 18.381084442138672 90 89 96
-4.610803127288818 1.0098170042037964 20.3421630859375 22 23 28
-8.043944358825684 0.942577600479126 18.69249725341797 51 51 58
-5.048793792724609 1.1178206205368042 22.280378341674805 87 87 92
-1.5982686281204224 1.093126654624939 21.712379455566406 96 95 100
-1.4410802125930786 1.0518858432769775 21.032997131347656 31 30 35
-4.570554256439209 1.1132230758666992 20.369516372680664 8 8 13
0.40560635924339294 0.11478649824857712 1.780089020729065 25 24 28
-1.341944932937622 1.4267983436584473 20.782001495361328 24 25 33
-6.956491947174072 1.6742982864379883 18.244455337524414 50 51 58
-1.5014159679412842 1.9518319368362427 21.02959632873535 15 14 18
-4.537453651428223 1.9683393239974976 20.427627563476562 97 97 102
-1.4853949546813965 2.078321933746338 21.501625061035156 102 102 105
-6.081447601318359 1.973781704902649 19.623485565185547 93 94 101
-5.933181285858154 1.9635993242263794 19.47924041748047 8 7 11
-3.5682482719421387 2.273538827896118 21.96571159362793 63 64 69
-8.189129829406738 2.6167356967926025 18.08728790283203 89 89 92
-5.862924575805664 2.7802248001098633 18.955799102783203 53 53 59
-5.834437847137451 2.824153184890747 19.322200775146484 92 90 96
-3.2824926376342773 3.055302143096924 20.482547760009766 71 72 79
-4.589885711669922 3.116624355316162 20.3151912689209 19 17 22
-1.2106751203536987 3.322272539138794 21.323402404785156 107 106 111
-7.031188488006592 3.6355085372924805 18.333879470825195 28 27 34
-6.948426246643066 3.663516044616699 18.524328231811523 88 88 93
-4.690596580505371 4.014420986175537 19.999080657958984 77 78 83
-5.765908718109131 4.056722164154053 19.30951499938965 58 59 63
-8.226929664611816 3.8784241676330566 17.992002487182617 29 29 37
-8.030741691589355 4.459515571594238 17.872161865234375 110 111 117
-6.894176483154297 4.755596160888672 18.3944091796875 37 37 45
-6.8684844970703125 5.451783657073975 18.217397689819336 67 68 76
-6.781843662261963 5.631824016571045 18.47878074645996 98 99 106
-3.0646252632141113 6.235253810882568 20.1949520111084 33 32 38
-2.6629645824432373 6.643788814544678 20.56931495666504 43 43 50
-8.098695755004883 6.28116512298584 17.891809463500977 71 70 77
-5.9949774742126465 6.525763511657715 18.605485916137695 141 141 151
-3.063080072402954 6.821391582489014 19.389371871948242 53 54 60
-4.837123394012451 7.596262454986572 21.243921279907227 58 59 64
-4.318176746368408 7.621586799621582 19.052776336669922 50 48 54
-6.646115779876709 7.3979291915893555 18.27947425842285 43 43 47
-6.646097183227539 7.397909641265869 18.279430389404297 43 43 47
-3.9137556552886963 7.895010471343994 19.39349365234375 109 109 114
-7.766507625579834 7.94156551361084 17.686899185180664 82 82 89
-6.651937007904053 8.323397636413574 18.172086715698242 49 48 55
-3.3823890686035156 -6.6968092918396 22.358484268188477 26 24 29
-4.928016185760498 -6.1625471115112305 20.93120765686035 72 73 79
-4.827267646789551 -6.291326999664307 21.361154556274414 83 85 88
-7.883606433868408 -5.039095401763916 20.3212947845459 73 73 80
-6.385799407958984 -4.865910053253174 20.733142852783203 21 20 24
-6.276760101318359 -3.7751317024230957 20.527408599853516 23 23 29
-9.163180351257324 -3.9028937816619873 21.12066650390625 22 22 29
-7.568374156951904 -3.296977996826172 17.979732513427734 58 60 67
-7.981475353240967 -3.5202133655548096 19.488414764404297 19 20 28
-8.047399520874023 -3.502335548400879 19.520689010620117 114 115 123
-4.96712589263916 -2.6884100437164307 21.10150718688965 83 84 92
-8.266777992248535 -2.5165300369262695 20.41853141784668 70 72 77
-6.34391450881958 -2.3819406032562256 20.18488311767578 19 19 26
-6.343064785003662 -2.381620168685913 20.182035446166992 19 19 26
-3.223532199859619 -2.4149112701416016 21.076601028442383 11 11 15
-6.398226737976074 -1.4310575723648071 20.222820281982422 56 55 65
-6.1366400718688965 -1.4089241027832031 19.90559959411621 94 93 100
-7.395013809204102 -1.2211507558822632 18.929553985595703 107 108 115
-7.215427875518799 -1.2192163467407227 18.776769638061523 13 12 19
-1.7016959190368652 -1.2612056732177734 21.510902404785156 27 27 32
-6.749889373779297 -0.7310331463813782 19.813268661499023 82 81 90
-7.096527576446533 -0.24047991633415222 18.847558975219727 55 55 59
-6.021935939788818 -0.15599894523620605 19.694198608398438 68 69 74
-5.314541339874268 -0.10768502950668335 20.569080352783203 6 6 13
-3.265695333480835 -0.10489444434642792 21.33733367919922 80 81 87
-6.403883457183838 -0.06726077944040298 19.765703201293945 37 39 51
-5.908889293670654 0.7432906031608582 19.73182487487793 51 52 58
-2.979480266571045 0.8649760484695435 20.55150032043457 91 92 97
-7.22966194152832 0.8360303640365601 18.763927459716797 99 99 106
-1.441084861755371 1.0518757104873657 21.032957077026367 31 30 35
-1.482304334640503 1.9033229351043701 20.580360412597656 21 19 25
-4.663491249084473 1.9216440916061401 20.273786544799805 79 81 87
-4.487263202667236 1.9234447479248047 20.223318099975586 101 102 107
-6.181256294250488 1.9938430786132812 19.874853134155273 97 97 104
-5.933284282684326 1.9636272192001343 19.47955894470215 8 7 11
-3.360612630844116 3.110107898712158 20.856426239013672 73 73 81
-7.106015205383301 2.796031951904297 18.44452476501465 117 118 124
-4.585939884185791 3.0580053329467773 19.811416625976562 39 40 46
-1.1844046115875244 3.2413759231567383 20.739009857177734 103 101 106
-1.0169302225112915 3.2205629348754883 20.700206756591797 48 46 51
-4.661318302154541 3.973784923553467 19.923290252685547 61 62 67
-4.35878324508667 4.177756309509277 20.20359992980957 121 122 127
-6.060141086578369 3.9975225925445557 19.40498924255371 105 103 109
-8.131006240844727 3.6762242317199707 17.920074462890625 80 81 87
-6.781824111938477 5.631811141967773 18.47871971130371 98 99 106
-3.0645856857299805 6.2351908683776855 20.194753646850586 33 32 38
-2.6629366874694824 6.64374303817749 20.56915855407715 43 43 50
-5.530367374420166 6.51022481918335 18.598665237426758 12 13 19
-5.9338765144348145 6.46388578414917 18.443830490112305 143 144 154
-6.756423473358154 6.495309352874756 18.192039489746094 13 13 18
-4.508577346801758 7.054080963134766 19.731107711791992 111 111 117
-6.651910305023193 8.323382377624512 18.172060012817383 49 48 55
-8.212918281555176 -9.141261100769043 20.998802185058594 33 32 34
-8.409220695495605 -8.026450157165527 21.679838180541992 70 70 77
-6.726871013641357 -7.555132865905762 21.335376739501953 25 26 33
-3.382167339324951 -6.696086406707764 22.357036590576172 26 24 29
-7.855332374572754 -5.9753570556640625 20.12729835510254 40 42 48
-4.778785705566406 -6.227084159851074 21.121522903442383 87 89 92
-5.984594345092773 -4.537179946899414 19.135595321655273 50 49 54
-6.385900020599365 -4.865965843200684 20.733478546142578 21 20 24
-6.276822566986084 -3.775158643722534 20.527584075927734 23 23 29
-8.086353302001953 -3.4887897968292236 19.449588775634766 18 19 26
-7.560315132141113 -3.506145715713501 19.597562789916992 89 90 96
-7.446271896362305 -2.5084242820739746 19.045137405395508 54 56 61
-7.44701623916626 -2.5085647106170654 19.046833038330078 54 56 61
-4.735669136047363 -2.667642116546631 21.03919792175293 36 38 42
-6.40932035446167 -2.394596576690674 20.119386672973633 98 100 107
-7.874133110046387 -2.236455202102661 19.69300079345703 40 41 49
-6.274368762969971 -1.4486271142959595 20.317649841308594 84 83 91
-7.214995861053467 -1.2191619873046875 18.77567481994629 13 12 19
-4.7544755935668945 -1.2612102031707764 20.70524024963379 19 19 24
-5.902024745941162 -0.16551558673381805 19.01049041748047 104 105 112
-3.1753342151641846 -0.08589503914117813 20.706987380981445 56 57 63
-6.1009297370910645 0.7448486685752869 19.750850677490234 55 54 63
-2.969748020172119 0.850933313369751 20.451078414916992 64 65 70
-7.184419631958008 0.8285415768623352 18.5827579498291 104 104 111
-4.654659271240234 1.9182305335998535 20.14548110961914 82 84 91
-5.982113361358643 1.9339505434036255 19.164358139038086 84 86 93
-5.933280944824219 1.9636255502700806 19.47954750061035 8 7 11
-3.2487313747406006 2.1766843795776367 20.908662796020508 98 95 101
-5.826499938964844 2.8045477867126465 19.272815704345703 95 94 99
-3.3068501949310303 3.1837756633758545 21.783836364746094 75 76 81
-3.387604236602783 3.113248586654663 20.984424591064453 55 56 63
-7.190739154815674 2.846524953842163 18.598201751708984 114 114 121
-7.124937057495117 2.8484256267547607 18.897497177124023 20 18 24
-4.589852809906006 3.116615056991577 20.315074920654297 19 17 22
-1.7592519521713257 3.301004648208618 21.041805267333984 96 96 100
-4.572369575500488 3.885287046432495 19.518733978271484 50 50 55
-6.385704040527344 4.336060047149658 20.859045028686523 96 95 100
-7.950313568115234 4.38804817199707 17.740407943725586 85 83 91
-3.034533977508545 5.018417835235596 20.01072883605957 50 51 56
-4.499606132507324 5.078925132751465 19.614906311035156 93 93 98
-3.2587008476257324 6.334944725036621 20.39637565612793 72 72 79
-2.662867546081543 6.643519878387451 20.568435668945312 43 43 50
-7.91810417175293 5.870168685913086 17.738780975341797 22 22 30
-6.028380393981934 6.555926322937012 18.7399959564209 121 120 133
-8.213000297546387 -9.141340255737305 20.998987197875977 33 32 34
-3.382167339324951 -6.696086883544922 22.357036590576172 26 24 29
-4.868953227996826 -6.352972507476807 21.552291870117188 91 93 95
-4.925805568695068 -6.291226387023926 21.618595123291016 65 66 70
-6.433122158050537 -4.801013946533203 20.27686309814453 65 64 70
-7.471898078918457 -3.4693336486816406 19.368366241455078 84 85 93
-6.418417930603027 -2.3800675868988037 20.10704803466797 86 88 95
-3.22367787361145 -2.4150233268737793 21.07753562927246 11 11 15
-6.092644214630127 -1.3834435939788818 19.202308654785156 52 52 65
-5.98816442489624 -1.4021672010421753 19.46953582763672 71 71 78
-3.307253360748291 -1.5465315580368042 22.0322322845459 75 75 78
-7.214995861053467 -1.2191619873046875 18.77567481994629 13 12 19
-4.887878894805908 -1.240085244178772 20.57353401184082 101 102 108
-6.663979530334473 -0.6371318697929382 19.50835609436035 49 48 57
-1.5352433919906616 -0.24540524184703827 21.505294799804688 38 39 43
-5.9468865394592285 -0.20298391580581665 19.84882926940918 11 9 13
-5.2102532386779785 -0.15153838694095612 19.676223754882812 89 91 96
-5.020327568054199 -0.12764029204845428 21.48099136352539 113 113 118
-3.04573392868042 -0.09244748950004578 20.79604721069336 36 37 41
-6.177572250366211 0.7435774207115173 19.960206985473633 56 54 64
-2.889662265777588 0.8293684720993042 20.035261154174805 55 56 60
-7.2799906730651855 0.8417645692825317 18.797853469848633 98 98 105
-3.331256866455078 3.194882869720459 21.905380249023438 39 39 44
-5.088954448699951 3.3570139408111572 21.59254264831543 49 49 55
-4.589912414550781 3.116636276245117 20.315290451049805 19 17 22
-1.8935657739639282 3.4702911376953125 22.02478790283203 67 68 71
-6.940262794494629 3.6123743057250977 18.483640670776367 105 105 110
-4.466942310333252 3.774923324584961 19.12527084350586 51 51 57
-5.907721996307373 3.894355535507202 18.85301399230957 101 101 107
-3.148010015487671 4.050570964813232 19.458070755004883 70 70 77
-3.144333600997925 4.265223503112793 20.497617721557617 35 37 42
-5.8347487449646 4.172388553619385 19.273975372314453 30 30 37
-3.042661190032959 5.006290912628174 19.994035720825195 80 79 85
-7.1702799797058105 4.807940483093262 18.704282760620117 124 124 132
