ply
format ascii 1.0
element vertex 716
property float x
property float y
property float z
property uchar red
property uchar green
property uchar blue
end_header
-0.5054149627685547 4.949991703033447 9.655704498291016 142 136 131
0.8966628313064575 -2.2081518173217773 6.492515563964844 103 96 89
0.9347960948944092 -0.9697909951210022 6.6857171058654785 62 57 53
-7.08927583694458 1.1983957290649414 19.681503295898438 100 92 92
-8.397236824035645 -4.45448112487793 36.997135162353516 105 98 104
-1.8612430095672607 2.6060116291046143 18.29137420654297 71 64 61
-7.2568359375 1.6523641347885132 20.416353225708008 87 79 74
0.1771647334098816 4.947622299194336 8.910388946533203 86 80 75
0.5926322937011719 0.798672616481781 6.751765727996826 128 125 131
-7.83868932723999 -2.951687812805176 18.363203048706055 117 111 110
-8.579459190368652 -5.540025234222412 35.883914947509766 75 69 72
-8.282465934753418 -3.1645162105560303 37.79591751098633 90 84 91
-7.618982315063477 0.09221614897251129 18.287370681762695 79 75 82
-5.479074954986572 -4.014072895050049 42.43124008178711 80 68 66
0.19730012118816376 4.864195823669434 9.308399200439453 99 90 84
-1.7887725830078125 2.724660634994507 17.88794708251953 83 78 76
-0.3418247103691101 4.961148738861084 9.481450080871582 79 72 69
0.9671517610549927 0.12258443981409073 6.752327919006348 76 71 64
-7.974196434020996 -2.8099677562713623 17.065143585205078 27 20 26
-0.8894039392471313 4.566915035247803 11.238765716552734 83 77 71
-7.798364639282227 -1.4255605936050415 18.565818786621094 51 47 52
-7.480496883392334 -0.1607237458229065 20.8149356842041 46 43 49
-2.234391450881958 2.890354871749878 18.1492919921875 15 10 8
0.49284014105796814 -3.943373680114746 6.379937171936035 96 93 93
-6.584440231323242 -2.419635057449341 45.05774688720703 164 152 141
-7.856888771057129 -0.9800427556037903 17.82377815246582 52 47 58
0.46122920513153076 -3.4348063468933105 6.254293441772461 95 94 97
-8.016403198242188 -2.0796239376068115 40.11951446533203 195 185 180
-4.8063836097717285 -2.0277981758117676 36.69596862792969 114 106 100
0.5737607479095459 -0.3652693033218384 6.750822067260742 19 17 20
0.9489995241165161 1.4446802139282227 6.892863750457764 36 36 34
0.9489995837211609 1.4447047710418701 6.893000602722168 36 36 34
0.8892892599105835 -0.37606605887413025 6.7979350090026855 128 124 124
-7.3355326652526855 1.556736707687378 20.928979873657227 68 59 59
-8.174702644348145 -3.422909736633301 30.75885009765625 127 117 112
-8.110845565795898 -1.904215931892395 36.890472412109375 99 92 93
0.5653800368309021 -0.7460519075393677 6.706562042236328 172 170 172
0.8721972107887268 -3.105717897415161 6.441531658172607 122 117 112
-8.011788368225098 -2.3684282302856445 18.704938888549805 12 8 17
0.5653479695320129 -3.065744638442993 6.369332313537598 105 103 106
-8.35573959350586 -2.6767196655273438 21.208982467651367 103 95 87
-7.883199691772461 -2.8590290546417236 26.719398498535156 49 45 52
-7.689392566680908 -3.298283815383911 29.57566261291504 184 172 169
-7.960541725158691 -3.369866371154785 26.83225440979004 34 30 34
-7.678491592407227 -2.259657621383667 17.900468826293945 22 17 27
-8.129576683044434 -0.9483166933059692 21.04965591430664 85 77 68
-7.135521411895752 -3.3946120738983154 27.05510711669922 108 99 94
-7.960447788238525 -3.369807004928589 26.832067489624023 34 30 34
-8.17853832244873 -1.446967601776123 37.07817840576172 45 36 34
-7.256821155548096 1.6523610353469849 20.41631507873535 87 79 74
-8.322845458984375 -4.603468418121338 40.75180435180664 167 162 176
-8.455435752868652 -4.526706695556641 40.13839340209961 74 70 84
-8.158857345581055 -3.5488202571868896 31.269575119018555 108 96 92
-0.3186255097389221 5.268008708953857 8.40337085723877 112 107 101
-8.311184883117676 -3.912221908569336 32.4322509765625 147 136 134
-8.539636611938477 -4.855793476104736 40.37715148925781 85 83 97
0.9050752520561218 -2.353945255279541 6.495212078094482 131 124 115
0.957351803779602 -2.3630282878875732 6.53176736831665 144 136 122
0.24725617468357086 5.2760515213012695 8.472393989562988 125 121 117
-8.651670455932617 -3.9857161045074463 33.159881591796875 79 67 63
-4.8489580154418945 -7.13416862487793 19.96136474609375 236 218 197
0.949296236038208 -0.7788007259368896 6.678069591522217 71 66 57
-7.8807806968688965 -0.5281389355659485 18.807029724121094 8 2 8
-7.517020225524902 -4.593727111816406 39.34556579589844 162 150 159
-7.945777416229248 -3.546442747116089 29.971309661865234 92 81 76
-8.539240837097168 -4.855597496032715 40.37531661987305 85 83 97
-0.01632719114422798 5.361909866333008 8.613388061523438 114 110 105
-7.2163987159729 -3.054428815841675 26.147762298583984 90 83 84
1.0323655605316162 0.7546777129173279 6.87459659576416 184 179 165
0.21524779498577118 4.7528581619262695 9.102097511291504 86 78 71
-7.773347854614258 -0.40718767046928406 21.354705810546875 57 54 62
-7.974202632904053 -2.809966802597046 17.065166473388672 27 20 26
-7.868654727935791 -2.8798532485961914 17.836448669433594 29 26 34
0.013254229910671711 5.190626621246338 8.444165229797363 64 60 56
-8.597103118896484 -5.091572284698486 37.616722106933594 93 86 90
0.2639051377773285 5.2284345626831055 8.617216110229492 98 94 89
0.523807168006897 -1.9192489385604858 6.51746940612793 139 136 135
-7.945449352264404 -3.2769219875335693 18.450742721557617 40 35 39
0.5216283798217773 -1.8868446350097656 6.494379043579102 147 144 144
1.0080292224884033 1.913760781288147 7.042520999908447 126 123 115
0.021052544936537743 5.140336036682129 8.438447952270508 131 127 123
-8.140615463256836 -2.9598777294158936 30.563297271728516 113 107 114
-7.901691436767578 -4.512890815734863 18.734081268310547 25 22 29
1.1750789880752563 4.419704437255859 7.285308361053467 72 69 60
-7.729495525360107 -5.218470096588135 18.631166458129883 51 47 58
-8.134481430053711 -5.495532989501953 19.67718505859375 34 30 41
0.17813117802143097 5.244182586669922 8.648683547973633 83 80 73
-7.851263523101807 -3.652672290802002 30.418855667114258 151 139 134
-2.1611292362213135 -0.10298595577478409 18.39402198791504 68 51 41
-0.03480315953493118 5.176297187805176 8.569891929626465 128 123 118
-0.49746209383010864 5.209496974945068 8.651717185974121 128 123 118
-2.2107672691345215 -0.1199677363038063 18.376523971557617 210 193 182
-8.188413619995117 -5.616770267486572 21.434959411621094 63 59 73
-8.187108039855957 -5.615991592407227 21.43181800842285 63 59 73
-2.1127073764801025 -0.11516877263784409 18.84543228149414 98 81 75
-7.924384117126465 -4.428088188171387 17.64263153076172 30 24 28
-8.180968284606934 -4.716231346130371 27.45825958251953 76 70 72
-7.924367904663086 -4.428078651428223 17.64259910583496 30 24 28
-5.620480537414551 -7.316101551055908 29.449230194091797 184 161 144
-8.006393432617188 -4.394853115081787 17.81770896911621 24 19 23
-8.260235786437988 -4.62079381942749 18.677284240722656 22 17 24
0.183274507522583 5.146294116973877 8.622462272644043 119 114 109
-7.726217269897461 -4.40653133392334 18.168893814086914 126 123 130
-7.593410968780518 -4.337010383605957 17.894742965698242 85 82 89
0.9266437292098999 -1.600358247756958 6.606157302856445 135 129 120
-8.111104011535645 -4.571619510650635 18.604944229125977 42 38 46
-8.321797370910645 -4.762045860290527 20.021778106689453 160 158 164
0.9203911423683167 -1.5374691486358643 6.572667121887207 58 54 46
-7.970234394073486 -4.154605865478516 17.83060646057129 14 9 12
-8.023191452026367 -4.631608009338379 19.661287307739258 54 52 57
-2.6486027240753174 -0.03459663316607475 18.91962432861328 41 23 16
-7.620048522949219 0.09193291515111923 18.290315628051758 79 75 82
0.9203844666481018 -1.5374412536621094 6.5726165771484375 58 54 46
-2.099865198135376 -0.02185453474521637 17.84880256652832 148 130 122
0.9026534557342529 -1.8089696168899536 6.555295467376709 137 131 121
-8.024273872375488 -4.216197490692139 18.53070640563965 69 65 67
-2.944319248199463 0.008238019421696663 20.44388771057129 150 135 123
-8.047745704650879 -4.731414318084717 20.883630752563477 109 105 116
-7.827991008758545 -4.613525867462158 20.379087448120117 70 67 77
-8.033177375793457 -4.746233940124512 21.228038787841797 79 77 90
0.18528273701667786 5.231677532196045 8.53594970703125 79 75 69
-8.032524108886719 -4.745871543884277 21.226388931274414 79 77 90
-1.8623181581497192 0.03830336779356003 18.19293975830078 78 67 61
-8.111100196838379 -4.57161808013916 18.604936599731445 42 38 46
-3.281907081604004 5.199138641357422 8.883403778076172 72 63 56
-2.1846494674682617 2.664462089538574 18.270336151123047 27 20 19
-0.060602203011512756 5.168663024902344 8.843996047973633 130 125 120
-8.091246604919434 -4.231110572814941 21.834041595458984 26 25 38
-7.973822593688965 -3.8391029834747314 17.89621925354004 16 13 17
0.6333227753639221 1.5172349214553833 6.896962642669678 135 134 134
-1.7732834815979004 0.05995691940188408 18.49260902404785 94 82 79
-7.963744163513184 -4.203028678894043 21.875246047973633 11 10 24
-8.432865142822266 -4.474205017089844 20.934717178344727 165 158 151
-8.146739959716797 -4.498838424682617 21.27113151550293 36 34 43
-7.619883060455322 0.09193415194749832 18.28994369506836 79 75 82
-2.421680450439453 0.05316700413823128 18.92371940612793 66 47 39
-2.2477004528045654 0.08741259574890137 18.39645767211914 196 184 172
-2.0654566287994385 0.13113415241241455 18.185588836669922 114 100 94
-1.7253586053848267 0.08592236042022705 18.530193328857422 141 131 127
-8.024190902709961 -4.216161727905273 18.530536651611328 69 65 67
-8.533198356628418 -4.319173336029053 20.74017906188965 149 140 128
-3.7517619132995605 5.109578609466553 8.817705154418945 141 134 127
-2.3893861770629883 0.12360557913780212 18.993247985839844 44 28 21
-7.936561584472656 -3.5172717571258545 17.878915786743164 28 24 28
-7.849867820739746 -2.3735690116882324 26.737192153930664 37 32 41
-7.574655055999756 0.15015116333961487 20.921010971069336 17 13 17
-7.575486183166504 0.1501503884792328 20.923263549804688 17 13 17
-7.8420491218566895 -4.069443225860596 20.68236541748047 64 65 73
-7.474855899810791 -1.5983108282089233 17.416486740112305 17 12 18
-7.841858386993408 -4.069360256195068 20.681795120239258 64 65 73
-7.9434895515441895 -3.5848398208618164 18.453815460205078 43 38 39
-8.366329193115234 -4.104984760284424 20.8815860748291 155 146 133
-7.936723709106445 -3.517303705215454 17.87925910949707 28 24 28
-7.987157821655273 -3.5745062828063965 18.275346755981445 28 24 30
-8.283835411071777 -4.3337883949279785 22.39603042602539 32 31 44
-8.722175598144531 -6.017877578735352 37.92108917236328 36 30 33
-1.676102638244629 0.024883845821022987 18.55539321899414 44 33 29
-7.936782360076904 -3.517317533493042 17.879384994506836 28 24 28
-8.3660306930542 -4.104860782623291 20.88084602355957 155 146 133
-8.913079261779785 -7.758545398712158 40.220420837402344 84 83 88
-1.914302110671997 -0.0251312255859375 18.17330551147461 44 31 25
-7.628910541534424 -0.1039469763636589 20.93331527709961 84 81 88
-8.101141929626465 -1.2101207971572876 20.92194175720215 95 88 77
-7.754817485809326 -1.2296888828277588 21.000957489013672 59 58 70
-7.725566387176514 -1.1079823970794678 18.413373947143555 56 51 58
0.10651643574237823 5.055594444274902 8.969523429870605 132 125 121
-6.703881740570068 -7.633508682250977 40.780372619628906 253 251 243
-8.120100021362305 -5.226312637329102 28.041170120239258 83 76 80
1.1553467512130737 4.086862564086914 7.275672912597656 75 71 59
-8.204202651977539 -4.978358745574951 27.526508331298828 48 43 44
-8.119296073913574 -5.225891590118408 28.038705825805664 83 76 80
-8.050552368164062 -1.687567114830017 27.60474395751953 115 110 119
-8.04919147491455 -1.6873700618743896 27.600624084472656 115 110 119
-2.1503961086273193 2.8057637214660645 18.158842086791992 146 142 138
0.9763952493667603 -0.41242608428001404 6.71961784362793 75 68 60
-8.02697467803955 -3.8648269176483154 21.12384605407715 43 42 51
0.9449256062507629 -0.41438665986061096 6.73518180847168 108 102 96
-7.364060878753662 -7.496586322784424 41.09858703613281 93 75 66
-6.729063034057617 -7.57127571105957 41.4358024597168 236 230 218
-7.9117655754089355 -3.198235511779785 17.890005111694336 51 44 50
-8.026313781738281 -3.8645541667938232 21.122331619262695 43 42 51
-7.975881576538086 -3.89959716796875 21.707950592041016 25 22 36
-7.799035549163818 0.396154522895813 18.754596710205078 28 22 27
-7.765869617462158 -3.783630609512329 20.892114639282227 46 43 56
0.23320341110229492 5.015714168548584 9.005043983459473 104 98 93
-7.755160331726074 -1.22974693775177 21.001874923706055 59 58 70
-8.48862075805664 -5.416689872741699 30.15924072265625 196 192 193
0.9452403783798218 -1.190377950668335 6.636813640594482 103 97 86
-8.111740112304688 -5.001622676849365 28.096696853637695 61 56 58
-2.184426784515381 2.6642026901245117 18.26810646057129 27 20 19
-0.0710277259349823 4.957022666931152 9.09325885772705 136 131 127
0.6430572867393494 2.0662593841552734 6.985212326049805 44 40 42
0.8871262073516846 -1.1374040842056274 6.601949214935303 162 159 157
-8.134849548339844 -3.6307220458984375 21.556377410888672 11 10 21
0.9991418123245239 2.0895028114318848 6.907116889953613 42 38 34
0.9991418123245239 2.089553117752075 6.907270908355713 42 38 34
0.6626901030540466 -0.14639480412006378 2.036463975906372 50 41 30
1.0625191926956177 0.9935337901115417 6.890810966491699 78 74 62
0.09266556799411774 4.989905834197998 9.265483856201172 129 123 117
0.6505777835845947 2.2577192783355713 6.962233066558838 98 98 98
-0.055486589670181274 5.001669406890869 9.344058990478516 124 119 115
-8.503875732421875 -5.8520827293396 34.97895431518555 124 116 117
-8.159878730773926 -4.7684736251831055 28.287004470825195 71 65 68
1.1106888055801392 2.3680882453918457 7.084763526916504 108 106 92
0.2213427722454071 5.036350250244141 9.4651517868042 118 110 104
-7.752089023590088 -1.619114875793457 21.70589828491211 62 60 73
-6.378881931304932 -3.3094353675842285 42.9006233215332 150 136 127
1.0516436100006104 0.89980548620224 6.853608131408691 42 38 28
-8.01864242553711 -4.479502201080322 27.89955711364746 69 63 65
-0.9228600263595581 4.405026912689209 12.36181354522705 102 93 88
-6.3784379959106445 -3.3092846870422363 42.897621154785156 150 136 127
-7.865966796875 -2.1483049392700195 26.95553970336914 86 81 91
-7.9025421142578125 -2.8613152503967285 17.734477996826172 17 12 21
0.6834568381309509 3.7889857292175293 7.230412483215332 89 89 89
1.1059802770614624 2.5713093280792236 7.0911407470703125 77 73 64
-6.306387424468994 -3.488025188446045 42.75907516479492 174 158 149
-7.838737487792969 -2.9517059326171875 18.36330223083496 117 111 110
-8.050323486328125 -4.540224075317383 28.39988136291504 135 128 130
1.1095865964889526 2.626289129257202 7.092389106750488 124 120 111
-8.019122123718262 -4.479743480682373 27.901023864746094 69 63 65
1.1095860004425049 2.6262855529785156 7.092373847961426 124 120 111
-0.038631096482276917 4.952768802642822 9.510499000549316 125 120 116
-8.282474517822266 -3.1645193099975586 37.79594802856445 90 84 91
-8.307806968688965 -3.2449169158935547 20.95087432861328 186 180 168
-7.741657733917236 -3.7222061157226562 43.723960876464844 150 131 121
-8.567205429077148 -6.063196659088135 40.07373809814453 58 55 69
-7.992262363433838 -4.238229274749756 27.833709716796875 69 62 64
-8.084994316101074 -1.7599939107894897 20.787479400634766 78 71 61
-7.977911949157715 -3.50307559967041 23.34833526611328 12 7 17
-8.22524356842041 -4.278036594390869 28.001846313476562 28 22 26
-6.457823276519775 -3.825335741043091 43.468692779541016 118 103 94
-8.635354042053223 -6.309975624084473 41.69889831542969 89 86 98
-7.973458766937256 -4.231100082397461 27.769033432006836 69 62 64
-8.568239212036133 -6.063791275024414 40.07803726196289 58 55 69
-7.848907947540283 -2.373328924179077 26.734054565429688 37 32 41
-7.971681118011475 -4.230234622955322 27.76272201538086 69 62 64
-7.973620414733887 -4.231017112731934 27.769306182861328 69 62 64
-0.26810187101364136 4.9418816566467285 9.704405784606934 128 122 119
-8.006448745727539 1.2406153678894043 20.46522331237793 135 131 127
-8.165115356445312 -2.7689530849456787 30.205766677856445 26 20 28
-7.995545864105225 -4.000629425048828 27.762834548950195 137 131 138
1.0012812614440918 0.7806959748268127 6.861512184143066 62 57 43
-7.987051010131836 -1.754410982131958 18.864028930664062 78 73 76
-6.773842811584473 -4.074045181274414 43.591957092285156 162 146 136
-6.16881799697876 -3.6343774795532227 38.622039794921875 90 72 65
-8.211305618286133 -2.9708285331726074 31.577516555786133 103 98 107
-8.023158073425293 1.318193793296814 20.458707809448242 117 118 118
-7.9950079917907715 1.3225733041763306 20.53426742553711 30 31 31
-5.479557991027832 -4.014387130737305 42.43495559692383 80 68 66
0.9239106178283691 0.7625625133514404 6.8687357902526855 179 174 168
1.0433645248413086 0.4520878791809082 6.810369968414307 86 81 65
0.6036047339439392 0.7698037028312683 6.833493709564209 113 111 113
-7.7899394035339355 1.407270073890686 21.125608444213867 52 43 35
-7.273144721984863 -2.7333855628967285 19.466712951660156 24 23 33
-7.927004814147949 -2.979154586791992 21.217594146728516 34 33 44
-8.275566101074219 -4.391626834869385 31.305055618286133 201 195 196
-7.971780300140381 -2.649916887283325 27.03632926940918 89 85 94
-7.969620704650879 -2.1894607543945312 22.010583877563477 58 57 73
-7.895503997802734 1.4621224403381348 20.52058219909668 185 179 172
-8.157182693481445 -3.1365725994110107 31.60201072692871 139 132 139
-7.927793979644775 -4.4851484298706055 44.33504867553711 98 70 58
-8.742097854614258 -5.602187156677246 41.067787170410156 90 90 104
-6.958320140838623 -4.522709369659424 44.489559173583984 70 52 45
0.689775288105011 3.0191667079925537 7.089505195617676 125 123 123
-8.186361312866211 -3.233893394470215 31.373937606811523 146 139 142
-8.322967529296875 -4.5253143310546875 34.560340881347656 53 45 47
-7.976104736328125 0.46916815638542175 20.99795913696289 80 72 63
-7.779466152191162 -3.516139030456543 21.070693969726562 63 61 74
-7.797897815704346 -1.4254924058914185 18.564828872680664 51 47 52
0.6711515188217163 -3.7894723415374756 6.369413375854492 111 108 110
0.21883301436901093 5.108463764190674 8.751742362976074 125 120 114
1.0453234910964966 1.8909955024719238 7.083998203277588 147 144 134
0.9027262926101685 -1.809025526046753 6.555401802062988 137 131 121
-8.051101684570312 -0.09324181079864502 21.06787109375 67 61 52
0.9869401454925537 2.6297221183776855 7.090116024017334 40 40 40
0.7703248858451843 1.644694447517395 6.96535062789917 116 113 119
-0.3415193557739258 4.959944725036621 9.479330062866211 79 72 69
-8.374167442321777 -3.5286881923675537 21.028690338134766 191 183 170
-7.691342830657959 -2.5054855346679688 28.03603744506836 86 81 91
0.4612085521221161 -3.435885429382324 6.255168437957764 95 94 97
-7.741762161254883 -3.7222321033477783 43.72444534301758 150 131 121
-7.8386759757995605 -2.9516823291778564 18.363174438476562 117 111 110
-6.354513168334961 -3.5205483436584473 42.95866394042969 186 170 161
-5.694666385650635 -3.178889751434326 39.102630615234375 114 99 91
-6.37973690032959 -3.309814453125 42.90531921386719 150 136 127
-8.019084930419922 -4.479808807373047 27.90093994140625 69 63 65
-2.8142611980438232 0.22643083333969116 19.178682327270508 27 9 4
-2.783111572265625 0.13937127590179443 18.72568702697754 156 141 130
-6.3791375160217285 -3.3095321655273438 42.90229034423828 150 136 127
-8.601682662963867 -5.560562610626221 35.989933013916016 75 69 72
-2.043673515319824 2.726362466812134 18.121294021606445 83 77 75
-1.7056756019592285 0.0889996588230133 18.395254135131836 106 96 92
-2.259345054626465 0.092950738966465 18.52131462097168 121 104 96
-7.971835613250732 -4.230343341827393 27.763439178466797 69 62 64
-2.4215540885925293 0.053156714886426926 18.922760009765625 66 47 39
-2.0438613891601562 2.7270641326904297 18.122785568237305 83 77 75
-2.6774468421936035 0.020802199840545654 18.584569931030273 89 72 60
-2.043877363204956 2.7271814346313477 18.122760772705078 83 77 75
-4.848999977111816 -7.134207248687744 19.961483001708984 236 218 197
-1.8622767925262451 0.0383332334458828 18.19272232055664 78 67 61
-1.7373013496398926 0.018500948324799538 18.283462524414062 213 202 196
-8.109915733337402 -1.4907742738723755 20.951274871826172 75 68 60
-7.827609539031982 -1.5403846502304077 21.283029556274414 51 52 63
-7.843588352203369 -4.025908946990967 27.189836502075195 44 38 42
-1.9938772916793823 -0.011299697682261467 18.190650939941406 178 164 156
-2.144076108932495 -0.008986741304397583 18.09821128845215 147 130 122
-1.9175424575805664 -0.021938977763056755 18.23662757873535 44 31 25
0.8955519199371338 -1.9330317974090576 6.505237102508545 77 71 66
-7.891180515289307 -2.6527976989746094 18.489585876464844 68 62 67
0.6429410576820374 1.142892837524414 6.92306661605835 29 26 27
1.0974210500717163 2.226925849914551 7.042677402496338 99 95 85
-2.890503168106079 -0.1044003963470459 20.006505966186523 209 192 180
-2.235516309738159 -0.1157665029168129 18.496898651123047 187 170 159
-7.926912307739258 -2.979111433029175 21.217336654663086 34 33 44
-5.025979042053223 -2.477116584777832 38.585296630859375 143 129 124
0.9764091372489929 -0.4124348759651184 6.719746112823486 75 68 60
-7.8030219078063965 -0.4081466495990753 21.426464080810547 57 54 62
-5.9515509605407715 -7.361018180847168 29.315275192260742 224 195 179
1.0778218507766724 1.4722418785095215 6.973041534423828 147 142 131
-8.010781288146973 -2.368161916732788 18.70278549194336 12 8 17
-8.35568618774414 -2.6767184734344482 21.208892822265625 103 95 87
0.9499655961990356 -0.38129448890686035 6.72526741027832 32 26 21
-8.259714126586914 -3.917372226715088 31.314279556274414 176 165 161
-7.970381736755371 -4.15467643737793 17.830909729003906 14 9 12
-8.269184112548828 -2.0386946201324463 39.84152603149414 86 76 74
-8.270064353942871 -2.038898229598999 39.845306396484375 86 76 74
-8.270462989807129 -2.0390539169311523 39.847328186035156 86 76 74
0.9203787446022034 -1.537440538406372 6.572579383850098 58 54 46
-8.016060829162598 -2.0795178413391113 40.11777877807617 195 185 180
-7.940519332885742 -4.239777565002441 18.313888549804688 147 144 148
-0.45531103014945984 5.160404205322266 8.530596733093262 67 62 57
-8.03305721282959 -4.746169090270996 21.227752685546875 79 77 90
-8.024173736572266 -4.216156482696533 18.530502319335938 69 65 67
-8.032547950744629 -4.745885848999023 21.226451873779297 79 77 90
-7.947621822357178 -3.5473010540008545 29.978168487548828 92 81 76
-8.539414405822754 -4.855663299560547 40.37606430053711 85 83 97
-8.111104011535645 -4.571617603302002 18.604944229125977 42 38 46
-7.517159938812256 -4.593802452087402 39.34621047973633 162 150 159
-8.432865142822266 -4.474201202392578 20.934715270996094 165 158 151
-8.148453712463379 1.251857876777649 20.78725242614746 108 103 98
0.9476922750473022 -0.7870426774024963 6.709780693054199 48 43 35
-7.756443500518799 1.259231448173523 20.794750213623047 187 183 183
-7.7562031745910645 1.259199857711792 20.79418182373047 187 183 183
-7.860011100769043 -3.644965171813965 30.450841903686523 162 150 146
-7.973842620849609 -3.8391222953796387 17.896268844604492 16 13 17
-8.237336158752441 -4.367222309112549 20.716482162475586 35 28 30
-8.323302268981934 -4.603701591491699 40.754215240478516 167 162 176
-8.533143997192383 -4.319149017333984 20.740060806274414 149 140 128
-2.4694268703460693 0.048410382121801376 19.18852996826172 70 51 43
-7.935492038726807 -3.516836404800415 17.876514434814453 28 24 28
-8.366363525390625 -4.105005741119385 20.88167381286621 155 146 133
-8.111071586608887 -4.571599006652832 18.604881286621094 42 38 46
-7.455789089202881 -3.886193037033081 19.877803802490234 74 73 84
-8.913643836975098 -7.759070873260498 40.22304153442383 84 83 88
-7.936669826507568 -3.5173099040985107 17.8791561126709 28 24 28
-8.366106033325195 -4.104879856109619 20.881011962890625 155 146 133
0.5653754472732544 -0.746062695980072 6.706634998321533 172 170 172
-7.9719438552856445 -4.230213165283203 27.76373291015625 69 62 64
-8.283746719360352 -4.333743095397949 22.395788192749023 32 31 44
-6.744524002075195 -7.611428737640381 40.66110610961914 255 254 245
-8.119874000549316 -5.226260662078857 28.040515899658203 83 76 80
-9.227478981018066 -5.925431728363037 31.86138153076172 69 63 68
1.1031731367111206 2.9535129070281982 7.113746643066406 51 48 39
-7.509119510650635 1.4401485919952393 21.258573532104492 90 80 78
-8.4500732421875 -3.8661861419677734 21.1475772857666 116 109 98
-7.976905345916748 -3.9000706672668457 21.71057891845703 25 22 36
-8.12011432647705 -5.226322174072266 28.04121208190918 83 76 80
-7.624410152435303 1.3794304132461548 20.69889259338379 72 64 56
-6.7319746017456055 -7.574772834777832 41.453880310058594 236 230 218
-7.704720973968506 -4.583920001983643 45.107452392578125 127 108 102
-6.958595275878906 -4.522824764251709 44.491172790527344 70 52 45
-7.523599147796631 1.3539667129516602 20.115901947021484 37 34 34
-6.958353042602539 -4.52268123626709 44.48971176147461 70 52 45
-7.976809978485107 -3.900012493133545 21.710344314575195 25 22 36
0.9238243699073792 0.762503981590271 6.8681840896606445 179 174 168
-8.64632797241211 -3.545612096786499 19.888532638549805 44 39 43
1.0323655605316162 0.7546809911727905 6.87461519241333 184 179 165
-7.928828239440918 -4.485703468322754 44.340179443359375 98 70 58
0.945186197757721 -1.1902921199798584 6.636446952819824 103 97 86
-8.11107063293457 -5.001219749450684 28.094680786132812 61 56 58
-7.969672679901123 -2.189476728439331 22.010517120361328 65 64 81
-7.734938621520996 1.2559938430786133 20.737689971923828 187 183 183
-5.479157447814941 -4.0141096115112305 42.43190383911133 80 68 66
-8.16879653930664 -2.8596463203430176 30.19701385498047 22 16 20
-8.140376091003418 -2.959808111190796 30.5625 113 107 114
-6.772031307220459 -4.0724897384643555 43.58002471923828 162 146 136
-7.710873126983643 1.2235584259033203 20.434410095214844 175 170 170
-6.423849105834961 -6.969947338104248 40.08906936645508 254 254 243
1.0625178813934326 0.9935311079025269 6.890807151794434 78 74 62
0.6521726846694946 -3.7921807765960693 6.331075668334961 97 94 96
0.6243623495101929 -3.7389745712280273 6.274725914001465 92 88 93
0.18525446951389313 5.23182487487793 8.536158561706543 79 75 69
0.8764901161193848 -1.5449773073196411 6.632302761077881 147 144 140
-8.016963958740234 -5.307080268859863 29.394481658935547 79 72 76
0.8290868997573853 -3.1283392906188965 6.435211658477783 45 43 44
-8.6104736328125 -5.210146427154541 40.553462982177734 57 55 69
0.13937819004058838 5.224736213684082 8.51179313659668 109 106 100
-8.091486930847168 -4.231215953826904 21.834613800048828 26 25 38
-4.805875778198242 -2.027608633041382 36.69283676147461 114 106 100
-2.269364833831787 5.168110370635986 8.4465970993042 114 109 104
-7.598536014556885 -1.1529738903045654 22.060531616210938 80 77 92
-6.432694435119629 -2.369161367416382 44.16609191894531 171 159 148
0.8892056941986084 -0.37602919340133667 6.797314643859863 128 124 124
-7.862173080444336 -2.1838414669036865 17.317981719970703 14 7 17
-7.854471206665039 -0.9802467226982117 17.8183650970459 52 47 58
-7.925375938415527 -3.401371479034424 30.43798828125 190 178 175
-8.182347297668457 -4.717334270477295 27.462478637695312 76 70 72
-8.129508018493652 -0.9483121633529663 21.049503326416016 85 77 68
-0.05733638256788254 5.009024143218994 9.361067771911621 124 119 115
-0.053405970335006714 5.268306732177734 8.723368644714355 124 119 114
0.6059216260910034 -1.9164347648620605 6.37334680557251 97 93 95
-7.3355913162231445 1.5567409992218018 20.929109573364258 68 59 59
-8.382987976074219 -5.5712127685546875 18.871356964111328 37 31 37
-7.906086444854736 -5.62633752822876 19.024951934814453 22 19 32
0.9489977359771729 1.4446780681610107 6.892855167388916 36 36 34
-7.6800031661987305 -1.0163171291351318 17.89729118347168 135 130 140
-8.259795188903809 -5.573892593383789 19.94580841064453 40 36 47
-8.08838939666748 1.5624523162841797 20.57505989074707 130 123 114
-8.0558443069458 -0.6382210850715637 20.936399459838867 73 65 55
-7.881083011627197 -0.5281479954719543 18.8076114654541 8 2 8
-7.755348205566406 -1.229778528213501 21.002395629882812 59 58 70
0.8970726132392883 -2.7481353282928467 6.522977352142334 100 92 82
-8.187886238098145 -5.616463661193848 21.43367576599121 63 59 73
-7.840314865112305 -1.0870906114578247 18.415700912475586 31 28 36
-0.044715508818626404 5.194882869720459 8.793604850769043 105 100 95
-4.971867561340332 -2.2914469242095947 37.96066665649414 133 121 117
-7.727263450622559 -4.407084941864014 18.171062469482422 126 123 130
1.0147547721862793 1.8323560953140259 6.875483989715576 107 104 95
0.9220819473266602 -1.592043399810791 6.58252477645874 130 124 115
-8.030313491821289 -4.5852437019348145 19.01051139831543 98 95 102
-8.088701248168945 -0.6034560799598694 33.56052017211914 58 45 39
0.04486483335494995 5.047121524810791 9.477622985839844 98 93 88
-8.049345016479492 -1.6873961687088013 27.601102828979492 115 110 119
0.9238996505737305 0.7628285884857178 6.87072229385376 179 174 168
1.0003278255462646 1.2241111993789673 6.859508037567139 87 83 69
-7.25693416595459 1.652384638786316 20.41663360595703 87 79 74
-7.614113807678223 -0.20662717521190643 21.056896209716797 113 109 116
-3.1351709365844727 5.1178483963012695 8.869438171386719 118 110 102
-7.973805904388428 -3.8390958309173584 17.89618682861328 16 13 17
-8.456212997436523 -6.106414794921875 28.9865665435791 78 69 74
-7.844340801239014 -2.032358169555664 18.54203224182129 77 73 76
-1.8127979040145874 3.046848773956299 18.068578720092773 55 51 50
0.9664554595947266 -0.06160828471183777 6.843589782714844 105 101 97
-7.629547119140625 -0.1039978414773941 20.93505859375 84 81 88
-8.283766746520996 -4.333749294281006 22.39583396911621 32 31 44
-7.249173164367676 1.3575628995895386 18.838403701782227 169 162 156
-8.178028106689453 -1.3908416032791138 21.166263580322266 69 62 54
-0.06661571562290192 5.051514148712158 9.188666343688965 108 103 99
-7.8401994705200195 1.2949641942977905 19.070959091186523 23 18 19
-7.594550609588623 2.3299384117126465 21.1403865814209 75 65 62
-8.075400352478027 -2.854318380355835 28.77472496032715 116 112 125
0.9451550841331482 -1.1902333498001099 6.636157989501953 103 97 86
-8.332229614257812 -4.061628341674805 22.56580924987793 22 20 33
-8.54106616973877 -7.235044956207275 40.080509185791016 38 33 39
-5.7871413230896 -4.137755393981934 43.068241119384766 107 95 91
-7.971731662750244 -2.649904489517212 27.03617286682129 89 85 94
-2.2348883152008057 2.889187812805176 18.152667999267578 15 10 8
-8.033773422241211 -4.856439113616943 27.95624351501465 149 143 147
-8.302458763122559 -1.7911635637283325 19.347665786743164 14 9 16
-7.848850727081299 -2.373331069946289 26.733869552612305 37 32 41
0.8882054090499878 -1.1388342380523682 6.609955787658691 162 159 157
-7.849086284637451 -2.3733553886413574 26.73457145690918 37 32 41
0.9221012592315674 0.3708701431751251 6.743838310241699 137 134 130
-7.753414154052734 -1.6193808317184448 21.70916748046875 62 60 73
-8.503884315490723 -5.8520917892456055 34.97899627685547 124 116 117
0.22303320467472076 5.025880813598633 9.444884300231934 118 110 104
0.04501519352197647 5.0463762283325195 9.476322174072266 98 93 88
0.9169757962226868 -1.1018868684768677 6.65131139755249 79 75 71
-8.318415641784668 -4.758327007293701 20.014081954956055 106 103 107
-7.543178558349609 -1.7329344749450684 20.326128005981445 40 39 51
-8.721431732177734 -6.017355442047119 37.91817855834961 36 30 33
-6.321385383605957 -3.269678831100464 44.87893295288086 36 20 14
-1.7783304452896118 2.7051169872283936 17.87375259399414 86 81 79
-0.3626788258552551 4.992638111114502 9.757522583007812 142 136 133
-0.2680961489677429 4.941832542419434 9.70429801940918 128 122 119
0.11496195942163467 4.863168239593506 9.563326835632324 113 106 100
-2.184567928314209 2.6643965244293213 18.26987075805664 27 20 19
-1.8609683513641357 2.6057565212249756 18.289737701416016 71 64 61
-7.602755546569824 0.4421128034591675 20.986364364624023 23 19 23
-8.188615798950195 -5.616898536682129 21.435422897338867 63 59 73
0.8722171187400818 -3.1057772636413574 6.4416184425354 122 117 112
-7.575130939483643 0.15015293657779694 20.922405242919922 17 13 17
-7.962557315826416 -2.5242462158203125 17.46575355529785 34 27 35
-8.117793083190918 -3.816368579864502 31.720705032348633 156 145 142
0.09635072201490402 4.78002405166626 8.964868545532227 82 76 71
-4.15593957901001 4.9231462478637695 10.000051498413086 141 134 127
-0.4827428460121155 5.141840934753418 9.149068832397461 107 102 97
0.10682719945907593 4.880443572998047 9.937198638916016 108 101 95
-0.566030740737915 4.876872539520264 9.97412395477295 132 126 121
-8.048725128173828 -1.6873328685760498 27.599239349365234 115 110 119
-8.917579650878906 -3.7842161655426025 36.17765426635742 129 120 121
0.6711546778678894 -3.789487838745117 6.3694376945495605 111 108 110
0.9579631686210632 -3.6522457599639893 6.237242698669434 109 104 97
-8.918058395385742 -3.784409999847412 36.17939758300781 129 120 121
-7.704588890075684 -4.583837509155273 45.10669708251953 127 108 102
-6.958724498748779 -4.5228705406188965 44.49201583862305 70 52 45
-7.742064952850342 -2.0615148544311523 20.818279266357422 38 37 50
0.8722147941589355 -3.1058409214019775 6.441744804382324 122 117 112
-6.774166107177734 -4.074304103851318 43.59406280517578 162 146 136
-6.179540634155273 -4.067953109741211 43.04527282714844 64 50 47
-2.2036075592041016 2.830864429473877 17.86454963684082 26 21 19
-7.544140815734863 -1.733071208000183 20.328611373901367 40 39 51
-8.03710651397705 1.2925751209259033 20.883642196655273 115 113 111
-2.043856620788574 2.727114677429199 18.1226806640625 83 77 75
-7.7415618896484375 -3.7221145629882812 43.72379684448242 150 131 121
-7.5101728439331055 -1.9268256425857544 19.425344467163086 87 81 77
0.9082399606704712 -2.3612585067749023 6.494516849517822 135 129 120
0.9571497440338135 -2.3625638484954834 6.530387878417969 144 136 122
-5.378493309020996 -7.006287097930908 19.62375259399414 221 193 173
-4.8490190505981445 -7.134230613708496 19.9615478515625 236 218 197
-6.229747295379639 -3.53464937210083 42.20518112182617 179 164 155
0.9239578247070312 0.7628850340843201 6.8713059425354 179 174 168
-7.376990795135498 1.2939234972000122 20.590906143188477 117 108 104
0.8955527544021606 -1.9330329895019531 6.5052409172058105 77 71 66
-6.379868030548096 -3.309842824935913 42.906490325927734 150 136 127
-7.787930965423584 1.2855836153030396 20.6505184173584 19 16 17
0.8955502510070801 -1.9330878257751465 6.505417346954346 77 71 66
0.5495026111602783 -1.901421070098877 6.49759578704834 126 123 122
0.5369830131530762 -1.8681741952896118 6.458402156829834 41 38 37
-7.220515727996826 -1.2609673738479614 16.977258682250977 67 64 72
0.584149956703186 0.7663869261741638 7.1709208488464355 101 99 101
-8.187520980834961 -5.616237163543701 21.43284797668457 63 59 73
-7.734047889709473 1.2559189796447754 20.735458374023438 187 183 183
-8.506044387817383 -4.835424900054932 19.78691291809082 134 132 139
-5.714101791381836 -7.140864372253418 29.117061614990234 234 207 189
0.9846512675285339 -1.6075425148010254 6.60542106628418 122 117 103
-2.2971439361572266 0.13954992592334747 18.620393753051758 59 42 33
-2.0436582565307617 2.7263031005859375 18.121103286743164 83 77 75
-2.170130729675293 0.1265086531639099 17.24309730529785 112 95 86
-2.0650575160980225 0.1310662031173706 18.181997299194336 114 100 94
-7.945021152496338 -4.057034969329834 17.814273834228516 114 110 116
-8.018169403076172 -4.820679664611816 21.1124267578125 152 150 163
-8.048059463500977 -4.731596946716309 20.88443374633789 109 105 116
-8.032577514648438 -4.745898723602295 21.226516723632812 79 77 90
-5.022851467132568 -2.4755945205688477 38.56521224975586 143 129 124
-2.2616987228393555 0.08674481511116028 18.537099838256836 195 183 172
-4.220499515533447 -2.264094114303589 36.138145446777344 66 60 61
-8.432644844055176 -4.474050045013428 20.934246063232422 165 158 151
-7.973836421966553 -3.8391168117523193 17.89625358581543 16 13 17
-8.432727813720703 -4.47407865524292 20.93446922302246 165 158 151
-8.446612358093262 -4.521722793579102 21.329858779907227 115 111 115
-8.146401405334473 -4.4986443519592285 21.270244598388672 36 34 43
-6.432806015014648 -7.2472052574157715 34.81511688232422 206 188 175
-6.2484331130981445 -7.548833847045898 36.2244758605957 208 194 182
-7.970541000366211 -3.601748466491699 17.926406860351562 102 98 103
-8.2554292678833 -4.160803318023682 20.70473861694336 156 149 139
-1.862255573272705 0.03830241784453392 18.192607879638672 78 67 61
-7.465822219848633 -3.462960720062256 17.42798614501953 93 89 88
-8.366101264953613 -4.104817867279053 20.88099479675293 155 146 133
-7.90820837020874 -4.066941261291504 20.528257369995117 46 44 52
-8.112344741821289 -4.202767848968506 21.39439582824707 49 50 59
-8.942113876342773 -7.976473331451416 40.24175262451172 114 113 117
-8.366170883178711 -4.104855060577393 20.881162643432617 155 146 133
0.6040106415748596 0.40721797943115234 6.788243293762207 158 156 162
-8.035126686096191 -4.193049430847168 21.4592227935791 82 81 95
-8.914134979248047 -7.759464740753174 40.22508239746094 84 83 88
-2.8445301055908203 0.05739883705973625 21.251056671142578 50 32 27
-2.9025638103485107 0.05106901749968529 18.891298294067383 106 91 80
-8.516992568969727 -5.291654586791992 28.365751266479492 86 79 81
-8.12021255493164 -5.226405143737793 28.041519165039062 83 76 80
-7.1744585037231445 -4.675783634185791 25.143924713134766 129 122 127
-7.973344802856445 -4.013412952423096 21.76401138305664 132 131 146
-8.026172637939453 -3.864464521408081 21.1219425201416 43 42 51
-7.611903190612793 -8.000762939453125 43.59368896484375 124 107 95
-6.728608131408691 -7.570767402648926 41.433101654052734 236 230 218
-6.5845561027526855 -2.419675827026367 45.05843734741211 164 152 141
-1.9961899518966675 -0.023549892008304596 18.17704200744629 195 180 173
-2.115170955657959 -0.016416965052485466 17.858442306518555 90 73 64
-7.856115818023682 -3.178234577178955 17.77903938293457 34 27 33
-8.270549774169922 -2.039085626602173 39.847774505615234 86 76 74
-8.48574161529541 -5.414946556091309 30.15017318725586 196 192 193
-7.412259578704834 -3.5130138397216797 19.725780487060547 152 151 162
-8.01634693145752 -2.079624652862549 40.119346618652344 195 185 180
-7.335172653198242 -7.2437262535095215 41.08571243286133 101 82 70
-7.797293186187744 1.2263908386230469 20.601686477661133 128 123 120
-6.423984527587891 -6.970059871673584 40.08976745605469 254 254 243
-6.785045146942139 -7.419587135314941 42.54010772705078 252 252 240
-5.466736793518066 -1.994619607925415 37.52488327026367 179 167 156
-6.423986911773682 -6.97006893157959 40.08980178833008 254 254 243
0.9226624965667725 -1.1362117528915405 6.661189079284668 134 130 122
-8.269624710083008 -2.038823366165161 39.843536376953125 86 76 74
-2.883685350418091 -0.10811961442232132 19.899412155151367 183 167 154
-2.1843721866607666 -0.12072396278381348 18.109373092651367 195 178 167
-9.246240615844727 -3.425218105316162 21.268325805664062 62 57 61
-8.019109725952148 -4.479735851287842 27.900983810424805 69 63 65
-7.788046836853027 -5.060778617858887 32.34657287597656 104 98 100
-7.256086826324463 1.652212142944336 20.414337158203125 87 79 74
-8.307524681091309 -3.244845151901245 20.950313568115234 186 180 168
-8.314285278320312 -5.397355079650879 34.91695785522461 77 71 75
-8.1005859375 -4.186638355255127 27.73431396484375 141 134 138
-7.971904277801514 -4.230332851409912 27.76348114013672 69 62 64
-7.890646934509277 -2.6527087688446045 18.488367080688477 68 62 67
0.1535702496767044 5.107339382171631 9.009600639343262 119 112 109
1.1481143236160278 3.7033979892730713 7.2263383865356445 71 66 58
-7.976500034332275 -2.975741147994995 21.07373809814453 63 63 72
-7.926592826843262 -2.979008913040161 21.21657943725586 34 33 44
1.1033296585083008 2.953935384750366 7.114809989929199 51 48 39
1.1095848083496094 2.6262929439544678 7.092356204986572 124 120 111
-7.213697910308838 1.3468033075332642 18.746824264526367 164 158 151
-8.74107551574707 -5.60162353515625 41.06339645385742 90 90 104
-8.259572982788086 -3.917306423187256 31.31378746032715 176 165 161
-8.355805397033691 -2.6767406463623047 21.20914649963379 103 95 87
-8.610509872436523 -5.210179805755615 40.55361557006836 57 55 69
-8.151853561401367 -5.224514007568359 42.40399169921875 114 103 112
1.0778250694274902 1.4722446203231812 6.9730658531188965 147 142 131
-8.539417266845703 -4.855687141418457 40.37608337402344 85 83 97
-8.185272216796875 -3.767026662826538 31.849014282226562 108 96 92
-8.539352416992188 -4.855623245239258 40.37577438354492 85 83 97
-7.947846412658691 -3.5473897457122803 29.979101181030273 92 81 76
-7.456638813018799 -3.4027812480926514 29.477069854736328 46 34 31
-7.70646333694458 1.3843531608581543 20.883058547973633 86 78 70
-8.28408432006836 -3.580277681350708 31.73288917541504 109 97 93
-7.5077433586120605 1.439545750617981 21.25473976135254 90 80 78
-8.329774856567383 -4.607047080993652 40.78548812866211 167 162 176
0.5653786659240723 -0.7460577487945557 6.706587314605713 172 170 172
-7.763754844665527 1.347103238105774 20.73480987548828 55 53 54
-8.174346923828125 -3.42281436920166 30.757530212402344 127 117 112
-7.755355358123779 -1.2297799587249756 21.00241470336914 59 58 70
-8.051482200622559 -1.6877633333206177 27.60788917541504 115 110 119
0.8176898956298828 -3.0503199100494385 6.331751823425293 92 90 92
1.062518835067749 0.9935325980186462 6.890802383422852 78 74 62
-7.8619184494018555 -2.1837892532348633 17.31746482849121 14 7 17
-8.183865547180176 -5.803499698638916 19.433183670043945 46 42 54
-8.26382064819336 -5.867166996002197 19.786558151245117 35 31 44
-7.996061325073242 -5.74230432510376 19.335208892822266 114 110 123
0.9489988684654236 1.4447072744369507 6.892904758453369 36 36 34
-8.37388801574707 0.4761313199996948 22.857271194458008 28 25 29
-7.602353572845459 0.44211187958717346 20.985048294067383 23 19 23
-0.3845439851284027 5.240138053894043 8.537090301513672 44 39 33
-7.978379726409912 1.5154160261154175 20.28325080871582 123 116 107
0.17849192023277283 5.241992473602295 8.645079612731934 83 80 73
0.9769628047943115 0.7084681391716003 6.851902484893799 90 86 77
-0.05021350830793381 5.002145290374756 8.385339736938477 107 102 97
-6.320858955383301 -3.269427537918091 44.8752326965332 36 20 14
-7.908868789672852 -3.840581178665161 18.00722312927246 25 23 29
-0.045336876064538956 5.196134090423584 8.799541473388672 100 95 90
-0.08669288456439972 5.134464740753174 8.714068412780762 59 53 49
-7.866698741912842 -2.148494005203247 26.9580135345459 86 81 91
-8.48645305633545 -5.4093241691589355 28.22684669494629 50 44 46
-6.649288654327393 -7.243078231811523 38.054100036621094 116 100 91
-8.477818489074707 -5.410214424133301 30.125139236450195 196 192 193
1.1103594303131104 3.355644464492798 7.190609455108643 82 78 70
0.9785630702972412 -1.2126150131225586 6.668198585510254 119 112 97
-7.107450485229492 -3.5171756744384766 19.618669509887695 34 31 46
-7.866677761077881 -2.148489475250244 26.95794677734375 86 81 91
-7.962506294250488 -2.524242639541626 17.465648651123047 34 27 35
-0.45498719811439514 5.034562587738037 9.018813133239746 58 52 47
0.683455765247345 3.7889931201934814 7.230427265167236 89 89 89
-8.055497169494629 -0.6382169723510742 20.935611724853516 73 65 55
-8.10438060760498 -1.7642536163330078 20.831571578979492 78 71 61
-7.719463348388672 -0.6349050402641296 17.350265502929688 60 57 64
-2.0438649654388428 2.7271831035614014 18.122629165649414 83 77 75
-8.817809104919434 -2.9737513065338135 33.62038040161133 28 23 34
-2.151390790939331 2.7892093658447266 18.031314849853516 116 112 108
-0.2686215043067932 4.941830158233643 9.709304809570312 80 74 71
-7.843012809753418 -2.113999128341675 44.217769622802734 124 112 101
-1.8125485181808472 3.046604871749878 18.067127227783203 55 51 50
-8.050667762756348 -0.09316127002239227 21.066814422607422 67 61 52
-5.889527797698975 -2.048750400543213 41.403255462646484 103 91 80
1.1106913089752197 2.368131637573242 7.084897041320801 108 106 92
0.49283960461616516 -3.9433653354644775 6.37992000579834 96 93 93
-7.975889205932617 0.46906593441963196 20.997434616088867 80 72 63
-1.7427117824554443 2.698488235473633 17.96589469909668 27 22 21
1.1670790910720825 -3.425438165664673 6.277475833892822 169 161 146
-7.6094794273376465 -1.154107928276062 22.088483810424805 80 77 92
-0.36284974217414856 4.992616176605225 9.757627487182617 142 136 133
-7.598644733428955 -1.152992606163025 22.060848236083984 80 77 92
1.0495167970657349 0.8981356024742126 6.84130859375 46 42 31
-8.137633323669434 -1.3854161500930786 21.04989242553711 86 77 69
-7.594979286193848 2.330042839050293 21.141437530517578 75 65 62
-8.087825775146484 -0.6033937931060791 33.557376861572266 58 45 39
-4.158285617828369 4.925323486328125 10.004558563232422 141 134 127
-7.704728603363037 1.5978893041610718 19.929359436035156 117 109 99
-4.155912399291992 4.923131942749023 10.000003814697266 141 134 127
-7.798638343811035 0.3958244323730469 18.753803253173828 28 22 27
-7.650039196014404 0.9972956776618958 21.274715423583984 61 57 62
0.8764941096305847 -1.5449423789978027 6.632143974304199 147 144 140
0.6341132521629333 -3.755664825439453 6.283726692199707 109 105 109
0.6711655259132385 -3.7895519733428955 6.369541645050049 111 108 110
0.9579610228538513 -3.652265787124634 6.237305164337158 109 104 97
0.9324150681495667 -3.6256942749023438 6.369944095611572 64 57 45
0.8169437050819397 -3.070819616317749 6.367400646209717 75 72 74
0.943139910697937 -2.8861029148101807 6.429860591888428 75 67 51
0.9393558502197266 -2.7602813243865967 6.511760234832764 113 105 90
0.8970723152160645 -2.748136520385742 6.522979259490967 100 92 82
0.9097734093666077 -2.3722829818725586 6.505467891693115 131 125 115
0.920188307762146 -2.350902795791626 6.504563808441162 65 57 49
0.9224510788917542 -1.9751501083374023 6.521687030792236 99 90 79
0.5405829548835754 -1.9595818519592285 6.502069473266602 90 87 87
-8.131510734558105 -5.770531177520752 19.408300399780273 19 16 28
-8.19886589050293 -5.456133842468262 18.458694458007812 34 28 34
-7.3866987228393555 1.7735310792922974 20.480871200561523 26 19 16
0.5455349683761597 -1.9173680543899536 6.553470134735107 125 122 121
-7.544229030609131 1.602709412574768 18.88237953186035 22 16 13
0.531352698802948 -1.8819286823272705 6.51339054107666 33 30 30
-8.187372207641602 -5.616166591644287 21.43252182006836 63 59 73
-7.666433334350586 1.598284125328064 19.829864501953125 130 122 112
-5.953898906707764 -7.087080001831055 28.639223098754883 179 155 138
-8.170088768005371 -4.474503993988037 18.2311954498291 125 121 125
0.9139998555183411 -1.5910588502883911 6.533555030822754 107 101 91
-8.087997436523438 -4.8731689453125 21.277605056762695 164 162 174
0.8953565359115601 -1.4722566604614258 6.457749366760254 99 94 87
-7.838606357574463 -4.542560577392578 20.10795021057129 34 30 36
-8.033156394958496 -4.7461957931518555 21.227869033813477 79 77 90
-7.909171104431152 -3.8373615741729736 17.97551727294922 57 53 60
-8.494355201721191 -4.541693687438965 21.436552047729492 65 61 64
-8.146134376525879 -4.49846076965332 21.269624710083008 36 34 43
-7.335660934448242 1.5567666292190552 20.929323196411133 68 59 59
-7.947347640991211 -3.762417793273926 17.928787231445312 118 116 123
-7.873015880584717 -3.7642056941986084 18.227018356323242 134 132 139
-7.950357913970947 -4.300732135772705 20.827489852905273 160 159 169
-7.9745893478393555 -3.6136136054992676 17.924169540405273 105 100 106
-8.408201217651367 -4.244334697723389 21.04471206665039 154 145 135
-7.944717884063721 -4.212583065032959 20.900981903076172 152 152 161
-7.961228847503662 1.5159175395965576 20.25554847717285 128 121 112
-8.014887809753418 -4.110694885253906 20.731990814208984 80 79 86
