ply
format ascii 1.0
element vertex 720
property float x
property float y
property float z
property uchar red
property uchar green
property uchar blue
end_header
-4.389206886291504 10.054829597473145 31.82379150390625 60 59 62
-4.9489970207214355 4.683578014373779 35.99799728393555 14 11 13
-4.1872968673706055 13.309350967407227 30.936595916748047 111 107 107
-5.026706695556641 3.1396021842956543 37.529327392578125 99 97 98
-4.7350006103515625 7.653981685638428 35.09527587890625 32 30 33
-4.7350006103515625 7.653981685638428 35.09527587890625 32 30 33
-4.453726291656494 10.196746826171875 33.63199996948242 12 11 12
-4.915520668029785 6.757083892822266 36.78330612182617 56 53 57
-4.177009582519531 12.30444622039795 31.856821060180664 20 17 19
-4.143355846405029 15.000252723693848 31.67064094543457 17 15 18
-4.910248279571533 -4.058531761169434 37.50234603881836 99 99 102
-4.578949451446533 -18.91522789001465 36.03078079223633 41 39 40
-4.143612861633301 15.00106430053711 31.67224884033203 17 15 18
-4.143612861633301 15.00106430053711 31.67224884033203 17 15 18
-5.073134422302246 13.698060989379883 38.99327850341797 60 55 56
-4.8850016593933105 1.245407223701477 37.53022766113281 75 72 77
-4.483082294464111 11.84666919708252 34.56295394897461 92 90 90
-4.619019985198975 9.060412406921387 35.0527229309082 95 94 94
-5.356130123138428 -20.461957931518555 41.41587829589844 16 11 13
-4.268619060516357 12.697978019714355 32.5408935546875 27 25 26
-4.4832234382629395 7.181685924530029 35.04192352294922 61 58 64
-4.426628112792969 -5.995580673217773 34.62032699584961 74 73 79
-4.776601791381836 -4.078799247741699 37.37936782836914 102 102 105
-4.321680545806885 3.2697560787200928 34.43327713012695 71 67 71
-4.501725673675537 0.03902805596590042 35.91843795776367 63 62 67
-3.8984897136688232 6.395867347717285 31.75824546813965 55 52 57
-4.299376487731934 -4.657072067260742 34.53153610229492 70 66 74
-4.346827030181885 -4.975163459777832 34.969112396240234 80 78 84
-4.333348274230957 15.188128471374512 35.041812896728516 89 86 88
-4.679913520812988 -10.573100090026855 38.1031379699707 108 107 113
-4.400619029998779 -8.38309097290039 35.95917892456055 83 83 86
-4.328872203826904 0.625447690486908 35.77077865600586 57 56 61
-4.244455337524414 -6.985483646392822 35.40991973876953 113 112 114
-4.518914699554443 -1.379231572151184 37.46352767944336 93 91 98
-3.157449245452881 11.405943870544434 26.324262619018555 37 34 36
-3.7354414463043213 14.058699607849121 31.74382209777832 45 41 43
-3.956740140914917 -2.4544153213500977 34.80089569091797 71 70 76
-3.5634589195251465 17.275066375732422 31.32020378112793 51 50 51
-4.076906681060791 -6.926510810852051 35.753055572509766 100 101 103
-3.9489173889160156 3.1369922161102295 34.68242645263672 106 107 109
-3.8754782676696777 -2.720179557800293 34.06416320800781 68 67 73
-4.003523826599121 -7.898499011993408 35.750247955322266 84 83 88
-3.769700765609741 4.786813735961914 33.62755584716797 77 78 85
-3.8069121837615967 2.199138879776001 34.09797286987305 75 72 77
-3.94183087348938 -0.5764793157577515 35.516876220703125 71 71 77
-3.7006654739379883 3.9996745586395264 33.64207458496094 77 77 82
-3.498375654220581 13.170053482055664 32.3641242980957 56 52 58
-3.3111696243286133 13.57757568359375 31.023853302001953 70 68 69
-3.6489388942718506 -3.9409308433532715 34.41038513183594 69 67 72
-3.4816536903381348 17.613561630249023 33.131561279296875 57 56 57
-3.813166856765747 -5.172239303588867 37.19442367553711 76 73 79
-3.418903350830078 3.692966938018799 34.27366256713867 63 60 67
-3.4316306114196777 3.2779719829559326 34.86408233642578 72 71 76
-3.215977668762207 -8.982050895690918 33.425777435302734 118 117 121
-3.1041336059570312 -10.112804412841797 33.53398895263672 79 77 77
-2.958712577819824 5.236904144287109 32.77820587158203 48 46 55
-3.0933289527893066 8.466909408569336 33.32481002807617 51 47 52
-2.9974865913391113 7.560635089874268 32.390167236328125 45 42 44
-3.0273311138153076 -5.1776442527771 33.41431427001953 23 21 23
-3.074758291244507 -3.394402027130127 34.09767150878906 131 131 133
-2.887733221054077 -9.940644264221191 33.02782440185547 112 110 111
-3.4660778045654297 3.100914716720581 38.74510955810547 66 66 73
-2.853404998779297 -6.513603687286377 32.2724494934082 11 11 13
-3.0144519805908203 -1.938314437866211 34.121299743652344 19 17 20
-2.623725175857544 1.0539747476577759 29.71854019165039 64 61 62
-3.074005365371704 -3.3936195373535156 34.09016418457031 131 131 133
-2.897336483001709 4.298421382904053 33.09394073486328 68 66 68
-2.897336483001709 4.298421382904053 33.09394073486328 68 66 68
-2.8788511753082275 11.231258392333984 33.327293395996094 65 61 68
-2.781923294067383 7.556902885437012 32.37754440307617 49 46 49
-2.8405556678771973 7.301732063293457 33.139705657958984 64 61 62
-2.8405556678771973 7.301732063293457 33.139705657958984 64 61 62
-2.741717576980591 -7.199708938598633 32.321929931640625 91 92 99
-2.4581708908081055 13.336356163024902 29.154720306396484 55 52 55
-2.8785717487335205 -0.05449540913105011 34.27798843383789 20 20 20
-2.7200393676757812 6.298731327056885 32.440093994140625 21 20 25
-2.6477527618408203 6.553374767303467 32.23531723022461 23 23 28
-2.4649550914764404 12.286870956420898 29.580217361450195 54 52 58
-2.6498074531555176 1.3732563257217407 32.01349639892578 164 164 166
-2.6124982833862305 7.061487197875977 31.277986526489258 140 138 137
-2.7448348999023438 4.3439555168151855 33.21695327758789 18 16 17
-2.5570783615112305 8.700469970703125 31.44187355041504 19 17 19
-2.573270797729492 7.278768539428711 31.640483856201172 67 65 65
-2.349087953567505 15.69694995880127 28.997255325317383 20 17 23
-2.587336301803589 7.527140140533447 31.984058380126953 47 44 46
-2.2963342666625977 13.15719985961914 29.359392166137695 20 16 17
-2.2668707370758057 15.207369804382324 28.55240821838379 15 13 17
-2.5531582832336426 -7.612568378448486 31.644210815429688 66 68 72
-2.6939587593078613 -6.217402935028076 33.85377883911133 75 74 80
-2.3698768615722656 10.894905090332031 30.20198631286621 13 12 14
-2.2969324588775635 13.163631439208984 29.373580932617188 20 16 17
-2.3931102752685547 6.843636512756348 30.397430419921875 101 99 99
-2.4779181480407715 8.847752571105957 30.680221557617188 6 6 8
-2.519763946533203 -4.575631141662598 32.32590866088867 108 108 107
-2.352773666381836 9.68506908416748 30.960603713989258 88 88 90
-2.2335760593414307 -3.9913454055786133 27.566030502319336 89 88 88
-2.705787420272827 -10.519079208374023 35.324642181396484 104 106 105
-2.6964809894561768 1.3881546258926392 34.44854736328125 112 110 111
-2.2104718685150146 11.931060791015625 29.707046508789062 61 59 61
-2.3932483196258545 6.844222545623779 30.399921417236328 101 99 99
-2.1234142780303955 12.759417533874512 29.32632064819336 95 91 95
-2.2853870391845703 6.142511367797852 31.76918601989746 55 55 62
-2.2853870391845703 6.142511367797852 31.76918601989746 55 55 62
-2.209599494934082 11.926307678222656 29.695009231567383 61 59 61
-2.115885019302368 9.341992378234863 30.513628005981445 55 55 61
-2.5251827239990234 -0.42080822587013245 36.680397033691406 91 90 94
-2.018789768218994 12.293987274169922 29.78840446472168 72 68 73
-2.319488525390625 14.808051109313965 35.51906967163086 54 50 55
-1.714813232421875 12.46524429321289 26.972064971923828 51 48 55
-2.029745578765869 1.9372094869613647 31.941844940185547 62 61 71
-2.029745578765869 1.9372094869613647 31.941844940185547 62 61 71
-2.0846219062805176 1.7383701801300049 33.01902770996094 79 78 86
-2.0846219062805176 1.7383701801300049 33.01902770996094 79 78 86
-1.8933916091918945 5.8390727043151855 31.93744468688965 20 16 21
-1.5280325412750244 14.163397789001465 26.316404342651367 43 40 44
-1.884484887123108 -6.6768717765808105 30.59307861328125 70 71 76
-1.729461908340454 8.098685264587402 30.268264770507812 62 59 64
-1.9304447174072266 0.30596932768821716 33.14581298828125 21 19 20
-1.6353516578674316 -7.60172700881958 30.16567611694336 109 109 111
-1.672424554824829 -0.18383915722370148 32.627845764160156 23 22 24
-1.5767314434051514 13.673989295959473 29.66977310180664 52 49 54
-1.7151446342468262 1.8789855241775513 32.68461608886719 80 78 84
-1.7151446342468262 1.8789855241775513 32.68461608886719 80 78 84
-1.6015011072158813 2.7171874046325684 31.499469757080078 72 70 72
-1.5171451568603516 4.646489143371582 29.894020080566406 67 64 68
-1.618890643119812 4.290255069732666 36.558013916015625 77 76 80
-1.3320064544677734 12.297266960144043 27.85917854309082 73 71 77
-1.2517856359481812 -0.7230297923088074 24.436603546142578 67 65 75
-1.4447821378707886 -6.226744174957275 30.941490173339844 113 113 115
-1.3831217288970947 4.6013569831848145 30.44124412536621 56 53 57
-1.067700982093811 14.50734806060791 26.599123001098633 19 15 19
-1.2291077375411987 4.325701713562012 28.986543655395508 67 64 66
-1.2126837968826294 12.193144798278809 29.070091247558594 55 54 58
-1.3629857301712036 -1.7336453199386597 33.20267105102539 47 46 49
-1.0063568353652954 11.315901756286621 24.710391998291016 124 120 122
-1.1547704935073853 10.524774551391602 28.169715881347656 74 72 75
-1.4905744791030884 -1.4690574407577515 37.48066711425781 79 79 87
-1.0997754335403442 0.3446967303752899 29.410329818725586 67 67 74
-1.0789364576339722 3.014408588409424 29.15770149230957 60 58 59
-1.0852317810058594 4.756195068359375 29.767087936401367 61 59 63
-1.104560136795044 4.393581867218018 30.310644149780273 63 61 62
-1.0174511671066284 10.870291709899902 28.78736114501953 53 49 54
-1.0911997556686401 -3.2600038051605225 31.374479293823242 90 90 91
-0.8898555040359497 -2.960857391357422 26.80938720703125 66 64 66
-0.9604297280311584 -0.2597363293170929 31.045822143554688 44 43 43
-0.8760534524917603 9.092466354370117 27.45671844482422 56 53 56
-0.9434037208557129 -6.995379447937012 29.969263076782227 96 96 98
-0.9592645764350891 2.682563543319702 30.702463150024414 85 85 86
-0.8988710641860962 2.041250228881836 30.306753158569336 79 78 82
-0.7548415660858154 7.9125657081604 27.429500579833984 46 41 42
-0.8925532698631287 2.735318660736084 30.350385665893555 74 73 73
-0.8925532698631287 2.735318660736084 30.350385665893555 74 73 73
-0.7708434462547302 13.431706428527832 26.491147994995117 89 85 85
-0.8613445162773132 -7.705193519592285 29.794584274291992 23 22 24
-0.8643588423728943 -1.3930715322494507 30.45615005493164 19 19 19
-0.8552262187004089 -0.2064848691225052 30.380144119262695 20 18 18
-0.8524900078773499 -4.505854606628418 30.554880142211914 19 18 19
-0.8309047222137451 4.451499938964844 29.896753311157227 18 16 15
-0.9018493890762329 1.7483443021774292 36.715824127197266 128 125 126
-0.7079657316207886 8.797755241394043 25.944149017333984 60 57 59
-0.8272300958633423 -4.18548583984375 30.322864532470703 21 20 20
-0.8272300958633423 -4.18548583984375 30.322864532470703 21 20 20
-0.7839396595954895 5.462527275085449 29.533178329467773 17 15 15
-0.6688331365585327 9.469061851501465 24.99995231628418 60 57 62
-0.7064400315284729 4.031176567077637 28.52811622619629 14 11 12
-0.7686243057250977 1.5460240840911865 30.09037971496582 24 23 24
-0.6706565022468567 13.883533477783203 27.304931640625 29 26 26
-0.5989133715629578 -4.779750823974609 23.12394905090332 37 37 38
-0.6074990630149841 11.305001258850098 27.037240982055664 13 11 13
-0.7228446006774902 1.3942089080810547 29.46115493774414 132 129 130
-0.5789291262626648 9.025108337402344 27.52190399169922 21 18 20
-0.6050556302070618 5.280266761779785 28.119657516479492 111 108 110
-0.618193507194519 6.885761737823486 28.309646606445312 90 89 90
-0.5894702672958374 8.564380645751953 29.791582107543945 64 61 64
-0.5682103037834167 -0.04837748035788536 26.813861846923828 128 127 129
-0.48398327827453613 12.147279739379883 26.317424774169922 64 62 61
-0.5784494876861572 -6.51932430267334 31.399229049682617 18 17 18
-0.49267810583114624 9.835573196411133 27.630495071411133 50 47 52
-0.49861010909080505 11.049263954162598 28.911701202392578 53 51 55
-0.4685520529747009 12.819783210754395 27.14736557006836 43 40 43
-0.49214640259742737 4.921661376953125 29.182849884033203 54 52 60
-0.49214640259742737 4.921661376953125 29.182849884033203 54 52 60
-0.48744434118270874 2.830164670944214 30.152555465698242 23 21 20
-0.524384081363678 7.944248199462891 28.304561614990234 125 122 124
-0.48055294156074524 10.261774063110352 27.63019371032715 103 101 101
-0.42855405807495117 -0.2405332773923874 31.900348663330078 83 80 83
-0.36762937903404236 -5.908712863922119 30.171384811401367 85 85 89
-0.30745819211006165 11.044004440307617 26.896535873413086 69 66 72
-0.287375807762146 13.467070579528809 26.031003952026367 52 48 53
-0.25556373596191406 7.236334800720215 28.87093734741211 52 50 59
-0.2215615212917328 9.573692321777344 26.15519142150879 61 59 65
-0.2917829751968384 -12.179770469665527 36.240177154541016 51 49 59
-0.12581634521484375 2.021199941635132 27.471195220947266 111 110 114
-0.13584329187870026 8.364005088806152 27.890018463134766 53 48 51
-0.10553624480962753 -4.212554454803467 29.382532119750977 17 15 17
-0.033139124512672424 -4.812353610992432 31.35321807861328 56 55 55
0.03559081628918648 11.65761947631836 26.5913143157959 43 40 44
0.01787422224879265 4.4700751304626465 27.41629981994629 56 55 64
0.01787422224879265 4.4700751304626465 27.41629981994629 56 55 64
0.0421345978975296 3.66253399848938 27.522890090942383 52 51 57
0.05451354384422302 10.960123062133789 26.083791732788086 17 14 17
0.09881690889596939 3.651592969894409 28.509910583496094 57 54 62
0.1742953211069107 9.080093383789062 26.30565071105957 51 50 54
0.2406136393547058 4.347568988800049 27.485509872436523 69 68 74
0.3816245198249817 4.6037917137146 28.65721321105957 63 62 69
0.3785819709300995 4.934640884399414 26.498310089111328 54 55 63
0.42007866501808167 13.201677322387695 25.380842208862305 106 104 107
0.40919309854507446 5.061758518218994 26.175640106201172 62 61 62
0.4530426561832428 10.279022216796875 23.395526885986328 46 42 48
0.5531999468803406 13.144242286682129 25.236364364624023 66 64 67
0.5883176922798157 9.376153945922852 26.63813018798828 56 54 59
-11.207076072692871 -4.7974138259887695 47.60478210449219 20 17 17
-11.20915412902832 -4.798241138458252 47.61402130126953 20 17 17
-11.207659721374512 -4.7975754737854 47.60758972167969 20 17 17
-2.6857550144195557 -0.25130119919776917 33.62907028198242 21 21 22
-0.09156781435012817 0.17925992608070374 29.328628540039062 47 47 48
-2.8875834941864014 -0.18989773094654083 33.29888153076172 178 177 180
-0.12408138066530228 0.16555903851985931 27.615327835083008 81 80 82
-8.532818794250488 17.007240295410156 38.27064895629883 100 96 92
-0.7388491630554199 -0.2456013560295105 30.508350372314453 149 148 150
-0.9604471325874329 -0.2597537338733673 31.047103881835938 44 43 43
-1.9303730726242065 0.30592912435531616 33.14427947998047 21 19 20
-8.019323348999023 -0.419933557510376 41.9550666809082 14 12 15
-2.6924688816070557 8.523676872253418 31.65391731262207 148 145 147
-5.737818717956543 -11.328866004943848 37.394378662109375 31 31 33
-10.83648681640625 -4.6161041259765625 46.06312942504883 41 38 37
-8.237994194030762 -4.137856960296631 41.58177185058594 94 95 97
-7.077115535736084 7.940176486968994 38.25065994262695 101 98 101
-3.0755128860473633 -3.3953936100006104 34.10770797729492 131 131 133
-3.104090690612793 -10.11280632019043 33.53376007080078 79 77 77
-0.9918357729911804 -5.265187740325928 36.9245491027832 82 81 81
-5.27027702331543 -5.034713268280029 35.298404693603516 156 156 160
-4.3320631980896 15.182985305786133 35.029850006103516 89 86 88
-9.213574409484863 11.333601951599121 40.376441955566406 44 40 36
-11.074584007263184 -6.708720684051514 45.89773941040039 61 57 54
-8.96576976776123 -12.710433959960938 43.133724212646484 29 28 30
-8.386685371398926 -12.239349365234375 42.03909683227539 58 57 59
-11.01928424835205 1.4721628427505493 46.88014221191406 23 20 19
-11.102812767028809 -13.089262962341309 45.41402816772461 37 32 30
-9.374849319458008 8.058795928955078 40.23088836669922 93 89 84
-8.237253189086914 -4.137435436248779 41.5777702331543 94 95 97
-7.743773460388184 1.3453469276428223 41.277164459228516 90 89 90
-3.8453824520111084 -3.577728748321533 35.631168365478516 100 99 100
-3.07560133934021 -3.3953945636749268 34.107643127441406 131 131 133
-3.074984073638916 -3.394625663757324 34.09989929199219 131 131 133
-11.6322021484375 -13.73684310913086 47.778316497802734 20 15 14
-9.377288818359375 8.060863494873047 40.24138259887695 93 89 84
-7.794734477996826 -5.972834587097168 39.9106559753418 39 38 41
-5.060433864593506 1.3626114130020142 36.44821548461914 22 20 22
-8.171282768249512 -6.177676200866699 40.684478759765625 73 71 74
-2.69673752784729 1.3884154558181763 34.45204162597656 112 110 111
-2.6969380378723145 1.3884795904159546 34.4548454284668 112 110 111
-4.256339073181152 -3.5189592838287354 37.325592041015625 92 90 92
-5.399990558624268 -17.553972244262695 34.57435989379883 71 69 70
-8.11905288696289 -20.090396881103516 40.251522064208984 103 102 105
-7.8202056884765625 -5.9632649421691895 38.94996643066406 110 109 112
-6.4953436851501465 -15.466339111328125 31.29507827758789 118 118 121
-16.735700607299805 21.724578857421875 41.50072479248047 63 59 51
-0.7228896617889404 1.3941835165023804 29.46096420288086 132 129 130
-4.002008438110352 -3.2489166259765625 34.79656982421875 29 27 29
-11.188871383666992 -2.7569901943206787 47.32375717163086 102 97 96
-4.143533229827881 15.000701904296875 31.671390533447266 17 15 18
-2.960343837738037 7.040698528289795 37.458492279052734 37 36 40
-7.084400177001953 10.977285385131836 37.75432586669922 134 131 133
-4.618686199188232 9.059691429138184 35.04999542236328 95 94 94
-2.658022880554199 5.886529922485352 32.39585494995117 11 10 14
-4.268524646759033 12.69766616821289 32.540138244628906 27 25 26
-2.829864501953125 -8.526497840881348 33.11745834350586 55 54 54
-11.196063995361328 -2.7585039138793945 47.35441970825195 102 97 96
-5.55960750579834 -15.916749000549316 35.67105484008789 14 14 14
-5.678864479064941 11.136812210083008 43.11814880371094 62 60 62
-5.77131986618042 2.396888017654419 29.76861572265625 95 93 95
-4.567604064941406 5.994154453277588 34.52083206176758 53 52 55
-0.8294983506202698 -1.6167503595352173 30.991865158081055 17 16 18
-0.8297796249389648 -1.6172688007354736 31.0023250579834 17 16 18
-11.88492202758789 -20.036766052246094 46.14500427246094 111 111 111
-7.0959954261779785 6.316405296325684 37.688865661621094 17 14 16
-7.094625949859619 6.315134525299072 37.68148422241211 17 14 16
-11.289538383483887 -9.051530838012695 46.60262680053711 54 49 47
-9.180405616760254 6.280954837799072 38.858280181884766 45 40 36
-11.286970138549805 -9.049398422241211 46.591796875 54 49 47
-7.299981117248535 -8.818729400634766 35.401180267333984 122 121 122
-7.978996276855469 -10.021221160888672 40.207794189453125 129 127 129
-4.2889485359191895 -6.12266731262207 31.041412353515625 95 94 95
-9.010306358337402 14.558670997619629 39.99631881713867 107 105 98
-9.501778602600098 6.540924072265625 41.06940460205078 31 28 27
-0.7291203737258911 4.6249284744262695 29.227834701538086 100 97 98
-9.50291919708252 6.541714191436768 41.07439041137695 31 28 27
-5.108880996704102 -8.441386222839355 34.50836181640625 53 51 53
-2.853215456008911 -6.512938976287842 32.269474029541016 11 11 13
-8.86927318572998 -16.784969329833984 42.82643127441406 141 139 141
-5.109233856201172 -8.441951751708984 34.510711669921875 53 51 53
-11.942617416381836 -11.603886604309082 47.58559036254883 147 141 130
-9.24376106262207 6.153685092926025 39.68696975708008 11 9 6
-5.273096084594727 -8.713305473327637 35.61178207397461 72 71 73
-0.8643881678581238 4.578439235687256 29.86865997314453 123 120 122
-11.40038776397705 -11.26990032196045 46.57415771484375 50 46 43
-5.738867282867432 -13.462782859802246 37.49555587768555 94 94 97
-7.413536071777344 4.867579936981201 40.088836669921875 100 98 98
-9.126352310180664 12.942853927612305 40.225032806396484 88 84 80
-7.414989948272705 4.8686418533325195 40.097328186035156 100 98 98
-4.270430564880371 11.752700805664062 33.94166946411133 42 39 41
-9.127496719360352 12.944579124450684 40.23028564453125 88 84 80
-0.7063764333724976 4.030379772186279 28.522422790527344 14 11 12
-11.195837020874023 -2.7584521770477295 47.353424072265625 102 97 96
-6.836119174957275 -15.70712661743164 45.3792724609375 61 60 62
-8.50285530090332 -14.455687522888184 42.2345085144043 77 76 77
-7.077004432678223 7.940045356750488 38.24998474121094 101 98 101
-0.6685351729393005 -2.8317718505859375 26.830875396728516 120 121 122
-5.685434818267822 -4.065047264099121 38.6959228515625 106 106 108
-4.7273783683776855 5.90364408493042 34.9735221862793 85 83 85
-2.352632761001587 9.684499740600586 30.95881462097168 88 88 90
-4.2611894607543945 9.360177040100098 30.629995346069336 72 72 73
-7.615078926086426 -5.804805755615234 38.86484909057617 52 51 54
-0.6090878844261169 2.7919564247131348 29.760210037231445 126 124 123
-0.6090279817581177 2.7918860912323 29.762514114379883 126 124 123
-2.7264130115509033 -1.8475432395935059 30.997278213500977 69 67 68
-4.734269618988037 7.652620315551758 35.0889892578125 32 30 33
-8.882676124572754 -15.200529098510742 43.25529098510742 34 32 33
-8.881875991821289 -15.19917106628418 43.251060485839844 34 32 33
-7.692657470703125 -7.435457706451416 38.79692077636719 98 98 101
-9.171913146972656 6.108829498291016 39.383277893066406 11 9 6
-9.502603530883789 6.541499137878418 41.07295608520508 31 28 27
-2.297003984451294 13.164295196533203 29.375038146972656 20 16 17
-0.6708232760429382 13.884095191955566 27.305191040039062 29 26 26
-5.129013538360596 -7.3969011306762695 36.87260818481445 11 9 11
-8.503646850585938 -14.457137107849121 42.238582611083984 77 76 77
-4.483429431915283 11.847702026367188 34.565895080566406 92 90 90
-2.685572624206543 -0.25126543641090393 33.626747131347656 21 21 22
-3.0347108840942383 -0.19600066542625427 35.05839538574219 185 184 187
-0.8295124769210815 -1.6167422533035278 30.99185562133789 17 16 18
-5.678605556488037 11.136241912841797 43.11599349975586 62 60 62
-8.013620376586914 -0.4195460081100464 41.92316818237305 14 12 15
-7.094507694244385 6.315054893493652 37.68101501464844 17 14 16
-0.7932062745094299 -7.372138977050781 28.978803634643555 100 98 100
-0.9604487419128418 -0.2597542405128479 31.047250747680664 44 43 43
-4.734831809997559 7.653698444366455 35.09395980834961 32 30 33
-2.5009570121765137 8.407546043395996 31.020282745361328 10 7 9
-4.751760482788086 5.921488285064697 34.88069152832031 6 5 7
-8.147214889526367 -10.249706268310547 41.11626052856445 129 127 129
-0.6074904799461365 11.305046081542969 27.037368774414062 13 11 13
-11.400412559509277 -11.269848823547363 46.57421112060547 50 46 43
-0.5788118839263916 9.03348159790039 27.547019958496094 21 18 20
-7.0764851570129395 7.939415454864502 38.24685287475586 101 98 101
-4.5675177574157715 5.994101524353027 34.5204963684082 53 52 55
-4.567830562591553 5.994479179382324 34.52277374267578 53 52 55
-11.207910537719727 -4.797730445861816 47.6085319519043 20 17 17
-4.94894552230835 4.683565616607666 35.99724578857422 14 11 13
-8.23178768157959 -18.365474700927734 40.89564895629883 118 116 117
-10.836440086364746 -4.616096019744873 46.06291198730469 41 38 37
-2.887829542160034 -9.941081047058105 33.029232025146484 112 110 111
-0.7234295010566711 1.3949326276779175 29.47797203063965 132 129 130
-11.073943138122559 -6.708209037780762 45.894779205322266 61 57 54
-5.27850866317749 -5.381068706512451 36.46393585205078 53 52 54
-11.064387321472168 -6.702500343322754 45.85504150390625 61 57 54
-2.6964216232299805 1.3880183696746826 34.447662353515625 112 110 111
-8.238200187683105 -4.137966632843018 41.58282470703125 94 95 97
-8.386346817016602 -12.238812446594238 42.03733825683594 58 57 59
-3.0758612155914307 -3.3958065509796143 34.1120491027832 131 131 133
-11.102811813354492 -13.089254379272461 45.41386795043945 37 32 30
-5.060437202453613 1.3626126050949097 36.44824981689453 22 20 22
-0.8904193043708801 4.296165466308594 30.27627182006836 122 120 120
-8.276976585388184 -6.289156436920166 42.095394134521484 21 20 23
-0.706414520740509 4.030392169952393 28.522174835205078 14 11 12
-10.99354076385498 -16.737150192260742 42.81642150878906 112 112 110
-8.238502502441406 -4.1381425857543945 41.58449172973633 94 95 97
-2.940294027328491 -5.28468656539917 33.368404388427734 82 80 82
-8.166340827941895 -6.652469635009766 41.24650573730469 14 14 17
-11.208047866821289 -4.797745704650879 47.60926055908203 20 17 17
-11.188386917114258 -2.756840467453003 47.32161331176758 102 97 96
-7.74363899230957 1.3453242778778076 41.27639389038086 90 89 90
-8.532828330993652 17.007259368896484 38.270694732666016 100 96 92
-2.812547445297241 3.089266061782837 33.9964485168457 20 19 21
-5.006457328796387 2.906848430633545 37.01234436035156 96 93 94
-11.039603233337402 -6.704909324645996 44.912010192871094 72 67 60
-8.119027137756348 -20.090368270874023 40.251495361328125 103 102 105
-9.735029220581055 -20.07489776611328 40.983489990234375 153 153 156
-6.452666759490967 14.960238456726074 35.82369613647461 22 19 21
-5.55966854095459 -15.916946411132812 35.67148208618164 14 14 14
-5.559810638427734 -15.917390823364258 35.672454833984375 14 14 14
-11.884727478027344 -20.036413192749023 46.144168853759766 111 111 111
-2.1824166774749756 3.926123857498169 28.93013572692871 112 112 111
-5.596235752105713 -14.8004789352417 36.337623596191406 41 41 42
-2.824408769607544 1.1752712726593018 32.622596740722656 64 62 62
-0.86415034532547 4.528265476226807 29.47139549255371 128 125 127
-13.752463340759277 25.190858840942383 40.9597282409668 139 134 124
-9.179566383361816 6.280339241027832 38.85453796386719 45 40 36
-11.25829792022705 -2.7711544036865234 45.85997772216797 101 95 85
-6.710622787475586 12.319314002990723 36.788490295410156 16 16 17
-7.041756629943848 6.485723972320557 37.649696350097656 124 121 123
-8.818252563476562 -2.6421010494232178 44.26729202270508 42 40 42
-6.935095310211182 -11.884461402893066 48.26318359375 96 95 97
-8.493941307067871 -2.638829469680786 44.12508773803711 115 114 115
-11.947538375854492 -11.608768463134766 47.60576629638672 147 141 130
-7.076849460601807 7.9398627281188965 38.2490348815918 101 98 101
-8.269872665405273 -10.357024192810059 42.26948547363281 45 44 45
-5.204683303833008 -0.46148931980133057 35.971981048583984 96 95 98
-5.3845086097717285 -8.911771774291992 38.98027038574219 28 27 30
-2.945876359939575 6.997060775756836 37.213401794433594 37 36 40
-7.084900856018066 10.97812271118164 37.75716018676758 134 131 133
-2.6924376487731934 8.590625762939453 31.82695770263672 91 89 90
-6.92273473739624 9.10690689086914 36.49478530883789 145 143 144
-5.127246856689453 -2.0333008766174316 36.3459587097168 22 21 24
-13.42253303527832 19.877885818481445 40.129634857177734 122 117 111
-5.500457763671875 -5.178689956665039 37.27494430541992 116 117 121
-5.3426408767700195 -3.8077430725097656 36.21055221557617 112 112 115
-2.3526113033294678 9.684377670288086 30.958433151245117 88 88 90
-4.95295524597168 -8.060291290283203 35.34878158569336 46 45 48
-2.7517542839050293 -8.218799591064453 32.4611930847168 91 91 92
-8.153989791870117 -6.244074821472168 41.81129455566406 113 112 115
-11.824164390563965 -2.5318472385406494 48.24522018432617 142 135 127
-3.1505794525146484 -6.9562859535217285 35.239013671875 19 20 22
-5.275206565856934 -5.377302646636963 36.43842697143555 53 52 54
-0.6050548553466797 5.280515193939209 28.12095069885254 111 108 110
-11.288999557495117 -9.050997734069824 46.59992980957031 54 49 47
-11.290287971496582 -9.05204963684082 46.60532760620117 54 49 47
-0.726778507232666 9.457479476928711 28.478275299072266 39 37 38
-7.692460060119629 -7.435313701629639 38.79602813720703 98 98 101
-5.376486778259277 -1.9443727731704712 38.4099235534668 128 127 130
-7.061722755432129 -17.191381454467773 34.00764846801758 65 63 64
-5.399819374084473 -17.553359985351562 34.57316207885742 71 69 70
-5.745950698852539 2.4473671913146973 30.308265686035156 88 86 86
-5.0185136795043945 3.1345481872558594 37.46803283691406 99 97 98
-11.196942329406738 -2.7586793899536133 47.358123779296875 102 97 96
-8.022740364074707 -17.406335830688477 38.45100784301758 129 128 130
-8.215349197387695 -18.32856559753418 40.812896728515625 118 116 117
-11.189282417297363 -2.7570719718933105 47.325504302978516 102 97 96
-7.9358906745910645 -2.46976637840271 41.145355224609375 116 114 115
-5.55990743637085 -15.917688369750977 35.67311477661133 14 14 14
-3.8451218605041504 -3.577425003051758 35.62813186645508 100 99 100
-4.61944580078125 9.061240196228027 35.05597686767578 95 94 94
-8.237849235534668 -4.13776969909668 41.58095169067383 94 95 97
-5.738574981689453 -13.462048530578613 37.493492126464844 94 94 97
-10.065030097961426 5.118301868438721 43.042564392089844 78 74 72
-5.6858906745910645 -13.057418823242188 37.59470748901367 105 103 106
-10.835698127746582 -4.615805625915527 46.05958557128906 41 38 37
-7.414865016937256 4.868555545806885 40.09663009643555 100 98 98
-3.877338409423828 6.0510430335998535 27.917949676513672 90 89 91
-4.735116004943848 7.654204368591309 35.0963249206543 32 30 33
-7.4132304191589355 4.867351055145264 40.08710479736328 100 98 98
-11.2085542678833 -4.797947883605957 47.611515045166016 20 17 17
-11.20781135559082 -4.7977752685546875 47.60784912109375 20 17 17
-11.207527160644531 -4.797561168670654 47.60688400268555 20 17 17
-5.620451927185059 -4.318305015563965 40.133094787597656 102 102 104
-11.280587196350098 -6.8625102043151855 45.93038558959961 72 67 60
-2.369858741760254 10.894758224487305 30.201614379882812 13 12 14
-2.6198465824127197 4.609572887420654 34.4063835144043 77 77 76
-2.3698372840881348 10.894658088684082 30.201358795166016 13 12 14
-5.738040924072266 -11.329373359680176 37.39595413208008 31 31 33
-11.545126914978027 -6.6108317375183105 46.587154388427734 177 170 160
-2.017744302749634 8.710901260375977 24.339326858520508 74 73 75
-11.914048194885254 -13.957375526428223 47.98806381225586 81 75 71
-11.629005432128906 -13.733203887939453 47.76564025878906 20 15 14
-0.8904073238372803 4.263574600219727 29.971254348754883 116 114 114
-4.483569145202637 11.84813404083252 34.567134857177734 92 90 90
-0.7234242558479309 1.3948540687561035 29.47663116455078 132 129 130
-6.710478782653809 12.319049835205078 36.78778839111328 16 16 17
-0.5788170099258423 9.033575057983398 27.54726791381836 21 18 20
-3.1424710750579834 -8.828442573547363 34.14060592651367 63 62 64
-2.8298556804656982 -8.526444435119629 33.11726760864258 55 54 54
-5.060343265533447 1.3625786304473877 36.44749069213867 22 20 22
-5.382925510406494 1.4523439407348633 37.5499382019043 153 150 152
-2.7544565200805664 1.1351704597473145 31.607498168945312 64 62 62
-0.7932120561599731 -7.372255802154541 28.979232788085938 100 98 100
-7.742455959320068 1.3450597524642944 41.26970672607422 90 89 90
-11.019611358642578 1.472194790840149 46.88155746459961 23 20 19
-7.95574426651001 -9.68938159942627 38.7861442565918 109 108 110
-8.052513122558594 -10.144904136657715 40.57854461669922 127 125 127
-11.01962661743164 1.472171425819397 46.881622314453125 23 20 19
-5.108778476715088 -8.441155433654785 34.5074577331543 53 51 53
-11.397648811340332 -11.267329216003418 46.56245040893555 50 46 43
-8.532740592956543 17.007081985473633 38.270423889160156 100 96 92
-7.096035003662109 6.31643009185791 37.68913269042969 17 14 16
-5.355513095855713 -8.375932693481445 36.87023162841797 78 77 79
-6.508574962615967 8.552140235900879 49.156593322753906 83 82 85
-2.9955105781555176 -0.07303169369697571 34.379032135009766 47 45 48
-2.6853768825531006 -0.2512372136116028 33.62461853027344 21 21 22
-8.233163833618164 -18.36855697631836 40.90256118774414 118 116 117
-7.084275722503662 10.97707462310791 37.75361251831055 134 131 133
-8.019341468811035 -0.4199770390987396 41.95513916015625 14 12 15
-2.764880895614624 5.8813910484313965 32.15690612792969 116 114 119
-5.264244079589844 -0.46396809816360474 36.430782318115234 100 99 101
-5.2016801834106445 -7.517468452453613 37.45008087158203 11 9 11
-5.397036552429199 -7.289562702178955 37.055667877197266 131 130 131
-6.14277982711792 -18.36547088623047 35.771053314208984 64 61 62
-4.623660564422607 2.645763635635376 33.84769058227539 75 72 73
-8.721280097961426 -16.193025588989258 41.763511657714844 53 52 54
-0.8775989413261414 -6.9860358238220215 33.70718002319336 69 67 69
-2.6737313270568848 4.138673782348633 32.78702926635742 38 36 38
-0.8977527022361755 4.3715128898620605 29.110952377319336 24 22 22
-9.009988784790039 14.557862281799316 39.993438720703125 107 105 98
-0.8347752094268799 9.948432922363281 27.28352928161621 67 63 65
-7.230485916137695 1.0426597595214844 36.637718200683594 70 68 70
-2.8417186737060547 -10.452535629272461 34.30727767944336 103 101 102
-11.93160629272461 -11.592479705810547 47.53961944580078 147 141 130
-7.431200981140137 -5.49532413482666 38.98659896850586 133 132 135
-2.6042861938476562 6.665570259094238 30.27112579345703 64 61 62
-2.7325973510742188 9.920066833496094 32.27528381347656 72 71 73
-1.9304234981536865 0.30594372749328613 33.14535903930664 21 19 20
-2.8380956649780273 4.710544109344482 35.31901931762695 25 24 24
-0.7350824475288391 4.478367805480957 29.21759796142578 47 44 45
-0.8800846934318542 5.22041654586792 28.59173583984375 74 71 75
-6.70988655090332 10.988418579101562 37.56236267089844 124 122 122
-12.341473579406738 22.766908645629883 42.665653228759766 171 165 155
-0.5243840217590332 7.944519519805908 28.30553436279297 125 122 124
-2.751777172088623 -8.218880653381348 32.461509704589844 91 91 92
-5.793330669403076 -18.00189208984375 35.00728988647461 107 106 106
-8.513289451599121 -20.27320671081543 41.02519226074219 104 104 106
-8.624560356140137 -17.56008529663086 35.58155822753906 81 79 80
-8.145214080810547 -18.172901153564453 40.07931137084961 156 156 157
-8.681315422058105 -16.116300582885742 41.59273910522461 61 59 61
-9.432311058044434 -16.824359893798828 44.83559036254883 93 93 94
-6.8023858070373535 -11.366035461425781 32.47276306152344 67 65 66
-5.686554908752441 -13.059117317199707 37.59938049316406 105 103 106
-5.737143039703369 -11.327454566955566 37.389705657958984 31 31 33
-3.104046106338501 -10.11268138885498 33.533573150634766 79 77 77
-11.915863037109375 -13.959478378295898 47.995479583740234 81 75 71
-8.386053085327148 -12.238337516784668 42.035770416259766 58 57 59
-11.103594779968262 -13.090221405029297 45.41763687133789 37 32 30
-11.62934398651123 -13.73356819152832 47.76720428466797 20 15 14
-8.385866165161133 -12.23803997039795 42.034786224365234 58 57 59
-2.829979419708252 -8.52691650390625 33.11903381347656 55 54 54
-2.63189435005188 -7.030170917510986 27.307044982910156 72 71 73
-7.82661771774292 -9.523058891296387 38.092018127441406 107 106 108
-11.935705184936523 -11.596663475036621 47.55657196044922 147 141 130
-6.114523887634277 -9.79506778717041 39.95744323730469 121 122 123
-5.108546733856201 -8.440720558166504 34.505699157714844 53 51 53
-8.269857406616211 -10.357003211975098 42.2693977355957 45 44 45
-5.393019676208496 -8.87099838256836 38.26401901245117 53 52 55
-5.355434894561768 -8.375814437866211 36.86967086791992 78 77 79
-11.674653053283691 -9.196005821228027 46.822113037109375 140 133 121
-3.0890450477600098 -6.784351825714111 34.43617248535156 24 25 27
-11.2879638671875 -9.050185203552246 46.59585952758789 54 49 47
-11.28911018371582 -9.051112174987793 46.600486755371094 54 49 47
-7.691734313964844 -7.434560298919678 38.79227066040039 98 98 101
-2.3496527671813965 12.683672904968262 28.350311279296875 103 99 101
-8.532665252685547 17.00693702697754 38.270050048828125 100 96 92
-7.73320198059082 -5.805082321166992 38.077430725097656 102 102 105
-5.278601169586182 -5.381165981292725 36.464599609375 53 52 54
-4.214018821716309 14.205296516418457 33.051483154296875 78 75 76
-4.03902530670166 13.043883323669434 30.28061866760254 122 118 117
-6.4512834548950195 14.957064628601074 35.81630325317383 19 17 18
-5.497518539428711 -4.293997287750244 39.388057708740234 123 125 126
-5.073544979095459 -3.8351078033447266 35.993988037109375 115 115 116
-11.206803321838379 -4.797298908233643 47.60359191894531 20 17 17
-2.387718439102173 12.418278694152832 31.3448429107666 59 59 61
-8.238645553588867 -4.138223648071289 41.58525466918945 94 95 97
-4.2685322761535645 12.69769287109375 32.54020690917969 27 25 26
-8.237733840942383 -4.137711524963379 41.58038330078125 94 95 97
-8.197100639343262 -3.951507091522217 41.486358642578125 22 23 25
-4.425895690917969 12.662232398986816 32.60344696044922 112 109 111
-11.188549041748047 -2.7569210529327393 47.3223876953125 102 97 96
-3.003889322280884 -2.0858891010284424 35.09837341308594 120 119 120
-11.195833206176758 -2.7584598064422607 47.35343933105469 102 97 96
-8.71667194366455 14.31875228881836 39.524864196777344 28 26 26
-5.335413932800293 -1.9561116695404053 36.466880798339844 116 115 117
-5.531230926513672 -2.0027122497558594 39.640846252441406 128 127 130
-4.475806713104248 11.823620796203613 34.49653625488281 92 90 90
-5.449300765991211 -0.5354985594749451 37.594486236572266 88 86 89
-9.125980377197266 12.942336082458496 40.22346115112305 88 84 80
-0.7400087714195251 -0.28504958748817444 29.839855194091797 94 94 95
-3.1316730976104736 -0.21686653792858124 35.485984802246094 127 126 128
-2.6865639686584473 -0.2514382600784302 33.63934326171875 21 21 22
-3.0292465686798096 -0.06615280359983444 34.85740661621094 36 35 37
-0.9869447946548462 -0.09467009454965591 35.89458465576172 109 109 110
-2.7581589221954346 0.06260693818330765 33.8180046081543 127 125 127
-2.78552508354187 9.942523956298828 32.48883819580078 69 68 70
-6.7099714279174805 10.988569259643555 37.5628776550293 124 122 122
-1.9303799867630005 0.3059404790401459 33.144622802734375 21 19 20
-0.524355947971344 7.943863391876221 28.303180694580078 125 122 124
-9.774677276611328 11.60838508605957 42.20709991455078 98 95 88
-0.7410370707511902 7.371238708496094 26.9953670501709 69 67 68
-2.7414450645446777 8.489693641662598 31.52260398864746 141 139 140
-4.460899829864502 9.046154022216797 35.01108169555664 12 9 11
-7.785477161407471 1.10337495803833 39.667137145996094 66 64 66
-5.0604166984558105 1.3626097440719604 36.44804382324219 22 20 22
-2.6965837478637695 1.3882049322128296 34.449886322021484 112 110 111
-0.7228203415870667 1.394049882888794 29.45807456970215 132 129 130
-8.737135887145996 9.322630882263184 38.62876892089844 25 20 19
-4.733447074890137 7.651093006134033 35.08198165893555 32 30 33
-2.5026068687438965 6.773557662963867 30.672142028808594 9 6 8
-2.9662442207336426 7.597114562988281 34.725440979003906 66 64 67
-10.58470630645752 3.4333202838897705 44.456932067871094 118 114 107
-3.7653253078460693 5.841740608215332 26.980308532714844 92 91 93
-7.55422306060791 3.107888698577881 38.75825119018555 140 139 141
-0.8766822814941406 2.364053964614868 26.572113037109375 79 78 79
-2.797743320465088 3.06461501121521 33.79194641113281 20 19 21
-0.609087347984314 2.791926860809326 29.759531021118164 126 124 123
-8.811893463134766 4.179732322692871 36.994651794433594 76 72 65
-7.413797378540039 4.867782115936279 40.090328216552734 100 98 98
-0.6050669550895691 5.280149936676025 28.119068145751953 111 108 110
-0.6839312314987183 5.2768940925598145 29.005645751953125 105 104 107
-2.984346389770508 6.2415900230407715 34.25997543334961 124 122 127
-0.9022658467292786 4.251069068908691 29.76789665222168 102 100 99
-0.7063659429550171 4.030092239379883 28.52031898498535 14 11 12
-4.548803329467773 5.970045566558838 34.37697982788086 53 52 55
-0.8517391085624695 4.3162384033203125 28.189403533935547 106 103 105
-4.568039417266846 5.994785785675049 34.52455139160156 53 52 55
-9.50281047821045 6.541695594787598 41.07374572753906 55 52 51
-2.8411147594451904 4.524896621704102 34.62773895263672 18 17 17
-7.9783172607421875 3.2932519912719727 40.813865661621094 129 130 132
-10.835835456848145 -4.615849018096924 46.060218811035156 41 38 37
-6.045700550079346 -18.034048080444336 35.129695892333984 67 64 65
-3.273108720779419 -3.4360270500183105 34.437320709228516 176 177 178
-10.489535331726074 -21.47188949584961 42.982688903808594 126 124 125
-9.115867614746094 -21.139001846313477 42.716590881347656 96 96 98
-8.72249698638916 -4.199078559875488 42.84760665893555 94 96 98
-7.936794281005859 -3.7630577087402344 39.9575080871582 14 15 17
-3.5528922080993652 -3.724797010421753 39.417823791503906 43 44 45
-11.261740684509277 -2.7719194889068604 45.873939514160156 101 95 85
-3.043837308883667 -2.120621919631958 35.67745590209961 114 113 114
-11.195660591125488 -2.7584099769592285 47.3526496887207 102 97 96
-5.316250324249268 -1.9078760147094727 36.20012664794922 84 83 85
-5.1277079582214355 -2.0335378646850586 36.349693298339844 22 21 24
-8.669540405273438 -14.470080375671387 41.22875213623047 115 113 114
-7.697908401489258 -13.221092224121094 38.448272705078125 103 102 103
-12.111379623413086 -15.80947494506836 47.376529693603516 85 85 83
-5.737314224243164 -11.327838897705078 37.39107131958008 31 31 33
-2.887545347213745 -9.93997573852539 33.02558135986328 112 110 111
-0.6090686917304993 2.7918312549591064 29.75877571105957 126 124 123
-8.38598346710205 -12.238203048706055 42.0352783203125 58 57 59
-2.281890869140625 13.894037246704102 30.90198516845703 93 89 91
-2.4086241722106934 12.910782814025879 28.816598892211914 100 96 98
-0.9604355096817017 -0.2597390413284302 31.046344757080078 44 43 43
-3.142366409301758 -8.828144073486328 34.139564514160156 63 62 64
-8.019739151000977 -0.419978529214859 41.956878662109375 14 12 15
-7.231441020965576 -8.734884262084961 35.008033752441406 93 93 94
-5.633795261383057 -0.33424216508865356 38.838993072509766 15 14 17
-5.792137145996094 -9.212064743041992 37.727359771728516 140 140 142
-0.7083505988121033 10.874844551086426 26.02573585510254 96 95 96
-12.193682670593262 0.08816559612751007 49.96235275268555 164 161 152
-0.5652504563331604 10.919716835021973 33.14488983154297 72 69 71
-5.166891574859619 -6.83893346786499 33.71538543701172 98 96 98
-2.4659531116485596 9.335465431213379 30.089656829833984 17 16 18
-5.397677898406982 -7.290441989898682 37.05997848510742 131 130 131
-4.91215181350708 -7.084429740905762 35.37607955932617 22 21 22
-7.085492134094238 10.97910213470459 37.760475158691406 134 131 133
-2.5018115043640137 8.41042423248291 31.030668258666992 10 7 9
-8.463851928710938 1.3390227556228638 44.03342819213867 22 20 22
-6.615660667419434 -5.247697830200195 33.8234748840332 101 101 104
-8.857593536376953 -6.640059947967529 43.53439712524414 99 99 102
-5.060408115386963 1.3626062870025635 36.447975158691406 22 20 22
-2.9103968143463135 6.002446174621582 32.85870361328125 68 66 71
-2.6966490745544434 1.388425350189209 34.451072692871094 112 110 111
-11.063615798950195 -6.701797962188721 45.85128402709961 61 57 54
-0.7447556853294373 1.7400084733963013 36.39118194580078 146 143 144
-4.5286173820495605 5.715326309204102 32.99726867675781 157 155 158
-9.502763748168945 6.54164981842041 41.07374572753906 55 52 51
-0.7063746452331543 4.030024528503418 28.519512176513672 14 11 12
-0.891506016254425 4.0223283767700195 28.057323455810547 82 80 80
-8.984171867370605 11.208963394165039 39.12384796142578 54 51 46
-8.988970756530762 9.427772521972656 38.6899299621582 127 123 118
-7.519689559936523 11.163250923156738 39.45405578613281 57 56 59
-12.563299179077148 -20.997203826904297 43.296478271484375 105 101 105
-9.212364196777344 11.332036018371582 40.371036529541016 44 40 36
-5.560695648193359 -15.919853210449219 35.67809295654297 14 14 14
-9.21282958984375 11.332681655883789 40.37308883666992 44 40 36
-9.432294845581055 -16.82433319091797 44.835540771484375 93 93 94
-4.617789268493652 9.057526588439941 35.04194641113281 95 94 94
-4.487156391143799 9.10806655883789 35.22936248779297 12 9 11
-12.267295837402344 -13.777705192565918 48.26918411254883 164 157 145
-7.690264701843262 -7.433254241943359 38.78487777709961 98 98 101
-0.8145853281021118 13.09422779083252 28.790142059326172 62 59 62
-2.323915481567383 13.092948913574219 28.90369415283203 32 28 30
-8.532594680786133 17.006793975830078 38.269737243652344 100 96 92
-8.454014778137207 16.932004928588867 38.770633697509766 74 73 72
-3.7510340213775635 11.93261432647705 27.75843620300293 129 125 125
-10.5825777053833 3.4325270652770996 44.44763946533203 118 114 107
-6.391340255737305 14.300780296325684 34.36448287963867 82 82 82
-2.6737968921661377 4.13881254196167 32.788028717041016 38 36 38
-3.1224284172058105 4.501966953277588 35.24917221069336 64 61 65
-4.834695339202881 4.360497951507568 33.6375732421875 128 125 128
-0.8531836867332458 4.331379413604736 28.262123107910156 106 103 105
-0.986342191696167 4.852600574493408 30.969242095947266 79 76 80
-9.503327369689941 6.541994094848633 41.07588195800781 55 52 51
-6.891703128814697 6.236835956573486 36.18289566040039 23 19 21
-4.567407608032227 5.99393892288208 34.51952362060547 53 52 55
-9.126160621643066 15.046506881713867 41.514320373535156 28 26 27
-0.9342886805534363 5.311457633972168 29.38726234436035 70 66 71
-2.465064764022827 1.344787836074829 33.3249626159668 24 23 24
-0.6050667762756348 5.280171871185303 28.11918067932129 111 108 110
-6.7107014656066895 12.319459915161133 36.78911209106445 16 16 17
-7.975015163421631 1.1059502363204956 40.46516799926758 69 67 69
-4.680063247680664 7.815849781036377 35.812076568603516 136 134 136
-8.032224655151367 9.346176147460938 44.78885269165039 22 19 22
-4.521310329437256 10.907219886779785 32.55802917480469 64 62 65
-2.6854350566864014 -0.25124651193618774 33.62504577636719 21 21 22
-0.6912596821784973 8.019474983215332 28.969350814819336 17 14 14
-5.261033535003662 -5.541112422943115 37.449928283691406 162 162 165
-2.615823268890381 6.850987434387207 31.20960235595703 21 20 21
-5.4473185539245605 -16.249481201171875 35.258792877197266 22 21 22
-2.617223024368286 4.067939281463623 31.173336029052734 18 17 18
-7.743775844573975 1.345293402671814 41.2772331237793 90 89 90
-7.94752311706543 -13.158051490783691 37.45148468017578 117 116 118
-12.111625671386719 -15.809812545776367 47.37758255004883 85 85 83
-9.437196731567383 -4.485541820526123 46.131656646728516 97 99 101
-2.887740135192871 -9.940831184387207 33.02836227416992 112 110 111
-8.385890007019043 -12.23807430267334 42.03489685058594 58 57 59
-2.6967594623565674 1.3884782791137695 34.45248794555664 112 110 111
-5.427844047546387 -1.9129359722137451 36.63933563232422 63 62 64
-5.127826690673828 -2.0335819721221924 36.35048294067383 22 21 24
-11.506511688232422 -11.021543502807617 46.17012023925781 169 162 153
-5.225424766540527 -6.9164509773254395 33.93218994140625 100 100 101
-5.397699356079102 -7.290487766265869 37.06015396118164 131 130 131
-4.702754497528076 -0.46756067872047424 33.558841705322266 17 16 18
-7.88527774810791 -19.46551513671875 39.0269660949707 102 100 103
-0.8145743608474731 13.091915130615234 28.78512191772461 62 59 62
-12.265701293945312 -13.775884628295898 48.26287841796875 164 157 145
-3.927833318710327 12.33279800415039 28.71871566772461 101 97 98
-5.108238697052002 -8.440282821655273 34.503814697265625 53 51 53
-7.690540790557861 -7.433547496795654 38.78635787963867 98 98 101
-2.801144599914551 13.632244110107422 37.621341705322266 51 50 53
-4.941253185272217 -3.831765651702881 35.18922424316406 108 108 109
-8.30735969543457 -0.29594686627388 41.81231689453125 78 75 77
-7.791556358337402 -3.6597366333007812 39.20555877685547 14 14 16
-3.2241127490997314 -3.2853949069976807 35.10780334472656 44 45 46
-11.26181411743164 -2.771942615509033 45.87424850463867 101 95 85
-11.82545280456543 -2.5321266651153564 48.25050354003906 142 135 127
-2.6966567039489746 1.3882516622543335 34.451026916503906 112 110 111
-4.986474990844727 2.6977744102478027 36.5534553527832 90 88 89
