ply
format ascii 1.0
element vertex 718
property float x
property float y
property float z
property uchar red
property uchar green
property uchar blue
end_header
-2.4741506576538086 17.349267959594727 32.66857147216797 159 151 142
-4.89935827255249 0.47753602266311646 38.23434829711914 23 19 19
-4.901291370391846 0.47764167189598083 38.24830627441406 23 19 19
-1.1461238861083984 17.53846549987793 34.83671569824219 166 161 152
-4.652320861816406 0.47703099250793457 38.1406135559082 117 112 112
-5.668678283691406 0.28440380096435547 37.04997634887695 19 16 23
0.360713392496109 17.72159767150879 34.76314926147461 72 68 56
-2.473987340927124 17.34814453125 32.666465759277344 159 151 142
4.965847015380859 -2.8929293155670166 24.456684112548828 43 39 36
-1.899169921875 17.314952850341797 32.74404525756836 171 166 156
-0.33004385232925415 17.326900482177734 35.57781219482422 49 44 34
-0.5488776564598083 18.31802749633789 29.542133331298828 69 65 53
-10.317602157592773 7.9469380378723145 37.232967376708984 9 4 8
-10.78312873840332 4.798617362976074 36.7131233215332 32 22 17
-3.1002938747406006 16.526948928833008 32.635623931884766 163 156 146
-1.0379321575164795 18.079471588134766 31.93478012084961 179 173 161
-13.862548828125 8.113317489624023 33.32843780517578 59 48 44
-4.585116386413574 16.58150863647461 27.025224685668945 95 91 85
2.7315514087677 -13.289841651916504 24.386375427246094 48 43 44
-5.6153998374938965 5.74481725692749 38.23600387573242 41 38 48
-0.4390163719654083 19.5293025970459 34.63514709472656 97 91 79
-1.0063445568084717 17.584556579589844 33.63551330566406 131 126 116
5.3790388107299805 4.031560897827148 27.810510635375977 65 59 47
-0.39100295305252075 -14.367469787597656 27.488327026367188 23 22 26
-6.695376396179199 16.26925277709961 31.716323852539062 119 115 107
-4.558661460876465 15.834720611572266 32.87611770629883 66 60 51
-8.599562644958496 5.769118785858154 38.18780517578125 6 4 17
-2.737133502960205 17.499828338623047 33.33314514160156 181 172 162
-4.7574334144592285 16.423067092895508 31.99797248840332 179 173 164
-4.615037441253662 -7.145198822021484 35.378662109375 26 26 27
-1.3256845474243164 17.62195587158203 32.67804718017578 192 186 174
-4.872650146484375 5.910367965698242 37.82847595214844 45 40 43
-5.907952308654785 15.276141166687012 28.15228271484375 158 155 147
-2.7160847187042236 17.180408477783203 31.415340423583984 110 105 96
-3.237177848815918 17.57444953918457 27.90162467956543 41 37 29
-13.976996421813965 8.568230628967285 30.33837890625 74 64 55
-2.0202383995056152 17.41555404663086 32.15717315673828 156 148 138
-1.7565854787826538 17.810184478759766 32.45561218261719 138 132 120
-2.0665836334228516 -13.382776260375977 29.49927520751953 38 35 34
-1.3327455520629883 18.583498001098633 30.904539108276367 143 138 128
-3.99894380569458 16.687808990478516 30.382347106933594 61 57 49
-0.9688255786895752 18.102930068969727 34.00013732910156 158 151 141
-1.7337616682052612 14.962438583374023 29.505218505859375 129 122 113
-5.764404296875 0.3248728811740875 39.681732177734375 18 12 16
-13.4385404586792 8.882563591003418 32.79846954345703 45 34 30
-12.694966316223145 8.784895896911621 33.93355941772461 88 77 71
-4.186407089233398 -7.1310224533081055 40.62150573730469 106 107 109
-13.344938278198242 9.668943405151367 31.85645866394043 31 19 13
-0.5804142355918884 18.186574935913086 35.218387603759766 85 81 71
-3.4371984004974365 17.04134178161621 31.055137634277344 102 97 89
-4.346338272094727 16.437973022460938 29.757966995239258 143 137 130
-5.831420421600342 15.177026748657227 29.866195678710938 94 88 80
-1.0876141786575317 16.388084411621094 30.232099533081055 158 152 140
1.3800581693649292 18.132680892944336 33.575618743896484 80 76 66
-2.07962965965271 17.600597381591797 33.07109451293945 170 163 153
4.922873497009277 -4.165937900543213 24.701522827148438 49 43 32
-3.877662181854248 16.363353729248047 32.63272476196289 179 172 162
-10.705111503601074 9.060037612915039 37.432838439941406 12 7 11
-3.794682264328003 16.958955764770508 28.666202545166016 114 109 100
-3.163342237472534 16.82715606689453 33.68030548095703 49 43 35
-2.9577434062957764 16.708646774291992 31.002355575561523 95 89 80
-6.678488254547119 15.477476119995117 31.0921688079834 147 142 135
-0.8135690689086914 -11.174054145812988 29.82208251953125 163 162 166
-1.690938949584961 -11.536110877990723 31.51127052307129 10 10 11
-1.6909648180007935 -11.536351203918457 31.51186752319336 10 10 11
-2.109504461288452 -11.706036567687988 32.44963836669922 82 81 81
-1.4514214992523193 17.36042594909668 34.85601043701172 126 121 112
-4.4644904136657715 7.089148998260498 37.45465087890625 56 51 53
-9.24083423614502 -4.168822288513184 39.6029052734375 80 67 64
-4.890105247497559 -11.8242826461792 35.71062469482422 89 88 90
-4.80762243270874 16.16040802001953 27.491477966308594 100 94 86
-8.122979164123535 15.62802505493164 31.603755950927734 132 129 121
-1.2848939895629883 17.779558181762695 34.15172576904297 182 178 168
-14.348596572875977 6.9200520515441895 30.88530158996582 59 49 44
-2.1421074867248535 17.358234405517578 32.93746566772461 113 107 98
-1.2476776838302612 16.877511978149414 35.18079376220703 167 161 151
-3.8937957286834717 16.75221824645996 31.91602897644043 152 145 136
-2.7114250659942627 -4.056820392608643 37.1893310546875 109 107 104
-12.388781547546387 6.992168426513672 34.24708938598633 17 10 16
-2.501538038253784 -10.345707893371582 33.87895202636719 143 141 134
-5.56094217300415 1.609566569328308 42.621700286865234 81 76 77
-13.497461318969727 7.104997634887695 32.73407745361328 176 166 165
-2.242852210998535 17.103004455566406 32.57225036621094 43 37 28
-13.291508674621582 7.284580230712891 33.56098556518555 147 139 138
5.87296199798584 1.6358985900878906 31.17799949645996 81 77 63
-3.3371834754943848 17.471221923828125 31.122522354125977 62 57 48
-3.412205934524536 -10.229745864868164 33.59016036987305 19 18 15
-1.6976346969604492 17.43092155456543 37.555625915527344 97 92 83
-8.309941291809082 4.153783798217773 39.9813117980957 59 54 52
-3.5342178344726562 -1.587532639503479 35.18894577026367 33 33 38
4.895438194274902 -2.9823811054229736 24.59227180480957 59 54 45
-0.2918221354484558 -13.730981826782227 28.35741424560547 119 114 115
-0.2913825809955597 -13.729530334472656 28.355226516723633 74 69 70
-6.629485130310059 7.590184211730957 38.792625427246094 29 25 30
-3.9260504245758057 14.890192031860352 25.48480224609375 63 60 52
-12.259943962097168 8.235876083374023 36.52470016479492 26 20 19
-4.979955673217773 15.720903396606445 29.692121505737305 163 157 150
-5.850555896759033 14.819012641906738 27.717121124267578 159 155 149
-0.4056199789047241 17.686296463012695 33.59848403930664 157 153 142
-6.249901294708252 16.069801330566406 30.12346839904785 162 157 151
-1.7427819967269897 -10.239294052124023 34.01922607421875 92 84 68
-12.616154670715332 7.402494430541992 35.3822135925293 46 38 46
-3.6326019763946533 7.0452046394348145 36.49198532104492 102 99 101
-4.652137279510498 0.47704967856407166 38.138858795166016 117 112 112
-2.0011987686157227 16.963645935058594 34.16553497314453 75 68 58
-4.652512073516846 0.47701704502105713 38.142433166503906 117 112 112
-5.793876647949219 0.33160123229026794 39.97832489013672 76 71 74
-13.704258918762207 6.038994312286377 31.523881912231445 104 100 101
-5.680366039276123 0.2838743031024933 37.1166877746582 19 16 23
-1.5479605197906494 18.262128829956055 30.936594009399414 54 51 41
-6.066064834594727 0.2545836567878723 38.21421432495117 31 31 47
4.2487006187438965 -5.021326065063477 30.60975456237793 57 50 38
-10.780720710754395 1.954824686050415 39.52998352050781 91 90 89
4.485942840576172 -4.96335506439209 30.108325958251953 224 218 202
-4.464252471923828 7.0887556076049805 37.452388763427734 56 51 53
-4.833232402801514 7.074335098266602 37.797828674316406 24 19 21
-5.874650955200195 -1.9206557273864746 38.96187973022461 39 37 40
4.3931965827941895 -5.007457733154297 31.068775177001953 226 222 208
-3.5343079566955566 -1.5876026153564453 35.19004821777344 33 33 38
-14.145792961120605 8.147480964660645 33.50202941894531 51 39 35
-2.2169835567474365 17.048200607299805 32.48558044433594 37 31 22
-13.862335205078125 8.113197326660156 33.327911376953125 59 48 44
3.4858298301696777 -5.056894779205322 31.4742374420166 66 58 46
3.485851764678955 -5.056930065155029 31.474401473999023 66 58 46
3.573195219039917 -4.819973945617676 30.718441009521484 159 151 138
4.415640830993652 -4.774074077606201 30.48261260986328 27 19 13
-5.874566555023193 -1.9206433296203613 38.96113967895508 39 37 40
3.8967220783233643 -4.958510875701904 31.614770889282227 154 147 134
-0.2811894416809082 18.523637771606445 31.415740966796875 84 80 67
3.5741167068481445 -4.682490348815918 31.23574447631836 27 18 10
-2.383789539337158 17.50790786743164 32.378814697265625 179 170 161
-5.0388665199279785 20.871049880981445 35.662044525146484 123 117 110
-3.6045920848846436 6.29905891418457 37.342918395996094 120 118 119
4.208071708679199 -4.583653450012207 30.98423957824707 151 143 132
3.799661874771118 -4.448090076446533 31.4318790435791 182 177 162
5.381535053253174 1.6473627090454102 27.112323760986328 67 64 59
-1.4327468872070312 17.650650024414062 34.67767333984375 169 164 155
-2.822153091430664 17.54875946044922 30.1805419921875 111 106 97
-6.69540548324585 -5.252706050872803 38.708133697509766 20 21 22
-7.907014846801758 10.334872245788574 38.176570892333984 74 67 60
1.1124725341796875 17.8584041595459 36.524940490722656 130 123 112
5.530327796936035 7.771362781524658 28.080068588256836 17 12 7
-7.7598981857299805 10.318293571472168 35.9573860168457 181 171 159
2.6525886058807373 -10.264214515686035 24.130586624145508 44 41 43
-4.872742652893066 5.910546779632568 37.82992935180664 45 40 43
-12.238198280334473 9.778857231140137 33.806095123291016 44 35 34
2.6521434783935547 -10.262402534484863 24.126747131347656 44 41 43
-13.976481437683105 8.567922592163086 30.337186813354492 74 64 55
-1.7562538385391235 17.807607650756836 32.45045852661133 138 132 120
1.3918949365615845 -10.622058868408203 26.278209686279297 38 38 41
1.5751515626907349 17.391645431518555 28.86310577392578 152 146 132
-4.545759677886963 2.751915693283081 37.93981170654297 83 80 80
-0.8160234689712524 -11.229774475097656 29.958147048950195 163 162 166
-4.547924995422363 2.7532312870025635 37.96258544921875 83 80 80
-1.4049161672592163 -11.596471786499023 31.456554412841797 65 64 64
-1.690999984741211 -11.536580085754395 31.512495040893555 10 10 11
-3.4702882766723633 -11.69926929473877 33.94337463378906 76 72 71
-13.970721244812012 8.564446449279785 30.323883056640625 74 64 55
-3.4703361988067627 -11.699424743652344 33.94383239746094 76 72 71
4.965847015380859 -2.8929293155670166 24.456684112548828 43 39 36
-3.622070074081421 -7.216793537139893 34.93915557861328 57 56 58
-1.2914166450500488 17.658607482910156 29.346176147460938 156 151 141
4.4597578048706055 -4.056098461151123 34.292144775390625 125 117 102
-5.062294960021973 16.63428497314453 29.20809555053711 71 66 58
-4.463129997253418 7.087360382080078 37.444522857666016 56 51 53
-2.0665478706359863 -13.382633209228516 29.49901580810547 38 35 34
-4.5400495529174805 4.912225723266602 37.81208038330078 116 112 117
-2.252312421798706 -10.78435230255127 34.02872085571289 95 93 85
-2.4480018615722656 -10.788345336914062 34.61503601074219 95 93 84
-2.24833345413208 -11.077794075012207 35.51800537109375 222 219 207
-0.6833085417747498 18.384817123413086 31.019107818603516 68 64 53
-2.448086977005005 -10.789030075073242 34.616981506347656 95 93 84
-8.493766784667969 4.819337844848633 39.049339294433594 149 143 139
-8.538558006286621 4.816377639770508 38.399574279785156 139 132 127
-5.8268537521362305 -4.130073070526123 38.25172805786133 36 36 38
-0.14709851145744324 18.147199630737305 32.07537078857422 184 178 166
-13.560608863830566 7.389386177062988 35.59733581542969 21 14 15
-8.494123458862305 4.819453239440918 39.05084991455078 149 143 139
-3.705876350402832 -3.9065184593200684 35.92354202270508 19 18 20
-1.960463523864746 17.440710067749023 31.868196487426758 49 45 34
1.1120835542678833 17.85117530822754 36.509674072265625 130 123 112
-2.5142555236816406 17.162681579589844 32.145599365234375 69 61 52
-2.575383424758911 -9.386507034301758 34.5450553894043 94 92 86
-1.1462829113006592 17.540557861328125 34.84089660644531 166 161 152
-3.7061171531677246 -3.906895399093628 35.9267578125 19 18 20
-2.575434684753418 -9.386719703674316 34.54574966430664 94 92 86
-3.5230252742767334 -9.258965492248535 34.493568420410156 83 80 79
-2.5167734622955322 17.643922805786133 31.188737869262695 163 156 147
-0.47370511293411255 19.348295211791992 34.460975646972656 163 157 145
-11.451839447021484 -10.431004524230957 40.59898376464844 87 90 92
-3.5234789848327637 -8.402495384216309 34.185306549072266 155 156 157
-2.9590656757354736 17.45825958251953 31.547563552856445 189 184 175
5.900169372558594 1.6461925506591797 31.290346145629883 81 77 63
-2.745532989501953 -8.23640251159668 34.601661682128906 124 122 121
-1.840873122215271 -10.319845199584961 28.648794174194336 75 74 74
0.4079996347427368 18.48041534423828 30.540922164916992 34 29 16
-4.472872734069824 -8.390989303588867 35.609222412109375 79 78 79
-3.4453864097595215 -10.410425186157227 33.4820671081543 43 42 38
-2.0718815326690674 19.081411361694336 38.07981491088867 108 101 92
-12.389520645141602 6.992557525634766 34.249122619628906 17 10 16
5.086833953857422 1.1514238119125366 32.087120056152344 73 67 54
-2.5196444988250732 17.648319244384766 29.168474197387695 125 122 112
-12.703184127807617 6.9786763191223145 33.703765869140625 83 75 76
-7.5422892570495605 1.1888152360916138 40.1490592956543 10 10 31
-13.280654907226562 7.150886058807373 33.321617126464844 67 59 60
-1.4434270858764648 19.348421096801758 32.5165901184082 99 94 84
-2.628192663192749 0.5243057608604431 37.6123161315918 34 34 29
-3.603968858718872 -5.814485549926758 33.810150146484375 45 46 48
-14.348076820373535 6.919820308685303 30.88410186767578 59 49 44
-2.692690134048462 -6.104223728179932 35.33214569091797 16 13 13
-12.751382827758789 10.945926666259766 34.27045822143555 140 129 122
-1.77452552318573 18.029314041137695 33.207786560058594 179 173 162
-1.0059565305709839 17.761455535888672 31.837175369262695 150 144 132
-12.810384750366211 1.1431270837783813 33.85541915893555 168 167 164
-2.4283907413482666 18.228452682495117 29.27571678161621 74 70 62
-3.5017597675323486 17.350515365600586 30.8829345703125 151 146 137
-13.330266952514648 9.662107467651367 31.82796287536621 31 19 13
-0.29142460227012634 -13.729789733886719 28.35567855834961 74 69 70
-1.9761141538619995 16.818531036376953 33.84203338623047 68 61 51
-3.9133403301239014 14.84737491607666 25.410043716430664 58 55 47
-5.7938432693481445 14.245182037353516 28.833465576171875 159 155 147
-2.6263275146484375 -1.7157949209213257 37.1305046081543 112 110 102
-2.6655523777008057 6.212680339813232 38.06187438964844 42 42 36
-7.2168354988098145 -0.7761700749397278 39.7338752746582 35 36 58
-13.389433860778809 8.884793281555176 32.24794387817383 147 136 128
-3.425694227218628 -10.20901107788086 33.32435607910156 150 148 145
-9.667996406555176 -4.324757099151611 41.637916564941406 32 19 16
0.013519520871341228 -11.280814170837402 28.99614715576172 114 113 113
-8.54649829864502 -7.517496585845947 36.10144805908203 79 67 62
-1.7460596561431885 18.116722106933594 35.56856918334961 60 54 45
-0.39099621772766113 -14.3683443069458 27.489944458007812 23 22 26
-9.409027099609375 2.910351276397705 40.45220947265625 103 92 83
0.23177003860473633 17.97466468811035 37.11148452758789 109 103 93
-2.570626735687256 17.604101181030273 31.56868553161621 178 170 161
-3.1631901264190674 16.826051712036133 33.67809295654297 49 43 35
-10.770181655883789 3.9209513664245605 36.452388763427734 159 150 138
-5.422046184539795 15.64898681640625 29.81852912902832 117 111 104
-14.012856483459473 7.001828670501709 34.11359786987305 101 93 96
-5.344019889831543 -11.203739166259766 34.6646842956543 87 85 87
-2.286817789077759 17.513736724853516 33.648189544677734 174 167 158
-1.7470885515213013 17.661029815673828 31.879079818725586 56 50 40
-1.4512717723846436 17.358699798583984 34.85246658325195 126 121 112
-3.794416666030884 16.95738983154297 28.663469314575195 114 109 100
-6.6848273277282715 15.493462562561035 31.125682830810547 147 142 135
-0.5488767027854919 18.318058013916016 29.54218101501465 69 65 53
-3.5968689918518066 10.695735931396484 36.86804962158203 63 59 60
-12.259978294372559 8.235905647277832 36.52481460571289 26 20 19
-12.226835250854492 7.188971519470215 34.237510681152344 46 38 46
-12.835640907287598 7.327127456665039 34.673465728759766 168 160 161
-1.145918607711792 16.06270980834961 32.97825622558594 111 105 95
-6.629915714263916 7.590733051300049 38.795623779296875 29 25 30
-4.363324165344238 -6.192625522613525 36.299190521240234 44 43 46
-14.085908889770508 1.1096441745758057 31.049022674560547 79 80 87
-10.781220436096191 1.954885721206665 39.531768798828125 91 90 89
-8.618352890014648 -5.478160858154297 41.28791809082031 30 29 33
-8.599294662475586 5.768909931182861 38.18644714355469 6 4 17
-4.605016708374023 16.448699951171875 28.26114273071289 164 159 152
-8.309643745422363 4.153632164001465 39.97959518432617 59 54 52
-12.593425750732422 9.779354095458984 34.52458190917969 47 38 33
-3.721560001373291 7.394510269165039 37.26115417480469 160 157 159
-5.615846633911133 5.7453155517578125 38.23923873901367 41 38 48
-0.19114342331886292 17.42112159729004 35.24373245239258 160 154 144
-14.347893714904785 6.919672966003418 30.883724212646484 59 49 44
-6.663825988769531 1.0773508548736572 39.33750915527344 131 129 142
-10.782439231872559 4.798335552215576 36.71079635620117 32 22 17
-4.540604591369629 4.912841796875 37.81712341308594 116 112 117
-4.3375163078308105 -8.433716773986816 35.171443939208984 140 140 142
3.486119031906128 -5.057353496551514 31.47663116455078 66 58 46
4.548129081726074 -4.938023090362549 31.453224182128906 115 109 97
-4.652500629425049 0.47703444957733154 38.14249801635742 117 112 112
3.6105153560638428 -4.908751487731934 31.371957778930664 165 158 144
-3.5696816444396973 -8.523457527160645 34.54794692993164 154 155 156
3.896580934524536 -4.958337783813477 31.613821029663086 154 147 134
4.788007736206055 -4.766668319702148 32.52649688720703 30 22 13
-0.5123792886734009 -14.308552742004395 27.682762145996094 129 129 133
4.8628153800964355 3.7334892749786377 24.95736312866211 48 43 34
-13.70252799987793 7.217431545257568 33.2809944152832 161 152 149
4.344193458557129 -4.519742965698242 31.083515167236328 155 148 135
1.309260368347168 -12.931614875793457 25.348388671875 40 36 40
3.7992913722991943 -4.44770622253418 31.429441452026367 182 177 162
3.976893663406372 -4.305805206298828 31.080820083618164 184 176 162
4.3029985427856445 -4.235179901123047 30.04505157470703 42 34 23
3.4545321464538574 -4.343498706817627 31.66545867919922 132 125 109
-0.11126023530960083 -14.338377952575684 29.453962326049805 92 87 88
3.0334208011627197 -9.456155776977539 21.50406837463379 77 76 77
3.2851572036743164 -10.160683631896973 23.2354679107666 89 88 90
-4.464206695556641 7.088644027709961 37.45173645019531 56 51 53
-3.523024320602417 -9.258963584899902 34.493560791015625 83 80 79
2.063102960586548 -10.969343185424805 26.424888610839844 104 103 107
1.8768349885940552 -10.115357398986816 24.519681930541992 98 98 102
-5.827057361602783 -4.130256175994873 38.25320053100586 36 36 38
0.7816147804260254 -10.822278022766113 27.274805068969727 138 136 137
-1.182079553604126 -9.8971586227417 26.882118225097656 116 114 115
4.9658660888671875 -2.8929426670074463 24.456769943237305 43 39 36
-13.861662864685059 8.112799644470215 33.32603454589844 59 48 44
-13.862637519836426 8.113358497619629 33.3286018371582 59 48 44
-3.470353126525879 -11.699501037597656 33.94403839111328 76 72 71
-3.8853554725646973 -10.024152755737305 37.19312286376953 150 151 150
-2.109501838684082 -11.706026077270508 32.4496955871582 82 81 81
-5.64658784866333 2.4901981353759766 38.2958984375 169 163 168
-3.5765345096588135 -6.167871475219727 35.446048736572266 24 23 25
-2.2523083686828613 -10.784332275390625 34.028663635253906 95 93 85
-2.6735434532165527 -6.097158432006836 35.10096740722656 38 36 36
-3.517150402069092 -10.73444938659668 34.44977951049805 39 37 33
-2.4480881690979004 -10.789039611816406 34.61701202392578 95 93 84
4.249251842498779 -5.021810531616211 30.61297035217285 57 50 38
-1.7445354461669922 -10.130356788635254 33.53777313232422 73 66 52
-1.7991091012954712 -11.764822006225586 39.07052993774414 153 145 129
-2.575303077697754 -9.38636589050293 34.544578552246094 94 92 86
-8.8770751953125 -8.870041847229004 41.36025619506836 37 32 34
-4.8954596519470215 16.516366958618164 26.892234802246094 117 114 106
-8.040504455566406 10.478057861328125 38.79337692260742 52 45 39
-0.39100566506385803 -14.367791175842285 27.488941192626953 23 22 26
-8.469100952148438 -7.49588680267334 39.88499450683594 78 72 71
-2.302183151245117 -15.125808715820312 31.227054595947266 158 155 155
-2.364020347595215 -13.622050285339355 29.970844268798828 115 113 114
-2.0666847229003906 -13.383516311645508 29.500783920288086 38 35 34
4.033280372619629 -10.45201587677002 23.15289306640625 88 85 87
-7.541396617889404 1.188739538192749 40.14431381225586 10 10 31
-9.408082008361816 2.9101154804229736 40.44839096069336 103 92 83
-4.468293190002441 8.229246139526367 37.3162956237793 29 23 25
1.7368849515914917 -10.516809463500977 25.573936462402344 119 119 126
-10.779915809631348 8.88804817199707 37.37312698364258 114 108 109
-3.73616623878479 9.496298789978027 36.87443923950195 29 25 26
-3.838062047958374 -10.373865127563477 30.950834274291992 40 40 41
0.6793480515480042 -10.8536376953125 27.517221450805664 103 102 103
-13.438353538513184 8.882448196411133 32.79802703857422 45 34 30
-4.682979583740234 -6.163887977600098 36.307952880859375 56 55 57
-4.802847385406494 1.6583577394485474 38.328857421875 189 185 185
-13.293350219726562 7.285576820373535 33.56602478027344 147 139 138
-3.4804441928863525 -10.601139068603516 33.87643814086914 100 98 96
-3.4716126918792725 -9.514052391052246 34.10139846801758 39 39 38
-5.0024800300598145 1.3343141078948975 37.61912155151367 118 113 114
-6.701178073883057 1.2568703889846802 39.594757080078125 115 113 133
-0.3815971910953522 18.2271785736084 31.353748321533203 87 81 69
-2.7455639839172363 -8.236555099487305 34.602210998535156 124 122 121
-8.49422550201416 4.819507598876953 39.051307678222656 149 143 139
-8.992931365966797 5.043473720550537 40.49139404296875 165 159 154
-2.0350706577301025 14.74804401397705 27.28070831298828 155 147 138
-4.472854137420654 -8.3909330368042 35.608985900878906 79 78 79
-8.493556022644043 4.819227695465088 39.04832458496094 149 143 139
-0.28061819076538086 18.537498474121094 31.43994903564453 84 80 67
-2.6281635761260986 0.5243057012557983 37.61173629760742 34 34 29
-1.865903615951538 15.012474060058594 28.56132698059082 121 115 106
-4.901116847991943 0.4776430130004883 38.246490478515625 23 19 19
-9.119282722473145 -8.536479949951172 40.399658203125 35 28 24
-3.4701740741729736 -11.698884010314941 33.94228744506836 76 72 71
-12.237081527709961 9.777963638305664 33.8027229309082 44 35 34
-3.5897796154022217 -7.153512477874756 34.63541030883789 57 56 58
-0.27205902338027954 17.873647689819336 33.29953384399414 166 161 151
-12.600175857543945 6.929057598114014 33.44505310058594 83 75 76
-12.802942276000977 6.972972393035889 34.50112533569336 120 112 113
-3.6150684356689453 -4.004678726196289 35.36588668823242 105 104 107
-6.844506740570068 0.16935321688652039 39.71334457397461 32 30 58
-9.441805839538574 -4.259799957275391 40.45733642578125 89 76 73
-1.5333458185195923 17.535390853881836 33.69534683227539 122 118 108
-13.702961921691895 6.038479328155518 31.521038055419922 104 100 101
0.2592533230781555 18.624422073364258 31.30223274230957 153 146 134
-4.872505187988281 5.910338401794434 37.828426361083984 45 40 43
-12.702973365783691 6.978570938110352 33.70318603515625 83 75 76
-10.913073539733887 5.730840682983398 36.18120193481445 99 92 102
-0.12264970690011978 17.944429397583008 34.338653564453125 92 89 76
-10.673794746398926 6.503002643585205 36.988990783691406 93 88 106
-4.8669891357421875 16.41157341003418 26.724096298217773 117 114 106
-12.978439331054688 7.240575313568115 34.22605895996094 65 57 56
-1.2962498664855957 17.969356536865234 29.875791549682617 178 174 164
-1.5939278602600098 18.000415802001953 29.522825241088867 162 160 149
-2.5195863246917725 17.647897720336914 29.16773223876953 125 122 112
-3.5436267852783203 -1.748902440071106 35.13741683959961 108 108 113
-1.6904371976852417 21.03517723083496 37.814796447753906 132 124 114
5.689378261566162 2.905529737472534 28.120437622070312 26 21 17
-4.617819309234619 3.866957187652588 38.04953384399414 39 34 41
-3.6792824268341064 4.109316349029541 37.68584442138672 180 178 183
-6.485508918762207 0.18582378327846527 38.6705322265625 16 15 36
-0.03751416504383087 17.789203643798828 35.53171157836914 172 167 157
-8.960695266723633 6.831667423248291 38.57354736328125 75 74 88
-4.542238235473633 5.7676920890808105 36.7538948059082 44 37 40
-1.1021759510040283 17.76834487915039 32.45635223388672 119 113 101
-4.018023490905762 17.55698013305664 28.206037521362305 150 145 137
-0.6130858063697815 18.392993927001953 33.01301956176758 169 163 151
-6.769631385803223 7.402860641479492 38.25279235839844 19 15 20
-3.656765937805176 7.295149803161621 36.73435592651367 159 156 158
-7.753678798675537 -4.531562805175781 40.656288146972656 140 141 151
0.7860717177391052 20.806175231933594 37.98453903198242 121 117 106
-3.6751863956451416 4.814358234405518 36.619266510009766 80 80 87
-8.926098823547363 -8.779864311218262 40.26264953613281 135 128 128
-7.626864433288574 -8.642084121704102 39.295562744140625 78 76 81
-9.2597017288208 -9.578669548034668 40.5720100402832 47 40 44
-2.4168829917907715 16.972209930419922 30.639341354370117 184 178 169
-4.378891944885254 -8.588165283203125 36.18021011352539 34 33 35
-13.243678092956543 1.1548712253570557 35.05432891845703 154 152 150
-4.617282390594482 3.866420030593872 38.04393005371094 39 34 41
-4.216996669769287 16.533016204833984 30.3846492767334 119 114 106
-1.1490155458450317 16.09090232849121 33.04751205444336 111 105 95
-10.888367652893066 3.6700758934020996 36.109928131103516 153 144 133
-2.347778558731079 -14.934662818908691 31.285377502441406 63 62 64
-11.414910316467285 7.729098320007324 35.293216705322266 100 94 94
-0.38435131311416626 19.43509292602539 38.83306884765625 137 133 123
-5.0373382568359375 8.191143035888672 38.14789581298828 124 119 122
-7.4361371994018555 -4.371755123138428 41.106056213378906 39 40 54
-10.448346138000488 4.752956867218018 36.39102554321289 27 18 13
-6.647581577301025 17.265731811523438 38.85953140258789 106 100 91
0.36072245240211487 17.721847534179688 34.76374053955078 72 68 56
-2.6655232906341553 6.212666034698486 38.06173324584961 55 54 48
-1.805222511291504 16.37861442565918 30.984376907348633 153 148 138
-4.693027496337891 6.029945373535156 37.84547805786133 152 146 147
-4.296101093292236 17.066560745239258 32.2544059753418 134 127 118
-13.410959243774414 10.475520133972168 31.018714904785156 31 22 17
-8.756266593933105 -9.244723320007324 38.79988098144531 32 25 33
1.1276659965515137 -12.693053245544434 24.82750701904297 152 149 152
-3.333822727203369 -3.5288214683532715 32.713924407958984 5 5 6
-2.331850528717041 -15.300251960754395 31.5505313873291 128 126 126
0.0011948788305744529 -13.9933500289917 29.025686264038086 59 54 54
-1.0512261390686035 18.131547927856445 31.55483627319336 79 73 63
-2.066681385040283 -13.383269309997559 29.500370025634766 38 35 34
3.192321300506592 -9.896876335144043 22.67765998840332 66 65 67
-12.23921012878418 9.779626846313477 33.80882263183594 44 35 34
1.3920918703079224 -10.623438835144043 26.28142547607422 38 38 41
-4.464590549468994 7.089183330535889 37.45481491088867 56 51 53
-1.8737514019012451 -11.503183364868164 31.34383201599121 136 136 137
0.013526310212910175 -11.281352043151855 28.997516632080078 114 113 113
-0.834540605545044 -11.807374000549316 31.388742446899414 146 146 150
-12.515983581542969 9.829588890075684 34.54610824584961 84 76 75
-3.7169077396392822 -11.762330055236816 34.816593170166016 131 129 128
-2.516005277633667 -14.502007484436035 31.80074119567871 115 112 114
2.926612615585327 -12.153127670288086 21.464855194091797 72 68 70
-8.57235050201416 10.98519229888916 40.2054328918457 72 61 49
-3.482259511947632 -10.606555938720703 33.893497467041016 100 98 96
-2.2522621154785156 -10.784163475036621 34.02815246582031 95 93 85
-7.906750679016113 10.334430694580078 38.175010681152344 74 67 60
-2.7128961086273193 -10.472809791564941 34.29706573486328 43 42 37
-4.464473247528076 7.0890374183654785 37.453983306884766 56 51 53
-1.7546234130859375 -10.010897636413574 33.155853271484375 107 99 84
-1.6006141901016235 -9.900030136108398 33.327735900878906 190 181 163
-3.819425344467163 7.175935745239258 37.649662017822266 100 98 100
5.4219255447387695 5.2999677658081055 27.809371948242188 74 70 60
-11.45201587677002 -10.431154251098633 40.59957504272461 87 90 92
-3.402061700820923 -7.9692912101745605 32.50595474243164 144 145 147
-4.222474098205566 -8.274577140808105 34.41102600097656 141 142 143
-4.852804660797119 4.868484020233154 37.98490905761719 26 20 25
-4.852706432342529 4.868369102478027 37.984039306640625 26 20 25
-12.59990406036377 6.9289164543151855 33.44429016113281 83 75 76
-8.992749214172363 -8.397482872009277 39.796180725097656 41 34 30
-12.699405670166016 6.976574420928955 33.69368362426758 83 75 76
-13.862836837768555 8.11347770690918 33.32913589477539 59 48 44
-2.7642879486083984 -6.227887153625488 35.80381393432617 27 24 25
3.5595412254333496 -4.875886917114258 31.232744216918945 165 158 144
4.420910358428955 -4.71272087097168 30.161224365234375 48 38 30
-5.648202896118164 2.4906322956085205 38.305274963378906 169 163 168
3.7155916690826416 -4.816919803619385 31.210315704345703 47 39 25
3.727410078048706 -4.835051536560059 32.28937911987305 48 40 26
4.380914211273193 -4.393894195556641 29.89076042175293 41 32 20
4.302722454071045 -4.234976291656494 30.043624877929688 42 34 23
3.4546964168548584 -4.343725681304932 31.667158126831055 132 125 109
-10.781747817993164 1.9550024271011353 39.533782958984375 91 90 89
6.682196617126465 1.300937294960022 36.00721740722656 137 134 121
-2.1095316410064697 -11.706228256225586 32.4502067565918 82 81 81
-5.169594764709473 1.3543736934661865 38.61997604370117 121 116 117
-6.700442314147949 1.25676691532135 39.590389251708984 115 113 133
-5.958961486816406 0.4874996244907379 39.672977447509766 174 168 173
-13.71673583984375 6.863219261169434 33.3568229675293 127 119 122
-4.513045787811279 4.01745080947876 37.802669525146484 94 93 98
0.43403178453445435 -14.409082412719727 26.278139114379883 113 110 114
-4.801314353942871 9.240111351013184 37.62092590332031 10 6 6
-0.5617527365684509 -14.00731086730957 27.064199447631836 141 140 142
-4.8016815185546875 9.24086856842041 37.62397384643555 10 6 6
-8.864279747009277 10.800453186035156 35.66806411743164 161 149 134
0.3618260324001312 -9.39621353149414 40.2160530090332 108 98 86
1.7403507232666016 -10.53865909576416 25.62680435180664 119 119 126
-2.4693291187286377 -14.435300827026367 31.883371353149414 33 30 30
-12.723971366882324 7.110246181488037 33.52814483642578 61 52 51
-3.461686611175537 9.386122703552246 36.323951721191406 23 20 20
-4.646926403045654 -6.076147079467773 35.85036087036133 22 21 23
-0.732132077217102 16.360755920410156 28.47709083557129 115 109 97
-10.449029922485352 4.753294944763184 36.393775939941406 27 18 13
-1.0379071235656738 18.079730987548828 31.935218811035156 179 173 161
-3.641242265701294 -11.553816795349121 33.747318267822266 49 48 46
-12.260542869567871 8.236210823059082 36.52634048461914 26 20 19
-12.377976417541504 9.5694580078125 34.01632308959961 58 49 47
-3.709649085998535 -3.8051090240478516 36.36170959472656 117 116 117
-7.436003684997559 -4.371668815612793 41.10524368286133 39 40 54
-5.82651948928833 -4.129764080047607 38.24935531616211 36 36 38
-8.405426979064941 1.0436264276504517 40.45337677001953 44 44 58
-4.833109378814697 7.0742340087890625 37.797210693359375 24 19 21
-7.533062934875488 1.1881710290908813 40.11077880859375 10 10 31
-12.811476707458496 7.295796871185303 34.57114028930664 123 117 117
-5.842700004577637 0.0845612958073616 37.957820892333984 123 120 134
-4.8217387199401855 16.9736270904541 27.680192947387695 165 162 155
-3.539555788040161 -9.59682559967041 34.382591247558594 53 53 52
-3.6290903091430664 8.516012191772461 37.06391906738281 159 155 157
-3.7361512184143066 9.496264457702637 36.8742790222168 29 25 26
-12.479925155639648 8.27386474609375 34.1496467590332 63 53 49
-0.9208841323852539 18.425277709960938 30.623058319091797 66 62 51
-11.620234489440918 5.39893913269043 39.76316452026367 75 66 61
-0.8878185749053955 -14.865057945251465 31.211458206176758 80 77 79
-3.736274242401123 9.496611595153809 36.87574768066406 29 25 26
-8.495189666748047 4.819994926452637 39.05593490600586 149 143 139
-4.717563629150391 8.319611549377441 37.900428771972656 109 104 106
-3.691561460494995 9.294828414916992 36.88721466064453 96 94 96
-3.8532280921936035 2.9651224613189697 37.792842864990234 105 103 108
-7.525027275085449 -6.274683952331543 38.925777435302734 128 129 133
-8.089604377746582 10.512884140014648 34.535858154296875 105 97 82
-0.8101186156272888 18.31875991821289 32.51019287109375 172 166 154
-4.6715989112854 6.0137200355529785 38.05628967285156 33 27 28
-10.42997932434082 5.50996208190918 34.489418029785156 117 110 120
-3.5966756343841553 10.694765090942383 36.86443328857422 63 59 60
-5.792812347412109 -1.8473302125930786 37.246673583984375 39 37 41
-7.575021266937256 -6.01430606842041 38.16455078125 129 130 137
-3.8119568824768066 2.669278144836426 37.96538162231445 92 90 91
-1.4576244354248047 17.841703414916992 35.11356735229492 135 130 121
-4.315443515777588 -6.159185886383057 36.000244140625 24 24 25
-9.14706802368164 2.887529134750366 40.079532623291016 33 24 19
-2.350074052810669 17.794273376464844 34.23634719848633 177 170 160
-4.670615196228027 -5.0839762687683105 36.56585693359375 72 72 74
-6.121469020843506 1.0728353261947632 38.81714630126953 169 164 175
-7.690255165100098 -7.547689437866211 39.87938690185547 60 60 65
-7.165751934051514 3.360422134399414 33.572574615478516 69 62 58
-8.900875091552734 -9.016901016235352 40.55192565917969 97 91 91
-10.888389587402344 3.6700832843780518 36.11000442504883 153 144 133
-5.3445844650268555 16.00181007385254 34.73249435424805 61 55 47
-4.468128204345703 -7.9923834800720215 34.157859802246094 72 70 72
-10.715868949890137 7.748641490936279 38.42524337768555 48 42 50
-13.226286888122559 9.229941368103027 36.16291427612305 127 117 111
-2.74556303024292 -8.236471176147461 34.60197448730469 124 122 121
-13.660706520080566 6.020309925079346 31.424367904663086 93 88 90
-11.663900375366211 7.8817057609558105 36.09925079345703 103 96 97
-2.665712356567383 6.213065147399902 38.06421661376953 42 42 36
-2.516695261001587 17.643611907958984 31.18820571899414 143 136 127
-14.070751190185547 9.349841117858887 33.998497009277344 135 124 116
-1.5335839986801147 17.540939331054688 33.706966400146484 122 118 108
-8.34598159790039 -3.3258907794952393 40.14918518066406 97 96 105
-10.07357406616211 6.860383033752441 37.18109893798828 50 46 58
-4.469258785247803 -11.91882038116455 35.462158203125 46 45 46
-9.42205810546875 0.8963717222213745 40.45729064941406 54 44 40
-10.81003189086914 6.668084621429443 35.92624282836914 65 58 69
-7.626468181610107 -8.64155387878418 39.29336929321289 78 76 81
-1.0022276639938354 17.904794692993164 32.464717864990234 119 113 101
-12.585223197937012 8.694512367248535 33.612701416015625 66 55 49
-13.325712203979492 9.657502174377441 31.81476402282715 31 19 13
-7.836616039276123 -4.621424198150635 41.074581146240234 138 139 149
-8.920990943908691 5.772022247314453 39.374977111816406 127 124 140
-6.241016864776611 16.24395179748535 28.132495880126953 112 106 98
-3.790616512298584 4.962534427642822 37.978004455566406 78 77 85
-6.156607151031494 3.4629650115966797 38.54918670654297 32 32 58
-5.974977493286133 3.6567211151123047 39.831295013427734 39 35 59
2.9201302528381348 -11.692953109741211 20.964723587036133 126 122 122
0.6032646298408508 -13.967425346374512 25.599361419677734 62 59 61
-12.699237823486328 6.9764909744262695 33.69322204589844 83 75 76
1.823687195777893 -11.610272407531738 21.802309036254883 36 32 36
-10.379119873046875 7.700949668884277 36.988380432128906 119 112 113
-12.21181869506836 7.667147159576416 37.095375061035156 73 67 69
-1.2234963178634644 -15.180014610290527 29.35968589782715 102 100 100
-0.6138131618499756 -14.229402542114258 27.51838493347168 140 139 141
-12.58639907836914 6.982799530029297 33.84489059448242 17 9 11
-0.8531020283699036 -13.406397819519043 28.381793975830078 123 120 122
-2.1298654079437256 -14.178267478942871 31.184682846069336 40 37 36
-10.715734481811523 7.74853515625 38.42475891113281 48 42 50
3.677161693572998 -10.878229141235352 24.57691764831543 76 74 76
-3.519388198852539 7.225683689117432 36.74594497680664 13 10 11
1.7403086423873901 -10.538481712341309 25.626394271850586 119 119 126
1.3919017314910889 -10.622028350830078 26.278182983398438 38 38 41
0.8058132529258728 -10.546472549438477 26.47681999206543 141 138 142
-0.14459967613220215 -12.530315399169922 32.57696533203125 157 157 161
-3.557018756866455 -6.1275787353515625 34.29636764526367 119 121 123
-0.8391847610473633 -11.73072338104248 31.176517486572266 146 146 150
-1.7967718839645386 -10.757269859313965 29.444364547729492 139 139 139
-3.70181941986084 7.091703414916992 37.16041946411133 108 105 107
-3.224717855453491 -11.3892240524292 33.160099029541016 37 34 29
-3.6031153202056885 -11.244617462158203 33.44406509399414 139 139 137
-4.464306831359863 7.08882474899292 37.452781677246094 56 51 53
-3.4756007194519043 -10.58685302734375 33.83110046386719 97 95 92
-2.4481265544891357 -10.789234161376953 34.617652893066406 95 93 84
-2.757338285446167 -10.565845489501953 34.44650650024414 48 46 41
-1.8081374168395996 -10.242701530456543 34.01435089111328 127 118 103
-1.682016134262085 -10.15250015258789 34.158042907714844 191 182 163
-9.336541175842285 -11.893749237060547 40.31925582885742 29 25 25
-11.091001510620117 6.88612699508667 37.22553634643555 91 84 95
-3.7922635078430176 -9.643957138061523 36.00381088256836 146 147 147
-4.101745128631592 -8.022226333618164 33.30425262451172 141 141 143
-3.681758165359497 -8.41690444946289 34.86542892456055 23 23 24
-9.145089149475098 -9.665350914001465 40.49403381347656 25 20 28
-2.7455873489379883 -8.236536979675293 34.602237701416016 124 122 121
-4.242223262786865 -8.316740036010742 35.146820068359375 43 43 44
-8.960308074951172 6.831365585327148 38.57182693481445 75 74 88
-11.13422966003418 6.730173587799072 37.874855041503906 84 78 93
-8.935076713562012 -9.066789627075195 40.679779052734375 103 97 96
-9.647287368774414 -8.821351051330566 40.98152160644531 132 121 114
-9.307001113891602 -8.644109725952148 40.92753219604492 55 46 43
-9.596410751342773 -8.370087623596191 41.1447639465332 111 100 93
-7.998454570770264 -6.556754112243652 35.34700393676758 102 93 90
-3.663435697555542 6.1028032302856445 36.03105545043945 97 95 96
4.249417304992676 -5.0220046043396 30.614051818847656 57 50 38
-8.46127986907959 -6.788077354431152 42.14418029785156 44 44 52
-8.015405654907227 -6.5953850746154785 41.995399475097656 129 131 134
4.421090126037598 -4.712900161743164 30.162328720092773 48 38 30
3.727238416671753 -4.847717761993408 32.055702209472656 50 44 30
4.38114070892334 -4.394144058227539 29.89216423034668 41 32 20
3.7689216136932373 -4.640831470489502 31.904905319213867 158 151 137
3.951509475708008 -4.484295845031738 31.299354553222656 90 84 75
3.6714987754821777 -4.471166610717773 31.589126586914062 49 40 30
-7.444174289703369 -5.422147750854492 39.36347961425781 147 150 157
-3.4475650787353516 -4.678529262542725 34.01149368286133 123 122 123
3.9192161560058594 -3.583800792694092 31.40106964111328 165 158 142
-2.8036837577819824 -3.812016010284424 35.28854751586914 23 21 24
-10.76575756072998 5.705656051635742 35.69260025024414 111 105 114
-6.021913051605225 -3.1047182083129883 40.32398223876953 51 50 53
-2.805359125137329 -2.9168689250946045 37.53729248046875 28 26 23
-3.791486978530884 -2.67293381690979 37.260929107666016 105 105 108
-6.111766338348389 5.951991081237793 39.67496109008789 97 94 104
-10.895748138427734 5.322803020477295 36.7478141784668 92 85 91
-4.690345764160156 -1.7842847108840942 37.00015640258789 8 5 8
-10.467996597290039 4.922188758850098 36.081912994384766 108 100 94
-2.704397201538086 4.808937072753906 36.31330108642578 33 32 29
-4.54069709777832 4.912935733795166 37.817813873291016 116 112 117
-2.6732919216156006 -0.5936231017112732 37.677852630615234 112 109 104
-4.652454376220703 0.47703859210014343 38.141658782958984 117 112 112
-9.778924942016602 3.3934032917022705 32.34345245361328 113 104 93
-12.810140609741211 1.1431406736373901 33.854705810546875 168 167 164
-5.950185775756836 1.1684950590133667 34.45004653930664 100 99 126
-5.191843032836914 1.2875003814697266 38.987510681152344 112 107 108
-4.617424964904785 3.8665366172790527 38.04497146606445 39 34 41
-8.566007614135742 3.8011035919189453 40.663246154785156 107 102 97
-6.116288661956787 3.7062180042266846 40.58608627319336 45 40 66
-9.147045135498047 2.887524366378784 40.07942581176758 33 24 19
-2.910304307937622 2.8032259941101074 37.69681930541992 125 123 121
-6.152320384979248 3.459930896759033 38.51899719238281 32 32 58
-6.411848068237305 3.379486560821533 38.35002517700195 42 41 66
-13.747674942016602 7.282069683074951 33.44184112548828 124 115 111
-11.66170597076416 7.756773948669434 34.04545974731445 14 7 5
-12.9290771484375 8.09947681427002 34.31282424926758 31 20 14
-12.479061126708984 8.273367881774902 34.147274017333984 63 53 49
-4.801102161407471 9.239490509033203 37.618404388427734 10 6 6
-4.801269054412842 9.23997974395752 37.62041091918945 10 6 6
-4.516557693481445 9.284754753112793 37.40040588378906 13 8 9
-12.584794044494629 8.694252967834473 33.61162185668945 66 55 49
-3.7360899448394775 9.495939254760742 36.873069763183594 29 25 26
-12.69460391998291 8.784668922424316 33.932594299316406 88 77 71
-3.7361409664154053 9.49619197845459 36.8740119934082 29 25 26
4.9415411949157715 7.331480503082275 25.956674575805664 75 70 58
-7.612269401550293 10.287576675415039 36.09114456176758 138 129 121
-3.5970962047576904 10.696343421936035 36.87018966674805 63 59 60
-3.736889123916626 11.520992279052734 36.96221923828125 79 77 79
-12.633415222167969 10.980777740478516 33.79610824584961 95 86 78
-7.5987935066223145 13.895059585571289 39.01422119140625 67 62 60
-5.66085958480835 15.373458862304688 33.46272277832031 64 60 52
-2.983368158340454 17.0924129486084 33.16093444824219 86 77 67
-1.5335184335708618 17.54067611694336 33.70637512207031 122 118 108
-2.8259947299957275 17.287004470825195 32.088294982910156 97 91 81
-2.5168473720550537 17.64459800720215 31.1899356842041 143 136 127
-1.0640316009521484 18.42670440673828 32.098060607910156 79 73 63
-1.0021551847457886 17.903823852539062 32.46293640136719 119 113 101
-4.522800922393799 10.490428924560547 37.67047882080078 18 14 15
-10.750701904296875 4.102926254272461 36.9555778503418 165 155 143
-12.22299575805664 8.447129249572754 35.4146842956543 58 53 55
2.8604862689971924 -11.475128173828125 20.601577758789062 125 123 123
0.6030576825141907 -13.965682983398438 25.59625816345215 62 59 61
2.3051598072052 -11.924089431762695 22.070947647094727 109 104 104
-1.1950324773788452 -15.090673446655273 29.16164207458496 102 100 100
0.9773236513137817 -12.293808937072754 23.97604751586914 38 34 38
-2.0161139965057373 -14.0359525680542 28.418405532836914 38 35 34
-0.5405524373054504 -13.631064414978027 27.87083625793457 128 125 128
-2.2959232330322266 -16.020437240600586 34.939666748046875 74 70 70
-2.4766757488250732 -13.478565216064453 29.980205535888672 46 42 44
-2.592526435852051 -13.2802734375 29.691383361816406 48 43 44
2.6211531162261963 -9.78501033782959 22.69957160949707 139 138 140
-6.38986873626709 -15.305224418640137 35.93069839477539 81 80 82
1.226353406906128 -10.644028663635254 26.30667495727539 132 131 136
0.013529431074857712 -11.280279159545898 28.994667053222656 114 113 113
-0.663484513759613 -11.198051452636719 29.695558547973633 61 61 63
-3.1507670879364014 -11.143951416015625 32.544960021972656 34 31 27
-3.669186592102051 -11.386056900024414 33.98109436035156 140 140 139
-3.475212574005127 -10.585991859436035 33.828582763671875 97 95 92
-2.6273281574249268 -11.32634162902832 35.757957458496094 34 31 27
-3.6351683139801025 -11.11448860168457 35.556793212890625 73 71 69
-7.722047328948975 -12.067632675170898 39.262359619140625 18 18 22
-3.695019006729126 -9.345053672790527 34.93369674682617 147 148 148
-10.581827163696289 -10.49500846862793 39.934547424316406 48 40 33
-3.5929296016693115 -8.65428352355957 34.79534149169922 156 157 160
-3.9334518909454346 -7.773165702819824 32.1005859375 143 144 145
0.1989578753709793 -8.257244110107422 34.10581970214844 65 57 43
-9.220138549804688 -9.728954315185547 40.65055465698242 91 85 93
-3.6439907550811768 -8.106147766113281 34.546363830566406 125 124 125
-9.260656356811523 -9.579651832580566 40.57611083984375 47 40 44
-9.188942909240723 -8.751069068908691 41.01551818847656 99 92 90
-2.778067111968994 -7.211217880249023 34.92953109741211 66 65 65
-3.6696181297302246 -6.427382946014404 35.46976089477539 135 137 140
-2.642287254333496 -5.890676021575928 33.745338439941406 75 73 74
4.47141695022583 -4.888223648071289 30.543638229370117 168 161 147
3.450956344604492 -4.740822792053223 30.45403289794922 166 158 144
4.42111349105835 -4.712920188903809 30.162452697753906 48 38 30
3.896484136581421 -4.795896530151367 32.30450439453125 162 157 142
4.0240864753723145 -4.579610347747803 31.413768768310547 48 42 30
4.462777137756348 -4.639015197753906 32.1721305847168 35 27 16
3.496358871459961 -4.428731918334961 31.346723556518555 49 41 27
-7.7631378173828125 -5.492349624633789 39.360557556152344 147 151 159
-2.751157283782959 -3.7497403621673584 34.54519271850586 24 22 25
-7.135021686553955 -3.9767110347747803 39.07285690307617 132 133 147
-8.052225112915039 -3.907628059387207 40.90922546386719 132 132 139
-8.309340476989746 -2.9422926902770996 39.91730880737305 115 116 128
-3.5554823875427246 -1.6056054830551147 35.52047348022461 33 34 39
-3.8578853607177734 -0.40928447246551514 38.26649475097656 91 89 92
-5.755695819854736 0.45986703038215637 36.67543411254883 151 147 154
-4.653354644775391 0.4771207571029663 38.148738861083984 117 112 112
-9.981858253479004 0.8499317169189453 41.004241943359375 124 110 104
-9.241193771362305 1.0705840587615967 40.31509017944336 88 79 79
-5.823460102081299 1.0218439102172852 39.296199798583984 143 138 142
-13.243937492370605 1.1548969745635986 35.054996490478516 154 152 150
-5.724377632141113 1.3491154909133911 38.03535079956055 53 50 53
-10.931227684020996 1.7864367961883545 39.60117721557617 216 217 217
-6.2695183753967285 2.2857913970947266 37.6668701171875 19 15 26
-2.5184426307678223 2.4776177406311035 33.02252960205078 121 119 116
-14.171236038208008 3.132990837097168 37.311553955078125 154 141 130
-9.339545249938965 3.2498579025268555 30.72218894958496 107 98 87
-11.113476753234863 4.339801788330078 36.26214599609375 95 86 75
-10.81263542175293 4.5081024169921875 36.338565826416016 116 107 96
-10.734975814819336 5.580488681793213 35.55803680419922 109 103 112
-11.88651180267334 6.458085060119629 39.381473541259766 15 11 22
-3.764634132385254 6.271414756774902 37.188716888427734 106 103 104
