ply
format ascii 1.0
element vertex 710
property float x
property float y
property float z
property uchar red
property uchar green
property uchar blue
end_header
-1.4719072580337524 2.0645322799682617 7.112006187438965 12 8 11
-1.4582167863845825 1.2508583068847656 7.031126499176025 30 23 23
-1.4582167863845825 1.2508583068847656 7.031126499176025 30 23 23
-1.4582167863845825 1.2508583068847656 7.031126499176025 30 23 23
-1.3015161752700806 2.8783271312713623 6.300084590911865 81 74 69
-1.1111632585525513 2.8665783405303955 5.4378132820129395 90 83 79
-1.4200026988983154 0.5939624905586243 6.921657562255859 90 84 86
-1.4463268518447876 1.8341320753097534 7.09757137298584 76 71 72
-1.3704633712768555 -1.4371676445007324 6.757617473602295 70 66 75
-1.3704633712768555 -1.4371676445007324 6.757617473602295 70 66 75
-1.4062227010726929 0.9474871754646301 6.950242519378662 68 62 64
-1.250240445137024 2.877687692642212 6.193655014038086 149 142 137
-1.338338851928711 0.133951336145401 6.665282726287842 66 60 72
-1.293336272239685 -0.8274240493774414 6.534109592437744 73 67 71
-1.3086419105529785 -0.43589043617248535 6.599002361297607 74 68 75
-1.3060109615325928 -0.2061590552330017 6.626770973205566 73 69 81
-1.3060109615325928 -0.2061590552330017 6.626770973205566 73 69 81
-1.2217307090759277 -1.1010639667510986 6.195366859436035 75 68 74
-1.2468047142028809 -3.065768003463745 6.363403797149658 70 61 56
-1.081931471824646 2.9053869247436523 5.554902076721191 80 75 72
-1.3237351179122925 -1.8570573329925537 6.78698205947876 73 68 75
-1.0992581844329834 -1.3347289562225342 5.754894733428955 64 58 65
-1.0446298122406006 -1.2162343263626099 5.503688335418701 67 62 67
-1.3464044332504272 1.9197520017623901 6.9557881355285645 64 59 60
-1.2697906494140625 -0.0560896061360836 6.561561584472656 91 84 87
-1.1820032596588135 -0.6880653500556946 6.224889278411865 65 59 60
-1.3205020427703857 1.35160231590271 6.89755916595459 66 61 61
-1.20331609249115 -0.3178384006023407 6.389732837677002 56 51 52
-1.2220548391342163 -0.24073520302772522 6.424858570098877 61 57 69
-0.9648693799972534 -1.8845535516738892 5.186112880706787 68 64 69
-1.2288898229599 0.06392255425453186 6.53928804397583 87 82 83
-1.1634044647216797 -2.3455309867858887 6.160161972045898 55 50 56
-1.1365339756011963 -1.702185869216919 6.009006977081299 57 51 53
-1.3032702207565308 2.0637764930725098 6.9190568923950195 97 92 94
-1.157549262046814 -2.9925222396850586 6.166897296905518 58 48 42
-1.2130162715911865 -1.2112512588500977 6.452130317687988 86 81 84
-1.214613914489746 -0.11925280094146729 6.463645935058594 20 14 16
-1.2695553302764893 0.9753370881080627 6.774408340454102 69 63 67
-1.3335909843444824 2.807901382446289 7.120285511016846 47 38 33
-1.178295612335205 -2.646026849746704 6.328711032867432 47 40 40
-1.153909683227539 2.885894298553467 6.100800514221191 79 72 67
-1.2099395990371704 -1.3449504375457764 6.513415813446045 48 44 49
-1.2633167505264282 1.451297640800476 6.788501739501953 26 20 20
-1.2033392190933228 -0.31783995032310486 6.38984489440918 56 51 52
-1.2984102964401245 -1.6805908679962158 7.0053911209106445 53 47 47
-1.2969552278518677 -1.979069471359253 7.120352745056152 69 64 61
-1.2673109769821167 -1.4629957675933838 6.901194095611572 37 34 34
-1.0027579069137573 2.8958382606506348 5.4749579429626465 71 65 61
-1.1413354873657227 -0.7948008179664612 6.25654411315918 73 67 76
-1.0336061716079712 2.8739640712738037 5.690616130828857 105 99 95
-1.3306076526641846 -2.650524616241455 7.321028232574463 84 79 85
-1.175814151763916 0.1673147976398468 6.476876258850098 85 82 94
-1.27684485912323 -2.161190986633301 7.032444953918457 38 29 28
-1.2998491525650024 -1.9673142433166504 7.2483391761779785 124 118 113
-1.2146512269973755 2.000757932662964 6.817534446716309 67 61 62
-1.228879451751709 -1.862853765487671 6.889782428741455 123 118 112
-1.1506468057632446 0.3181038498878479 6.440173149108887 72 66 71
-1.1436872482299805 -2.6639649868011475 6.411370277404785 76 70 70
-1.1659446954727173 0.7402873635292053 6.584227561950684 60 55 63
-1.3179410696029663 -2.0522775650024414 7.473485946655273 56 52 49
-1.2012609243392944 -1.016510009765625 6.8557353019714355 83 78 81
-1.0715408325195312 -0.6149235963821411 6.1760687828063965 79 74 79
-1.1077280044555664 -2.4832193851470947 6.4109578132629395 68 63 66
-1.054010033607483 -2.8328804969787598 6.113432884216309 65 58 55
-1.006098985671997 2.9282748699188232 5.830279350280762 116 109 105
-1.0645688772201538 -2.5360217094421387 6.2124409675598145 64 59 60
-1.0156137943267822 -0.8726406097412109 6.094686031341553 61 57 59
-1.0156137943267822 -0.8726406097412109 6.094686031341553 61 57 59
-1.026612401008606 -0.49822962284088135 6.197690963745117 72 67 69
-1.0109243392944336 -0.5364329218864441 6.036035060882568 101 97 99
-1.036476969718933 -0.17065101861953735 6.179554462432861 81 77 82
-1.0391902923583984 -0.21368971467018127 6.180915832519531 96 92 98
-1.0119372606277466 -0.8083414435386658 6.048707008361816 76 72 79
-0.976984977722168 -2.3930721282958984 5.849569320678711 71 66 67
-0.8858891129493713 -2.120410919189453 5.400500297546387 79 74 75
-1.0264716148376465 -0.49815571308135986 6.1969075202941895 72 67 69
-1.0433605909347534 -0.11288496851921082 6.25098991394043 26 20 21
-0.979302704334259 2.8800289630889893 5.870337963104248 147 138 131
-1.0172854661941528 -0.63880455493927 6.208330154418945 86 81 83
-1.0351521968841553 0.15110087394714355 6.32584810256958 89 84 87
-1.0689443349838257 1.4606809616088867 6.567858695983887 125 120 119
-1.0064949989318848 -0.22272497415542603 6.212523460388184 66 62 68
-1.1296277046203613 -1.925371766090393 7.140375137329102 50 47 43
-1.1296277046203613 -1.925371766090393 7.140375137329102 50 47 43
-1.165708065032959 -1.7379854917526245 7.2806806564331055 39 29 20
-0.6824631690979004 -1.336215615272522 4.290514945983887 43 37 33
-0.938445508480072 -0.7840017080307007 5.911527156829834 76 71 79
-1.0654125213623047 2.297865152359009 6.692088603973389 103 97 96
-1.0401122570037842 1.7928428649902344 6.555905342102051 69 64 63
-0.9400822520256042 -0.9538617730140686 5.952522277832031 80 76 82
-1.1926589012145996 -1.9535391330718994 7.635210037231445 41 34 27
-0.9122947454452515 2.8691954612731934 5.886618137359619 112 105 99
-0.8406667709350586 2.8874576091766357 5.397461414337158 112 105 102
-0.9654850363731384 0.1629074215888977 6.222451686859131 66 59 65
-0.9412204027175903 -1.1813762187957764 6.134344100952148 81 77 86
-0.8873193860054016 2.8691565990448 5.748090744018555 151 143 138
-0.9747244715690613 0.5541881322860718 6.329481601715088 68 61 64
-0.9286890029907227 -0.4861396551132202 6.051831245422363 14 10 13
-0.8627347946166992 2.8628993034362793 5.661411285400391 73 65 61
-0.9227442145347595 -0.6293856501579285 6.085309028625488 81 76 78
-0.7548965811729431 -1.8262113332748413 5.134311676025391 85 81 87
-0.8731890916824341 -0.8069175481796265 5.910336971282959 80 76 79
-0.7117573618888855 -1.6965203285217285 4.918013572692871 71 68 69
-0.8407687544822693 -2.5187151432037354 5.792916297912598 54 47 47
-0.8873699307441711 -0.6343668103218079 6.064408779144287 105 101 104
-0.9210566282272339 -2.965872049331665 6.2955803871154785 63 57 54
-0.8157626986503601 2.8739051818847656 5.591032981872559 97 91 87
-0.9503140449523926 1.7489070892333984 6.386470317840576 83 79 78
-0.9003715515136719 -1.9400479793548584 6.199357509613037 47 41 34
-0.9601292610168457 -1.990141749382019 6.671579837799072 34 27 21
-0.9076758027076721 2.837632656097412 6.251956462860107 61 53 48
-0.8322849273681641 -0.6668317317962646 5.8959503173828125 40 35 36
-0.824530303478241 2.859616756439209 5.739261150360107 131 123 118
-0.8377026319503784 -0.5449890494346619 5.922360420227051 112 111 117
-0.8319799304008484 -0.7904369831085205 5.90003776550293 96 92 97
-0.8676851391792297 0.2282889187335968 6.1544270515441895 74 67 74
-0.8160634636878967 -0.9027177095413208 5.809606075286865 88 81 88
-0.8672202825546265 -2.2054896354675293 6.19363260269165 76 72 75
-0.872160792350769 0.6791503429412842 6.237390041351318 126 120 125
-0.8555389642715454 0.2796545922756195 6.095386505126953 18 13 15
-0.8555389642715454 0.2796545922756195 6.095386505126953 18 13 15
-0.8218618035316467 -1.0393166542053223 5.822988510131836 125 121 123
-0.8322951793670654 -0.666840672492981 5.8960280418396 40 35 36
-0.8322951793670654 -0.666840672492981 5.8960280418396 40 35 36
-0.8086599707603455 -1.3543298244476318 5.8572492599487305 26 17 13
-0.8722755312919617 1.4630135297775269 6.318169593811035 24 18 19
-0.8646864295005798 1.0586220026016235 6.249040126800537 17 12 11
-0.8646864295005798 1.0586220026016235 6.249040126800537 17 12 11
-0.8053310513496399 -2.195573329925537 5.905470848083496 74 70 77
-0.8669402599334717 1.8323733806610107 6.384281635284424 90 85 87
-0.8415271043777466 0.7843296527862549 6.123602867126465 72 65 70
-0.8415243625640869 0.784325122833252 6.123581409454346 72 65 70
-0.7974537014961243 -0.6026659607887268 5.87904167175293 99 96 100
-0.8144353032112122 -0.5732470750808716 6.078864574432373 93 89 95
-0.7950623631477356 0.19037948548793793 5.987386703491211 70 62 72
-0.7593739032745361 -0.7752000093460083 5.801424026489258 83 79 85
-0.7593739032745361 -0.7752000093460083 5.801424026489258 83 79 85
-0.8482065200805664 1.7413524389266968 6.314937114715576 82 77 78
-0.8145256042480469 -0.5733139514923096 6.0795722007751465 93 89 95
-0.8011285066604614 0.7916492819786072 6.149398326873779 63 57 67
-0.7350552082061768 -2.2199883460998535 5.756307601928711 114 115 122
-0.5948140621185303 -1.69282865524292 4.785183906555176 93 92 94
-0.7267031073570251 2.808702230453491 5.867358684539795 122 115 111
-0.7163793444633484 -1.7661547660827637 5.8600873947143555 28 21 16
-0.7611437439918518 2.8224124908447266 6.2445149421691895 69 61 53
-0.7201220393180847 -0.6135480403900146 5.918919086456299 84 79 80
-0.7279974222183228 0.5250006914138794 5.981377601623535 68 61 67
-0.7199929356575012 -1.1968116760253906 5.966673851013184 85 81 89
-0.6408817768096924 -2.1065123081207275 5.333466529846191 90 90 97
-0.7347171306610107 2.833160877227783 6.101031303405762 120 112 107
-0.6543663740158081 2.8553409576416016 5.4491658210754395 152 143 138
-0.6399145126342773 -1.1618417501449585 5.503464221954346 118 113 117
-0.7126862406730652 1.2138642072677612 6.135410785675049 83 79 85
-0.6252783536911011 -0.8231914639472961 5.499341011047363 99 95 96
-0.6593195199966431 -0.467115581035614 5.658991813659668 22 16 17
-0.48128175735473633 -1.3497949838638306 4.228654861450195 67 62 60
-0.48128175735473633 -1.3497949838638306 4.228654861450195 67 62 60
-0.7314393520355225 -2.402520179748535 6.38751220703125 85 82 90
-0.6900060772895813 -2.3497612476348877 6.045500755310059 86 84 92
-0.6500046849250793 -1.237295150756836 5.724347114562988 31 26 29
-0.6257867217063904 2.915454626083374 5.535630702972412 109 101 95
-0.6607469916343689 0.8631395697593689 5.964878559112549 13 8 10
-0.6252659559249878 -0.82318115234375 5.499255657196045 99 95 96
-0.6033860445022583 -1.188659429550171 5.483521461486816 23 18 22
-0.6131948828697205 -0.9477484822273254 5.5921711921691895 87 83 88
-0.5871403813362122 -2.684250593185425 5.404933452606201 74 67 64
-0.6580056548118591 1.8193824291229248 6.086184024810791 83 78 78
-0.6511422395706177 1.1048238277435303 6.0110087394714355 71 66 69
-0.6585493087768555 2.1001877784729004 6.112542629241943 51 46 46
-0.6292179822921753 0.7695024013519287 5.77322244644165 65 57 66
-0.6445491909980774 1.4828859567642212 6.014209270477295 75 69 70
-0.490379273891449 -1.249243974685669 4.6326141357421875 129 132 136
-0.6406623125076294 1.3992890119552612 6.028457164764404 81 74 75
-0.5492228865623474 -1.3881027698516846 5.25112771987915 110 113 117
-0.5073071718215942 -1.2057342529296875 4.90669059753418 114 112 118
-0.6094079613685608 0.8964118361473083 5.869520664215088 95 93 95
-0.593024492263794 0.37491652369499207 5.7882399559021 70 62 72
-0.6057476997375488 1.009126901626587 5.9425153732299805 91 88 90
-0.6154045462608337 1.7988594770431519 6.0525054931640625 62 57 57
-0.608408510684967 2.816622495651245 6.185227394104004 70 60 53
-0.34934258460998535 -0.9951115846633911 3.5467369556427 110 112 113
-0.53831946849823 -0.6043065190315247 5.574830055236816 82 76 79
-0.5466603636741638 -0.3059195578098297 5.703742027282715 77 73 77
-0.5296866297721863 -0.9583974480628967 5.540627956390381 86 82 89
-0.5537892580032349 0.8946679830551147 5.8071208000183105 99 96 98
-0.5709213018417358 0.9015567898750305 6.082157135009766 56 51 54
-0.5255300402641296 -0.7542588114738464 5.601827621459961 88 84 90
-0.5305336117744446 -0.35489991307258606 5.655944347381592 72 67 78
-0.4917087256908417 -1.138869285583496 5.3965559005737305 96 93 99
-0.5405394434928894 1.0156524181365967 5.912093162536621 68 62 65
-0.5219834446907043 2.771413803100586 6.008115291595459 69 60 53
-0.5267829298973083 0.9325528144836426 5.806954860687256 68 62 67
-0.2675800025463104 -0.8339773416519165 3.016071319580078 81 82 83
-0.2675800025463104 -0.8339773416519165 3.016071319580078 81 82 83
-0.4585109353065491 -2.435490608215332 5.252007484436035 49 42 39
-0.4585109353065491 -2.435490608215332 5.252007484436035 49 42 39
-0.5108947157859802 0.4086873531341553 5.792137622833252 89 83 84
-0.4522929787635803 -0.996423065662384 5.31634521484375 67 62 62
-0.5191029906272888 2.811814785003662 5.990631580352783 72 63 56
-0.5010929703712463 1.6826766729354858 5.946061611175537 103 96 93
-0.442605197429657 -0.8715717196464539 5.182190418243408 106 101 109
-0.4741857945919037 -2.068904161453247 5.597915172576904 118 113 114
-0.3950209617614746 -1.1677827835083008 4.53312873840332 91 90 90
-0.49911627173423767 1.572643756866455 5.8891496658325195 56 49 46
-0.5011488199234009 1.8840954303741455 5.937491416931152 20 15 15
-0.4785846173763275 0.6773294806480408 5.699053764343262 27 21 23
-0.4523289203643799 -0.996491014957428 5.316736698150635 67 62 62
-0.4871463477611542 1.474668264389038 5.855862140655518 25 18 18
-0.4622158408164978 0.22495514154434204 5.631051540374756 99 97 100
-0.4253601133823395 -2.3718197345733643 5.121772766113281 80 73 70
-0.43610116839408875 -2.6641929149627686 5.599940776824951 77 72 71
-0.4355085790157318 0.3070959448814392 5.585330486297607 21 16 17
-0.4230650067329407 0.1818484365940094 5.6426520347595215 87 84 88
-0.36707064509391785 -0.8278709650039673 4.805724620819092 106 102 109
-0.36707064509391785 -0.8278709650039673 4.805724620819092 106 102 109
-0.40308165550231934 -1.1196428537368774 5.3416008949279785 101 98 104
-0.4342668056488037 2.278172254562378 5.888345718383789 15 10 11
-0.4342668056488037 2.278172254562378 5.888345718383789 15 10 11
-0.3659666180610657 -2.6327402591705322 5.11419153213501 80 72 70
-0.3806256949901581 -0.9358229637145996 5.389408588409424 95 90 98
-0.4018169641494751 1.791961431503296 5.753195762634277 57 51 51
-0.37962839007377625 -0.7509597539901733 5.410478591918945 139 144 146
-0.37962839007377625 -0.7509597539901733 5.410478591918945 139 144 146
-0.3819824755191803 0.007316561881452799 5.488176345825195 103 103 114
-0.3819824755191803 0.007316561881452799 5.488176345825195 103 103 114
-0.4006534516811371 1.9372814893722534 5.778173446655273 82 80 79
-0.40364372730255127 2.229947805404663 5.848110198974609 63 58 62
-0.3630230724811554 -0.8541195392608643 5.33965539932251 97 93 97
-0.3621160089969635 -0.7112725377082825 5.453662395477295 128 132 136
-0.37262049317359924 2.8274354934692383 5.640820503234863 76 70 65
-0.34631624817848206 -0.0719522014260292 5.4066667556762695 48 43 46
-0.3367367684841156 -0.7200934886932373 5.287729263305664 114 119 122
-0.2932393550872803 -1.1448943614959717 4.615574359893799 106 106 114
-0.32903018593788147 -1.0857595205307007 5.242359638214111 121 121 124
-0.31171709299087524 -1.1985543966293335 4.953716278076172 105 103 112
-0.3592098355293274 2.8167319297790527 5.707395076751709 71 64 57
-0.335369348526001 -1.7735645771026611 5.432085037231445 115 112 114
-0.33015015721321106 -0.922921359539032 5.353610038757324 93 89 96
-0.2996910512447357 -1.2109848260879517 4.90202522277832 114 113 122
-0.31868863105773926 -0.7907404899597168 5.301719665527344 137 140 144
-0.3171190917491913 -0.12446925789117813 5.390510082244873 83 77 85
-0.3295508027076721 2.23895263671875 5.730522632598877 52 48 49
-0.30705687403678894 1.207775592803955 5.560764789581299 77 72 72
-0.30685901641845703 -0.5778668522834778 5.321235656738281 84 80 86
-0.3022118806838989 -0.851582407951355 5.322168827056885 118 114 118
-0.3029000163078308 -0.6079216599464417 5.340253829956055 93 88 90
-0.34520021080970764 -2.341428518295288 6.165081024169922 88 85 83
-0.32159900665283203 1.5998384952545166 5.666611194610596 61 55 54
-0.27426373958587646 -1.755110502243042 4.972548007965088 90 85 88
-0.262978732585907 -2.397012233734131 4.779144287109375 79 74 76
-0.3143915832042694 2.0438265800476074 5.765166759490967 43 37 37
-0.3127148151397705 2.1036503314971924 5.7367424964904785 46 41 43
-0.2902984023094177 -0.15929876267910004 5.3657965660095215 57 51 62
-0.27355319261550903 -1.3075323104858398 5.110642433166504 117 117 120
-0.2958998680114746 2.817462682723999 5.5276360511779785 107 103 97
-0.2916131913661957 -1.1105036735534668 5.234335899353027 107 105 108
-0.27280569076538086 -1.04249107837677 5.203186511993408 76 71 75
-0.29815101623535156 1.5191035270690918 5.6542205810546875 45 39 38
-0.30271652340888977 -0.522727906703949 5.584373474121094 85 81 87
-0.30271589756011963 -0.5227272510528564 5.584360599517822 85 81 87
-0.291025310754776 2.795119047164917 5.618772983551025 81 73 66
-0.29879969358444214 1.5989494323730469 5.786612033843994 69 63 62
-0.29283303022384644 2.3824820518493652 5.570894241333008 50 44 42
-0.2629285752773285 -2.253856658935547 5.370081424713135 96 92 97
-0.279714971780777 1.2203222513198853 5.6446428298950195 56 51 52
-0.28463974595069885 2.02532696723938 5.7227067947387695 50 46 45
-0.25983256101608276 -2.0805485248565674 5.35476541519165 109 106 108
-0.232489675283432 -2.250241756439209 4.843078136444092 88 84 90
-0.26475638151168823 0.6148194670677185 5.5255842208862305 87 85 84
-0.2646264135837555 1.093376874923706 5.5706071853637695 56 52 54
-0.22295312583446503 -2.132240056991577 4.954462051391602 91 87 93
-0.23370960354804993 -0.12895028293132782 5.556611061096191 60 55 60
-0.22853942215442657 -0.4168645143508911 5.4811177253723145 63 59 68
-0.23680196702480316 0.4202969968318939 5.531096935272217 63 56 59
-0.22121943533420563 -0.8439433574676514 5.301814079284668 89 85 88
-0.22805602848529816 -0.6951616406440735 5.514209747314453 82 77 78
-0.19841961562633514 -2.2627806663513184 4.968057632446289 107 102 105
-0.22256091237068176 -0.3311547338962555 5.491325378417969 65 58 66
-0.22245758771896362 0.06820116937160492 5.572633266448975 60 54 63
-0.21811023354530334 0.7397223114967346 5.501865863800049 60 53 57
-0.20605379343032837 2.787017583847046 5.82942533493042 81 71 61
-0.15589375793933868 -1.4083958864212036 4.45479679107666 114 111 109
-0.17460449039936066 -1.8552708625793457 5.389978885650635 70 64 63
-0.20124225318431854 2.22035813331604 5.830399513244629 43 39 38
-0.18354207277297974 -0.9439498782157898 5.441349506378174 71 63 67
-0.17832373082637787 -1.403486967086792 5.342134952545166 82 77 78
-0.18652094900608063 0.35764646530151367 5.544038772583008 65 59 58
-0.1705223023891449 -1.2734185457229614 5.219843864440918 100 101 101
-0.1416528820991516 -0.9726889729499817 4.499800682067871 120 113 110
-0.17397844791412354 -0.10879579931497574 5.532001495361328 66 60 61
-0.1709091067314148 -0.7272751927375793 5.489958763122559 85 80 81
-0.1812247931957245 2.15793776512146 5.8764328956604 44 41 41
-0.1770293414592743 2.374197483062744 5.889993667602539 48 44 40
-0.16502897441387177 -0.4263743460178375 5.5319294929504395 75 69 69
-0.16502897441387177 -0.4263743460178375 5.5319294929504395 75 69 69
-0.170243501663208 -0.8896521329879761 5.8413801193237305 56 48 43
-0.19253511726856232 -2.3461265563964844 7.539717674255371 135 130 117
-0.16293494403362274 -0.24053773283958435 5.5445876121521 94 89 85
-0.15896400809288025 -0.1228627935051918 5.583398818969727 79 72 70
-0.14950934052467346 -0.2771204113960266 5.666294574737549 100 91 80
-0.15228085219860077 0.3986068665981293 5.588832855224609 111 102 89
-0.15273474156856537 0.9182419180870056 5.636046409606934 106 100 90
-0.13324014842510223 -1.8507707118988037 5.158041477203369 57 52 45
-0.13073550164699554 0.09832743555307388 5.608588218688965 136 128 114
-0.12627430260181427 -0.4295758605003357 5.506434917449951 161 153 136
-0.12442521750926971 2.2244856357574463 5.891044616699219 64 56 48
-0.12442521750926971 2.2244856357574463 5.891044616699219 64 56 48
-0.13171648979187012 2.098193407058716 5.870604515075684 80 73 60
-0.11573842912912369 -1.817106008529663 5.34410285949707 66 59 47
-0.1269250065088272 1.8321583271026611 5.897414684295654 105 97 84
-0.12112694978713989 2.8724091053009033 5.641031742095947 133 129 121
-0.11136491596698761 1.0942494869232178 5.73002290725708 119 111 95
-0.09861573576927185 -1.711713433265686 5.205509662628174 168 159 139
-0.11110741645097733 2.780426025390625 5.7585368156433105 118 109 96
-0.11110741645097733 2.780426025390625 5.7585368156433105 118 109 96
-0.1059587225317955 0.3020329773426056 5.5851898193359375 134 126 110
-0.1074846088886261 0.8812971711158752 5.653165340423584 125 116 102
-0.10457231849431992 2.786694049835205 5.630647659301758 97 91 83
-0.10261490941047668 0.16412247717380524 5.573634147644043 138 131 113
-0.10618536919355392 1.7264209985733032 5.878867149353027 111 102 88
-0.10164214670658112 1.2044870853424072 5.735320568084717 116 108 94
-0.07178180664777756 -2.158452033996582 4.765806674957275 112 107 112
-0.09009331464767456 2.8619043827056885 5.874013900756836 112 104 91
-0.057713162153959274 -2.284839153289795 4.588819980621338 67 59 58
-0.07295814156532288 2.6819069385528564 5.819414138793945 99 90 79
-0.06603319197893143 0.588829517364502 5.762903213500977 133 125 108
-0.06370581686496735 2.228254556655884 6.165470123291016 110 102 87
-0.04701472446322441 -1.7690892219543457 5.263383865356445 75 68 54
-0.03151548281311989 2.5280392169952393 5.891537189483643 104 95 81
-0.02908131293952465 -2.051140069961548 5.576847553253174 52 47 38
-0.026466762647032738 2.379000663757324 5.8402276039123535 83 77 62
-0.015218867920339108 -1.7387744188308716 5.245303630828857 71 64 51
-0.006479871459305286 2.3608055114746094 5.89723539352417 81 76 61
-0.00106054765637964 -1.7371031045913696 5.1595778465271 59 53 41
0.006223972886800766 -1.694002389907837 5.332607746124268 174 165 148
0.014911307021975517 2.708339214324951 5.840087413787842 81 74 63
0.028002016246318817 2.754183769226074 5.823714733123779 120 111 100
0.05317028611898422 2.747133255004883 5.933843612670898 80 72 61
0.034007374197244644 -1.7006169557571411 4.366450309753418 59 58 59
0.05041619762778282 -1.8530889749526978 4.544846057891846 115 111 115
0.07294578105211258 -1.6675444841384888 4.3698625564575195 53 49 46
0.10164930671453476 -1.8432576656341553 4.670772552490234 67 65 67
0.10829097777605057 -1.8406658172607422 4.496637344360352 122 117 123
0.11801499873399734 -1.9141943454742432 4.6634745597839355 121 117 123
0.13984611630439758 -1.8460906744003296 4.426592826843262 119 114 122
0.2226138710975647 2.7464685440063477 5.836970329284668 70 63 53
0.20597650110721588 -1.8633090257644653 4.43544340133667 53 47 50
0.1977531462907791 -1.7637088298797607 4.52060079574585 42 37 35
0.2668725252151489 0.5224937200546265 5.742557525634766 55 44 31
0.2761441171169281 0.5414987802505493 5.572610855102539 141 133 120
0.33394819498062134 2.689595937728882 6.156792163848877 32 23 13
0.3084169328212738 0.5204801559448242 5.701456069946289 53 41 28
0.3084169328212738 0.5204801559448242 5.701456069946289 53 41 28
0.33087295293807983 0.4684528112411499 5.8192644119262695 141 131 115
0.2500848174095154 -2.157883644104004 4.383002758026123 106 102 111
0.3312894403934479 0.7811691164970398 5.7640604972839355 127 119 103
0.3312894403934479 0.7811691164970398 5.7640604972839355 127 119 103
0.33521008491516113 0.14699684083461761 5.776175498962402 138 130 113
0.35363882780075073 0.25295040011405945 5.739283084869385 137 129 111
0.35363882780075073 0.25295040011405945 5.739283084869385 137 129 111
0.36117953062057495 0.11669778823852539 5.685337066650391 71 63 48
0.3693873882293701 2.7195820808410645 5.935680389404297 88 85 75
0.3909855782985687 2.369781970977783 6.102797508239746 116 105 90
0.2949468195438385 -1.8186448812484741 4.588988304138184 62 55 49
0.3729191720485687 0.4702911674976349 5.818357944488525 72 61 45
0.4021754562854767 2.711679458618164 6.119656562805176 27 18 9
0.29027581214904785 -1.9642564058303833 4.322449684143066 135 132 138
0.3970085680484772 0.09373550862073898 5.683811664581299 170 162 145
0.40403643250465393 0.31467193365097046 5.716827869415283 84 77 63
0.40700528025627136 0.560509979724884 5.789135456085205 60 51 39
0.30947867035865784 -1.9452598094940186 4.271878719329834 162 160 164
0.3867863118648529 0.20537737011909485 5.417816638946533 127 120 106
0.32026207447052 -1.7711762189865112 4.415534496307373 47 41 38
0.4326411187648773 -0.08071523904800415 5.710714817047119 141 134 115
0.4426341652870178 0.1452311873435974 5.754992961883545 119 111 98
0.44340187311172485 0.2994273900985718 5.733193397521973 146 139 124
0.4431840777397156 0.09613103419542313 5.5738911628723145 165 157 140
0.4662324786186218 0.46554726362228394 5.753412246704102 139 131 115
0.48167017102241516 0.1848350316286087 5.650879383087158 48 42 30
0.48004573583602905 0.31119775772094727 5.570594787597656 141 133 118
0.371853768825531 -2.0377464294433594 4.208248615264893 113 108 114
0.5048795342445374 0.3462878167629242 5.352904319763184 112 108 99
0.4069744944572449 -1.7890232801437378 4.310797691345215 42 37 37
0.4163903594017029 -1.773576259613037 4.354161739349365 56 53 48
0.5448916554450989 0.4622620642185211 5.597720146179199 121 114 102
0.5448916554450989 0.4622620642185211 5.597720146179199 121 114 102
0.47127094864845276 -1.8078975677490234 4.3958892822265625 57 53 49
0.47127094864845276 -1.8078975677490234 4.3958892822265625 57 53 49
0.5861765146255493 0.2636573016643524 5.377803325653076 66 59 47
0.6036186814308167 0.10044784098863602 5.38836145401001 166 158 143
0.6464686989784241 0.05881339684128761 5.430058479309082 170 163 148
0.6595894694328308 0.10431773960590363 5.4104084968566895 141 135 121
0.5021430253982544 0.13489340245723724 5.488105297088623 99 92 77
0.5124951004981995 0.2702820599079132 5.532752990722656 99 91 79
0.570414662361145 0.13740383088588715 5.425991058349609 72 66 56
0.3727855682373047 -0.3250775635242462 5.807046413421631 95 88 69
-0.4725765287876129 0.29116418957710266 5.621939659118652 27 23 23
0.3726547956466675 -0.3249668776988983 5.804952144622803 95 88 69
-0.6630570292472839 0.6669704914093018 5.926609516143799 28 23 24
0.512493908405304 0.2702796459197998 5.532742500305176 99 91 79
0.3916950821876526 -0.020031535997986794 5.869648456573486 130 122 104
0.3863675892353058 -0.1249379888176918 5.848265647888184 54 46 34
0.39177894592285156 -0.019995082169771194 5.87042760848999 130 122 104
-0.6252661347389221 -0.8231794238090515 5.499250411987305 99 95 96
-1.180633783340454 -1.4698354005813599 6.832785129547119 28 23 21
-0.7395887970924377 -1.5989060401916504 6.384710311889648 98 91 90
-0.861663818359375 0.8584933876991272 6.23365592956543 134 129 130
-0.1656496375799179 -0.8362089395523071 5.501283645629883 109 102 98
0.2761390507221222 0.5414783954620361 5.572497367858887 141 133 120
0.42518940567970276 0.33699947595596313 5.666794776916504 31 22 12
0.33394765853881836 2.6899025440216064 6.157474994659424 32 23 13
-1.0472654104232788 0.2690286636352539 6.346261501312256 91 86 87
0.5561941266059875 2.706864833831787 5.663197994232178 97 95 85
-0.861649751663208 0.8584736585617065 6.233565807342529 134 129 130
-0.6499425172805786 -1.3578596115112305 5.5142717361450195 52 44 42
-0.6030908823013306 -1.2227036952972412 5.127494812011719 66 59 59
-0.6031662225723267 -1.2228412628173828 5.128098487854004 66 59 59
-1.0430793762207031 0.08514801412820816 6.331056118011475 35 29 31
-1.1192232370376587 -1.4206297397613525 6.23862886428833 113 106 102
-0.6863321661949158 2.8488829135894775 5.550419330596924 155 148 144
-1.292555809020996 2.874739408493042 6.082127571105957 158 152 149
-0.12986555695533752 0.6584040522575378 5.6414361000061035 149 140 128
-0.6850682497024536 1.6713520288467407 6.118747711181641 44 38 37
-1.1808968782424927 -1.4701566696166992 6.834298133850098 28 23 21
-1.1808393001556396 -1.4700840711593628 6.833951473236084 28 23 21
0.5732932090759277 0.5185523629188538 5.5955400466918945 128 119 106
-0.13351091742515564 1.051062822341919 5.706031799316406 118 109 98
0.3861633837223053 0.47180578112602234 5.498908519744873 123 113 98
0.36079490184783936 0.5002774000167847 5.809993267059326 161 150 135
-0.48263105750083923 1.0532668828964233 5.719389915466309 149 144 145
0.4106608033180237 0.46857374906539917 5.802841663360596 84 75 63
0.41046664118766785 0.4682656228542328 5.800826549530029 84 75 63
0.5035936832427979 0.3766934275627136 5.3973708152771 91 87 78
-1.2440823316574097 0.45394620299339294 6.653890609741211 84 79 79
0.45781293511390686 0.3501220941543579 5.682217597961426 38 28 17
-0.15357406437397003 -1.0323539972305298 5.448357582092285 123 116 107
0.5795837640762329 0.2840719521045685 5.545303821563721 127 120 111
-0.8869273066520691 1.8579968214035034 6.366550922393799 34 29 28
0.3726539611816406 -0.32496654987335205 5.8049468994140625 95 88 69
-0.43852683901786804 -0.7118871212005615 6.04772424697876 97 94 94
-0.452303409576416 -0.9964478015899658 5.3164825439453125 67 62 62
-0.8218377232551575 -1.039289116859436 5.8228349685668945 125 121 123
-0.8218464255332947 -1.0392992496490479 5.822903156280518 125 121 123
0.3877324163913727 0.27000507712364197 5.708215713500977 106 98 84
-0.6668713092803955 1.2581353187561035 6.026699066162109 22 17 16
0.6134268045425415 0.23334991931915283 5.497299671173096 50 42 33
-1.0473295450210571 0.2690632939338684 6.346776485443115 91 86 87
0.5453834533691406 0.2198910266160965 5.47967529296875 100 93 82
0.4164130687713623 0.21717433631420135 5.780323028564453 113 105 92
0.3551705479621887 0.15564116835594177 5.8429036140441895 43 34 21
0.4122737646102905 0.1142675057053566 5.683091640472412 91 84 70
0.1754150241613388 -1.8793044090270996 4.550936222076416 75 71 76
0.2722484767436981 0.1063661053776741 5.831860542297363 126 118 101
-0.5011464357376099 1.884101152420044 5.93750524520874 20 15 15
0.38686779141426086 0.07641714066267014 5.71833610534668 175 168 150
-0.1418822854757309 1.457955241203308 5.798871040344238 90 82 72
-3.8608856201171875 0.9780660271644592 10.004704475402832 71 63 60
-0.15837515890598297 -1.5742175579071045 5.373910427093506 123 115 107
-3.6966755390167236 2.27632474899292 9.867359161376953 45 41 40
-0.47002288699150085 -0.07660131901502609 5.592472076416016 30 25 26
0.36332374811172485 -0.09682870656251907 5.6982502937316895 90 83 64
-0.24204418063163757 -1.397799015045166 4.143855094909668 86 82 83
-0.14140301942825317 -0.08987794071435928 5.592060089111328 123 115 105
-0.28846070170402527 -0.7769712805747986 4.990789413452148 89 86 88
-0.31663408875465393 1.88447904586792 5.708816051483154 130 125 125
0.2149578332901001 -1.8335175514221191 4.404851913452148 96 90 91
-1.4771440029144287 1.050451636314392 7.064625263214111 11 6 6
-0.7761469483375549 -1.9052751064300537 6.621182918548584 123 115 113
-0.6252939105033875 -0.8232142329216003 5.499481678009033 99 95 96
-0.13069580495357513 0.0983319878578186 5.60982084274292 136 128 114
-0.17706944048404694 -2.3726909160614014 4.88857364654541 63 56 57
-0.15357887744903564 -1.0324257612228394 5.448699951171875 123 116 107
0.36329394578933716 0.09408310800790787 5.645547866821289 92 85 69
0.3987848460674286 -0.1229393407702446 5.773560523986816 177 170 151
0.3399718105792999 -0.2959733009338379 5.25086784362793 78 71 52
-0.3237587809562683 -2.1226887702941895 5.677145957946777 94 89 88
0.4300031065940857 0.15323403477668762 5.747366428375244 109 103 92
-1.4582301378250122 1.2508701086044312 7.031179428100586 30 23 23
-0.7618899941444397 -1.4457721710205078 6.693489074707031 30 24 27
-0.44814440608024597 -0.27085262537002563 5.443014144897461 112 106 107
-0.8646751642227173 1.058603048324585 6.248962879180908 17 12 11
-0.39591890573501587 -2.2252509593963623 5.2334747314453125 106 102 103
0.5124914050102234 0.2702747583389282 5.532719612121582 99 91 79
-0.28830575942993164 -1.1306402683258057 5.008547306060791 165 161 164
-0.13460838794708252 -1.2080641984939575 5.360386371612549 127 119 105
-0.1244276687502861 2.2245094776153564 5.891098499298096 64 56 48
-0.6417980790138245 -1.2160357236862183 5.526968002319336 138 133 133
0.5795798301696777 0.28406861424446106 5.545267581939697 127 120 111
0.5795928239822388 0.28408241271972656 5.545377731323242 127 120 111
-0.6630489826202393 0.6669184565544128 5.926238059997559 28 23 24
0.37278398871421814 -0.3250786066055298 5.806999683380127 95 88 69
-1.1808265447616577 -1.4700664281845093 6.833876609802246 28 23 21
0.38987550139427185 -0.29962265491485596 5.735835075378418 53 47 30
0.570410430431366 0.1374027132987976 5.425970077514648 72 66 56
-0.31663578748703003 1.8844844102859497 5.708830833435059 130 125 125
0.6104280352592468 0.36332640051841736 5.773050785064697 66 58 50
0.36332017183303833 -0.09682589769363403 5.69822359085083 90 83 64
-0.1535779982805252 -1.0324208736419678 5.448668956756592 123 116 107
0.4578246772289276 0.3498866856098175 5.681087493896484 38 28 17
-3.696678638458252 2.2763266563415527 9.867366790771484 45 41 40
-0.6668686866760254 1.2581276893615723 6.026665210723877 22 17 16
-0.14140672981739044 -0.08987879753112793 5.592010498046875 123 115 105
-0.6668693423271179 1.258130669593811 6.026638507843018 22 17 16
0.3996151387691498 -0.07654206454753876 5.849126815795898 61 52 37
-0.6584243774414062 0.8621483445167542 5.961550235748291 11 7 8
-0.052521687000989914 -2.0681724548339844 5.225938320159912 75 73 73
0.42134106159210205 0.4459152817726135 5.860701560974121 65 55 40
0.4112458825111389 0.08453918248414993 5.722823143005371 115 108 92
0.272247314453125 0.10636568814516068 5.831857204437256 126 118 101
-0.464643269777298 -0.45816704630851746 5.551194667816162 27 22 25
-0.0777968317270279 -1.7887039184570312 5.202480792999268 110 104 91
0.4107108414173126 0.46866241097450256 5.8033928871154785 84 75 63
-0.13995438814163208 -1.718624234199524 5.223463535308838 150 142 127
-0.45230451226234436 -0.9964494705200195 5.316492557525635 67 62 62
-0.16348785161972046 -0.6496797800064087 5.532420635223389 113 108 103
0.3109571039676666 0.4870275557041168 5.682268142700195 113 103 93
-0.4940141439437866 -0.8292030692100525 5.569063186645508 156 152 154
0.36117056012153625 0.116690993309021 5.6852641105651855 71 63 48
0.40843701362609863 0.499058336019516 5.816397666931152 202 194 179
0.6156319975852966 0.13745169341564178 5.40923547744751 55 50 40
0.5704154968261719 0.13740599155426025 5.4260053634643555 72 66 56
0.4084330201148987 0.4990483820438385 5.816309452056885 202 194 179
0.5550228357315063 0.16645656526088715 5.383747100830078 129 123 112
-0.28408282995224 -0.6293545365333557 5.0588812828063965 93 89 90
0.28130242228507996 0.5330294966697693 5.727356433868408 142 131 116
0.41641274094581604 0.2171734869480133 5.7803168296813965 113 105 92
0.5454258322715759 0.2199161946773529 5.479994297027588 100 93 82
-0.39501145482063293 -1.1677430868148804 4.532986640930176 91 90 90
0.2761462926864624 0.5414942502975464 5.572573184967041 141 133 120
0.6134188175201416 0.23334665596485138 5.497228145599365 50 42 33
-0.7532622814178467 -1.620263695716858 6.476707458496094 100 94 92
0.41243311762809753 0.6170111894607544 5.82550573348999 115 106 95
-0.6866520047187805 2.830674409866333 5.6943039894104 113 108 103
-0.5903894901275635 2.8507442474365234 5.588033199310303 145 139 135
-0.14187942445278168 1.4579840898513794 5.798983097076416 90 82 72
-0.6526985168457031 0.476981520652771 5.836042404174805 53 47 49
0.34895357489585876 0.4818434715270996 5.692692756652832 157 145 130
-1.2554081678390503 0.8446823358535767 6.73712682723999 114 110 111
-1.1320617198944092 2.8873536586761475 6.120847225189209 111 103 99
-3.6896681785583496 2.0499093532562256 9.87181282043457 37 31 30
-0.2773236334323883 -0.9367702603340149 4.8786725997924805 85 79 81
-0.8646780848503113 1.0585429668426514 6.248671054840088 17 12 11
-1.180903434753418 -1.470166563987732 6.834338665008545 28 23 21
0.38677915930747986 0.07640159875154495 5.717810153961182 175 168 150
-0.1328037679195404 1.2390646934509277 5.702490329742432 65 57 47
0.2722415328025818 0.10636568814516068 5.831830978393555 126 118 101
-0.13377463817596436 -1.6298974752426147 4.8740386962890625 120 112 101
-0.5072866082191467 -1.4193123579025269 4.448111534118652 67 61 59
0.011048206128180027 -1.6703152656555176 5.167644023895264 99 91 75
0.5021907091140747 0.13492339849472046 5.488450527191162 99 92 77
-0.9040485620498657 2.8324356079101562 5.448373794555664 95 89 86
-0.15974527597427368 0.7096515893936157 5.777163982391357 125 118 108
-0.29842209815979004 1.4804320335388184 5.649899005889893 129 124 122
0.6028456687927246 0.2769937813282013 5.487095832824707 61 54 42
-0.6088413596153259 2.8564796447753906 5.704131126403809 144 138 134
-0.43932899832725525 -2.396066188812256 7.995920658111572 74 71 70
-1.458212971687317 1.2508549690246582 7.031106472015381 30 23 23
-3.860938549041748 0.9780766367912292 10.004813194274902 71 63 60
-0.33410313725471497 2.8271636962890625 5.631745338439941 97 92 87
-0.4871467053890228 1.4746670722961426 5.8558573722839355 25 18 18
-1.2192634344100952 2.9374756813049316 5.684307098388672 144 138 134
0.11572659015655518 -1.8515084981918335 4.556778430938721 94 89 92
0.21496260166168213 -1.8335320949554443 4.404884338378906 96 90 91
-0.13307055830955505 1.8630187511444092 5.897278308868408 91 85 73
-0.4646468162536621 -0.4581697881221771 5.5512614250183105 27 22 25
-0.09772210568189621 -1.7908154726028442 5.282143592834473 77 69 55
0.5795789361000061 0.28406646847724915 5.545266151428223 127 120 111
0.5795691609382629 0.28405407071113586 5.54518985748291 127 120 111
0.6104012727737427 0.3632940649986267 5.772833347320557 66 58 50
0.4578278958797455 0.34988725185394287 5.681100368499756 38 28 17
0.348679780960083 -0.3041527271270752 5.439964771270752 84 77 58
-0.6668819189071655 1.258164405822754 6.026796817779541 22 17 16
-0.2814098000526428 -1.307881236076355 4.858696460723877 153 152 157
0.5035851001739502 0.37668341398239136 5.397289276123047 91 87 78
-0.2714608907699585 -1.2270981073379517 4.678281307220459 191 189 192
0.5035573840141296 0.37666401267051697 5.397165775299072 91 87 78
-0.4700021743774414 -0.0765979140996933 5.5922088623046875 30 25 26
-0.052522722631692886 -2.068082332611084 5.2257232666015625 75 73 73
-0.13350453972816467 1.0510631799697876 5.706033706665039 118 109 98
-0.45811358094215393 0.8698843717575073 5.742325305938721 28 23 22
0.5449203848838806 0.46228083968162537 5.597949981689453 121 114 102
0.41482827067375183 0.4759105145931244 5.848673343658447 99 89 74
-0.13069389760494232 0.46964457631111145 5.584049701690674 121 113 99
-0.12442556023597717 2.2245023250579834 5.891080379486084 64 56 48
0.31104564666748047 0.48699939250946045 5.682282447814941 113 103 93
-0.07779717445373535 -1.7887014150619507 5.202472686767578 110 104 91
-0.4961950182914734 -0.8286604881286621 5.564639568328857 146 142 143
-0.24202421307563782 -1.39765465259552 4.143435001373291 86 82 83
-0.6584113836288452 0.8621277213096619 5.961459636688232 11 7 8
-0.13377586007118225 -1.6299060583114624 4.8740644454956055 120 112 101
-0.13995608687400818 -1.71867835521698 5.223625183105469 150 142 127
0.5091187953948975 0.5039539337158203 5.608354091644287 131 123 109
0.011038201861083508 -1.67017662525177 5.167227745056152 99 91 75
-0.8063167333602905 -2.160618543624878 6.839190483093262 49 42 39
0.34718644618988037 -0.09357918798923492 5.395147800445557 82 75 57
-0.45230138301849365 -0.9964442849159241 5.316461563110352 67 62 62
0.3917864263057709 -0.019994275644421577 5.870490074157715 130 122 104
-0.31663715839385986 1.8845045566558838 5.708889961242676 130 125 125
-0.1330687254667282 1.8630146980285645 5.897258758544922 91 85 73
-3.6888296604156494 2.047332763671875 9.865138053894043 37 31 30
-0.12986567616462708 0.6584084033966064 5.641441345214844 149 140 128
-1.1808195114135742 -1.470058798789978 6.833837509155273 28 23 21
0.27865421772003174 0.06633824110031128 5.825788974761963 81 72 59
-0.6668614745140076 1.2581124305725098 6.026627540588379 22 17 16
-0.47855859994888306 0.6771026849746704 5.697930335998535 27 21 23
0.4103344976902008 0.08376971632242203 5.713131427764893 166 159 141
0.29250267148017883 0.08565235882997513 5.653921127319336 92 84 66
-0.15357863903045654 -1.032426357269287 5.448699951171875 123 116 107
-0.4522949159145355 -0.9964277148246765 5.316379070281982 67 62 62
-0.15660488605499268 -0.8715736865997314 5.479690074920654 123 115 106
-0.1650499701499939 -0.8402304649353027 5.529616355895996 105 97 92
0.35388773679733276 0.15512245893478394 5.854584217071533 83 75 60
0.5704154968261719 0.13740788400173187 5.4260077476501465 72 66 56
0.5482892394065857 0.16418655216693878 5.348726749420166 114 107 95
-0.2953839600086212 -0.642808198928833 5.22280216217041 107 103 104
0.10745382308959961 -1.8730560541152954 4.62161111831665 44 39 41
0.41641438007354736 0.2171756476163864 5.780342102050781 113 105 92
0.5453895330429077 0.21989604830741882 5.479734897613525 100 93 82
-0.493865966796875 0.459679514169693 5.7027692794799805 90 85 84
-3.6967456340789795 2.2763724327087402 9.867528915405273 45 41 40
0.4084334969520569 0.499051570892334 5.816357135772705 202 194 179
0.40843328833580017 0.4990489184856415 5.816312313079834 202 194 179
0.4085398018360138 -0.04170221462845802 5.691143989562988 101 92 78
0.21492187678813934 -1.833337426185608 4.404448509216309 96 90 91
-0.16593901813030243 -1.1589752435684204 5.215547561645508 159 155 151
-0.4868737757205963 -1.176529049873352 5.38070011138916 92 89 93
-0.34633868932724 -0.0719408318400383 5.406961441040039 48 43 46
-0.1670662760734558 0.2899426221847534 5.483386516571045 90 83 75
0.3347996473312378 0.19422578811645508 5.719348430633545 107 100 83
-0.6080438494682312 -0.4966129958629608 5.704821586608887 160 153 156
-0.13282255828380585 1.238947868347168 5.701886177062988 39 32 22
0.4367420971393585 0.15582792460918427 5.790899276733398 101 94 82
-0.29842090606689453 1.4804329872131348 5.649901866912842 129 124 122
0.38677969574928284 0.07640396058559418 5.717830181121826 175 168 150
-1.4772344827651978 1.0505130290985107 7.064932346343994 11 6 6
-0.2945234775543213 -2.421532154083252 5.081232070922852 69 63 64
-0.3171045482158661 0.09617307037115097 5.457874774932861 111 107 114
-0.48928532004356384 1.2612435817718506 5.816592216491699 137 132 132
0.31873324513435364 0.4624938368797302 5.7338480949401855 150 142 125
-0.47858884930610657 0.6773333549499512 5.6990861892700195 27 21 23
-1.0493963956832886 1.0506008863449097 6.487795829772949 89 81 80
-0.5278570652008057 -0.7352206110954285 6.287439823150635 29 26 27
-1.1535722017288208 -1.849905014038086 7.415988922119141 66 57 48
-0.4741571545600891 -0.27397143840789795 5.486611366271973 84 78 78
-1.2708650827407837 1.2518070936203003 6.800971984863281 89 83 82
-0.4655596911907196 -0.43640556931495667 5.594936370849609 140 136 139
-0.8276721835136414 -0.5071550607681274 6.064568042755127 104 102 105
-0.5153917074203491 1.4740780591964722 5.911811351776123 127 121 120
-3.7570812702178955 -0.09259934723377228 9.704843521118164 85 77 73
0.5124903321266174 0.27027440071105957 5.532711505889893 99 91 79
0.4963769316673279 0.338506281375885 5.514925003051758 78 73 61
-1.4732425212860107 2.884812355041504 6.483002662658691 39 32 27
-0.8342869281768799 -0.2999970018863678 5.949186325073242 31 26 27
-1.0312225818634033 0.4650028347969055 6.339569091796875 36 30 31
-1.4370324611663818 2.9018964767456055 6.470582008361816 46 40 35
-0.12442518025636673 2.2245025634765625 5.891075611114502 64 56 48
0.3384057283401489 -1.9014118909835815 4.437427043914795 69 66 67
-0.3166370391845703 1.8844882249832153 5.708840847015381 130 125 125
-0.3166349530220032 1.884501576423645 5.70888614654541 130 125 125
0.1051887571811676 -1.8665820360183716 4.603613376617432 43 38 40
-0.15140411257743835 -1.7203105688095093 4.473896026611328 109 106 105
-0.7349669933319092 -2.0829386711120605 5.891168594360352 88 85 85
-0.7024142146110535 -2.1029374599456787 6.023037910461426 106 101 99
-0.7825801968574524 -2.171698570251465 6.712776184082031 123 118 115
0.011050527915358543 -1.670356273651123 5.167763710021973 99 91 75
0.004841754678636789 -1.764723300933838 5.525440692901611 170 161 144
-0.8064561486244202 -2.1609947681427 6.8403778076171875 49 42 39
-0.6709900498390198 -1.6556788682937622 5.752727508544922 118 109 107
-1.2967950105667114 -1.97883141040802 7.119472980499268 69 64 61
-0.25846928358078003 -1.157245397567749 4.406895637512207 182 180 183
-0.4312157928943634 -1.338706612586975 5.178117752075195 36 34 35
0.5796014070510864 0.28409188985824585 5.545449733734131 127 120 111
-1.1535553932189941 -1.8498777151107788 7.415884017944336 66 57 48
-0.6339792013168335 -1.3238682746887207 5.3753814697265625 52 44 42
-0.63775235414505 -1.2087509632110596 5.472250938415527 97 91 91
-1.220811128616333 -1.424635410308838 6.783965110778809 124 121 119
-0.292844295501709 -1.0043108463287354 5.109482288360596 134 131 132
-0.28521913290023804 -1.0043344497680664 5.297970294952393 121 116 116
-0.4871653914451599 1.4746992588043213 5.8559465408325195 25 18 18
-0.3043941557407379 -0.8488616943359375 5.302260875701904 108 104 108
-0.6637417078018188 -0.8404943943023682 5.627468585968018 23 19 20
-0.1179879680275917 -1.8044685125350952 5.332470893859863 64 57 45
-0.40136346220970154 -0.6639460921287537 5.429251194000244 116 116 118
-0.4680754840373993 -0.6708072423934937 5.544222831726074 26 25 26
-0.16348595917224884 -0.6496762633323669 5.532394886016846 113 108 103
-0.3024075925350189 -0.4325856566429138 5.284948348999023 121 116 120
0.3473154902458191 -0.30264735221862793 5.390690803527832 72 65 46
0.3725013732910156 -0.12399481981992722 5.606304168701172 165 158 139
-0.47002604603767395 -0.07658574730157852 5.592461109161377 30 25 26
-0.1414046734571457 -0.08987798541784286 5.592030048370361 123 115 105
0.36331620812416077 -0.09682609885931015 5.6981611251831055 90 83 64
-0.34636661410331726 -0.07192112505435944 5.4073872566223145 48 43 46
0.4340808093547821 -0.06748391687870026 6.454495429992676 52 44 29
0.39178988337516785 -0.01999364048242569 5.8705267906188965 130 122 104
0.4184175133705139 0.036515943706035614 5.699217319488525 125 118 100
-1.0430864095687866 0.08515015989542007 6.331108570098877 35 29 31
0.2786526679992676 0.06633446365594864 5.825747489929199 81 72 59
0.41122883558273315 0.0844031423330307 5.721818447113037 115 108 92
0.29250019788742065 0.0856495201587677 5.653873920440674 92 84 66
0.41229405999183655 0.11428266763687134 5.683464050292969 91 84 70
0.3244124948978424 0.13804414868354797 5.826042652130127 131 123 106
0.5021328330039978 0.1348952203989029 5.488034725189209 99 92 77
0.44331932067871094 0.1544109582901001 5.840217113494873 128 120 107
0.494159072637558 0.1627824753522873 5.601191520690918 49 42 30
0.5462106466293335 0.1347944289445877 5.2305707931518555 42 37 26
-3.786823272705078 0.1241774931550026 9.787210464477539 69 62 57
0.4164140522480011 0.21717528998851776 5.780339241027832 113 105 92
-0.16923166811466217 -0.8168119192123413 5.572540760040283 84 79 78
0.5454102158546448 0.21991214156150818 5.47988224029541 100 93 82
-0.3519265651702881 -2.4013493061065674 6.316869258880615 88 84 83
