ply
format ascii 1.0
element vertex 714
property float x
property float y
property float z
property uchar red
property uchar green
property uchar blue
end_header
1.8396685123443604 0.7758061289787292 4.996872425079346 116 109 102
1.9335618019104004 0.5487097501754761 5.244750499725342 61 62 74
2.1400532722473145 -0.4115873873233795 5.797840118408203 74 70 69
1.7721420526504517 1.2317885160446167 4.796562671661377 33 28 31
1.7768750190734863 1.260343313217163 4.798055171966553 43 36 42
1.7703443765640259 0.9128780364990234 4.783204555511475 66 58 51
1.771755576133728 0.8203652501106262 4.786349773406982 105 102 95
1.5247292518615723 -1.1613941192626953 4.115731716156006 103 91 79
1.8277705907821655 0.6401290893554688 4.8910651206970215 83 72 65
1.8615003824234009 0.6794707775115967 5.009118556976318 151 141 133
1.856753945350647 0.7848381400108337 4.994672775268555 118 111 104
1.7813494205474854 1.4098200798034668 4.782367706298828 46 41 47
1.809428334236145 2.078880548477173 4.82827615737915 76 67 59
1.7783042192459106 0.9328135251998901 4.768637180328369 62 54 47
1.8606992959976196 0.7517964839935303 4.989692687988281 44 34 25
1.7759594917297363 1.2434096336364746 4.735579013824463 68 61 67
1.853691816329956 0.6919268369674683 4.952925682067871 67 56 49
1.7924879789352417 1.6634711027145386 4.7690110206604 113 100 93
1.8081250190734863 1.2780306339263916 4.796085834503174 59 53 58
1.7982069253921509 1.223366379737854 4.760440826416016 42 36 39
1.8498475551605225 1.9246729612350464 4.89821720123291 85 74 67
1.8156254291534424 1.5544122457504272 4.771195411682129 76 68 65
1.8478344678878784 1.9667607545852661 4.8868608474731445 42 32 26
1.8205145597457886 1.2533907890319824 4.801060676574707 64 58 61
1.8208684921264648 1.731347918510437 4.792191982269287 154 142 133
1.8132976293563843 0.9653202295303345 4.7763752937316895 89 80 73
1.8343778848648071 1.4803651571273804 4.830599308013916 51 43 43
1.8156466484069824 1.5544359683990479 4.77125358581543 76 68 65
1.819320797920227 1.2927106618881226 4.758816242218018 38 34 40
2.2428765296936035 -0.7914752960205078 5.869380474090576 189 193 200
2.2428765296936035 -0.7914752960205078 5.869380474090576 189 193 200
1.7858936786651611 0.9957545399665833 4.673367977142334 106 97 90
1.8429720401763916 1.7212252616882324 4.808051586151123 159 148 139
1.8239667415618896 1.1669996976852417 4.751039028167725 53 46 44
1.9043030738830566 0.7831509113311768 4.9593963623046875 92 83 76
1.83652663230896 1.2312910556793213 4.753146171569824 38 31 34
1.8405522108078003 2.01963472366333 4.758496284484863 108 98 90
2.2776119709014893 -0.6978819966316223 5.890465259552002 72 64 61
1.8943227529525757 1.300688624382019 4.878915309906006 56 50 53
1.8519198894500732 1.2548259496688843 4.7449493408203125 71 66 68
1.8903489112854004 2.3405938148498535 4.8557586669921875 66 57 55
2.2778704166412354 -0.5131940245628357 5.8429412841796875 50 45 44
1.923400640487671 0.7416949272155762 4.953485488891602 82 71 64
1.8440914154052734 1.1245794296264648 4.723804473876953 42 35 28
2.2888288497924805 -0.4200689196586609 5.854470729827881 151 148 147
1.8884389400482178 1.129767894744873 4.813024520874023 84 75 67
1.9288561344146729 0.685528576374054 4.894169330596924 104 94 88
1.8555099964141846 1.0577882528305054 4.720640182495117 86 78 69
1.868777871131897 0.9736899733543396 4.7451348304748535 57 48 40
1.8836500644683838 1.483553171157837 4.738309383392334 72 63 64
1.8574553728103638 1.8674681186676025 4.709025859832764 133 124 117
2.2952587604522705 -0.14457669854164124 5.813180923461914 57 50 50
2.322334051132202 -0.43689680099487305 5.872827529907227 104 101 101
1.8780096769332886 1.1996841430664062 4.744471073150635 54 49 47
1.864832878112793 1.2501846551895142 4.711371898651123 63 57 59
1.8829081058502197 2.098626136779785 4.753448963165283 127 118 108
2.323856830596924 -0.3066125512123108 5.860686779022217 43 37 34
2.323856830596924 -0.3066125512123108 5.860686779022217 43 37 34
1.8802636861801147 0.9542072415351868 4.710007667541504 88 79 71
1.8853185176849365 1.2323366403579712 4.722805976867676 70 65 65
1.8519175052642822 1.412268042564392 4.590937614440918 116 108 107
1.8519175052642822 1.412268042564392 4.590937614440918 116 108 107
1.909459114074707 2.258429527282715 4.723793029785156 82 72 68
1.9098405838012695 1.1865440607070923 4.720982074737549 69 63 59
1.9052989482879639 1.2692899703979492 4.704770088195801 41 37 39
2.39609694480896 -0.3676820695400238 5.8972272872924805 42 38 34
1.982846736907959 1.0227588415145874 4.83769416809082 69 60 52
1.9282870292663574 0.8962703943252563 4.694700717926025 99 92 85
2.086496114730835 0.8149186372756958 5.119302272796631 76 66 60
2.3542675971984863 0.3240930140018463 5.668057918548584 207 203 202
2.0006039142608643 1.3548943996429443 4.831229209899902 62 57 59
1.9070883989334106 -0.925531268119812 4.562623500823975 42 29 19
1.9366971254348755 -1.068106770515442 4.621008396148682 76 62 51
1.961645483970642 1.266623854637146 4.671513557434082 68 63 65
1.9777092933654785 1.1499590873718262 4.6677632331848145 29 23 18
1.6245322227478027 -0.9114789962768555 3.82369065284729 114 99 86
1.935134768486023 1.4535040855407715 4.518731117248535 62 57 59
1.951300024986267 1.0377506017684937 4.546511173248291 53 47 41
2.1842973232269287 0.7998278141021729 5.1088409423828125 107 98 93
2.1681742668151855 -0.78510981798172 5.090083599090576 92 92 99
1.8357090950012207 -2.0319104194641113 4.204158306121826 59 55 57
1.8357089757919312 -2.0319101810455322 4.20415735244751 59 55 57
1.6917192935943604 -0.7687168121337891 3.822667121887207 60 46 35
1.1471303701400757 1.278801441192627 5.284414768218994 78 73 78
1.7315680980682373 -0.30367007851600647 6.002668857574463 64 63 65
-0.9874479174613953 1.2829259634017944 5.1919355392456055 47 41 46
-0.8264600038528442 0.725033164024353 5.43806791305542 61 56 62
-1.0596903562545776 1.0981990098953247 5.087629795074463 45 39 42
0.2567827105522156 0.3468538224697113 6.2874555587768555 229 224 218
-0.6545532941818237 0.23553551733493805 5.4670844078063965 19 18 24
1.1510798931121826 1.4988356828689575 5.287125587463379 166 156 159
-0.9736494421958923 0.6822248697280884 5.112191200256348 82 78 83
-1.0655529499053955 0.8947157859802246 5.0588884353637695 68 63 65
-0.9874444007873535 1.282929539680481 5.1919331550598145 47 41 46
-0.9966002702713013 0.29262351989746094 5.0474019050598145 119 115 120
1.3136062622070312 -0.7753486037254333 5.406021595001221 165 159 163
1.6142830848693848 1.7254005670547485 4.951285362243652 82 72 67
1.6013706922531128 -0.8016626834869385 5.241587162017822 57 64 85
-1.0230735540390015 -1.5113095045089722 4.735201835632324 73 68 68
-1.045397400856018 1.2875134944915771 5.097707271575928 166 160 163
-0.4828658103942871 0.8014062643051147 5.776895046234131 146 144 151
1.815627932548523 1.5544103384017944 4.771191120147705 76 68 65
1.276240348815918 -0.7785050868988037 5.345506191253662 137 129 129
-0.9968085885047913 1.0801640748977661 5.1582722663879395 138 133 135
-0.831922173500061 -0.11941821128129959 5.186112880706787 36 33 43
1.8383593559265137 0.41873204708099365 5.7592597007751465 144 141 140
1.186676025390625 -0.5651552677154541 5.311095237731934 149 136 131
-1.0470600128173828 0.7060644030570984 5.01749324798584 32 29 34
1.1681594848632812 -0.7797887921333313 5.231476306915283 225 218 209
-0.8135219812393188 1.054582118988037 5.383111476898193 77 72 74
-0.8061479330062866 0.2715023159980774 5.264690399169922 196 192 198
1.1301584243774414 1.6829137802124023 5.290033340454102 28 19 16
-0.4936366379261017 0.025699863210320473 5.727847099304199 64 63 74
1.6603293418884277 0.47689828276634216 5.4040350914001465 66 65 68
1.6603325605392456 0.4768993556499481 5.404078483581543 66 65 68
-0.603026807308197 -2.241921901702881 5.143486976623535 57 63 61
1.657457709312439 0.7458940744400024 5.136501312255859 154 144 137
-0.47295141220092773 -2.242318630218506 5.179239273071289 121 126 116
-0.47602730989456177 0.25606271624565125 5.748437404632568 208 209 227
1.7478471994400024 -0.4022103548049927 6.047729015350342 61 60 62
-0.403380423784256 -2.2603588104248047 5.288579940795898 40 45 43
1.7481485605239868 -0.4023018479347229 6.049118995666504 61 60 62
-0.9536989331245422 0.4905276596546173 5.065101623535156 186 182 188
-1.0381934642791748 -0.49440833926200867 4.854057788848877 11 10 14
1.9335110187530518 0.06276518106460571 6.073993682861328 221 220 219
-0.6390370726585388 0.4577483832836151 5.526909351348877 76 74 85
-0.6450603604316711 0.05113741755485535 5.467906475067139 214 212 219
-1.0352739095687866 -0.3278006315231323 4.853602409362793 147 147 153
-0.4859190881252289 0.227336123585701 5.707727909088135 189 190 207
1.3453365564346313 0.43402084708213806 5.516120433807373 232 225 223
1.7556133270263672 -0.45633599162101746 6.061253070831299 40 38 40
0.6973422765731812 0.9960936903953552 5.552106857299805 61 51 42
2.339904308319092 -0.4076371192932129 5.885287761688232 129 126 125
2.2841925621032715 -0.3943236768245697 5.899261474609375 57 53 52
-0.9966152906417847 1.081152081489563 5.1583428382873535 138 133 135
1.5875661373138428 -0.8005921244621277 5.183173656463623 65 72 94
-1.0596954822540283 1.0982083082199097 5.08765172958374 45 39 42
-1.0382763147354126 -0.4944398105144501 4.854331016540527 11 10 14
-0.622380256652832 0.04362328350543976 3.8818397521972656 83 79 85
1.745912790298462 -0.3544411361217499 6.051143169403076 86 85 87
1.3891801834106445 0.4527241885662079 5.687705993652344 216 209 207
1.2449589967727661 -0.8397811651229858 5.321904182434082 67 55 51
-0.6432521939277649 0.6200489401817322 5.512782573699951 9 8 18
1.4081729650497437 0.4560917615890503 5.770542144775391 135 128 126
-0.4859359860420227 0.22733500599861145 5.7078070640563965 189 190 207
-1.0231077671051025 -1.5113298892974854 4.735292911529541 73 68 68
1.9886890649795532 -0.5034722089767456 6.040189743041992 177 183 192
1.2856953144073486 0.5529443621635437 5.579823970794678 247 245 241
1.6110236644744873 -0.8381325006484985 5.341296195983887 25 31 52
2.286306381225586 -0.058812808245420456 5.8249921798706055 134 130 130
1.959122657775879 0.44547900557518005 6.055602550506592 143 140 139
1.1471220254898071 1.2787765264511108 5.2843098640441895 78 73 78
0.2567690908908844 0.3468441367149353 6.28760290145874 229 224 218
1.293815016746521 0.5657775402069092 5.577224254608154 171 160 153
-0.7930092811584473 0.8330692648887634 5.339781284332275 166 159 165
1.6763813495635986 -0.5595439672470093 5.774832725524902 115 112 114
-0.006427236367017031 2.8265492916107178 5.270107746124268 29 31 34
1.0037729740142822 0.6037425994873047 5.494490623474121 180 163 153
-0.17113153636455536 2.8304483890533447 5.2147650718688965 66 72 75
-1.0655428171157837 0.8947089910507202 5.058834075927734 68 63 65
1.476810097694397 0.46147704124450684 5.552946090698242 118 113 110
-0.6302334070205688 0.23184102773666382 5.488240718841553 16 14 21
-0.21759334206581116 2.773651123046875 5.560556411743164 131 129 129
-1.387642741203308 -1.118036150932312 4.708376884460449 94 85 68
-0.8310496211051941 -1.549371600151062 5.090460777282715 41 38 43
-0.21763531863689423 2.7729475498199463 5.5593743324279785 131 129 129
-0.22299101948738098 1.3283873796463013 6.166996002197266 23 16 16
1.2417330741882324 0.5941170454025269 5.525688171386719 175 163 155
1.9560370445251465 0.3570765554904938 5.680408477783203 141 137 136
-0.4853401780128479 2.772958993911743 5.595135688781738 124 118 114
1.0511199235916138 0.6576806306838989 5.51328182220459 141 129 117
0.24426127970218658 1.396281361579895 5.8999342918396 12 7 17
-0.49475476145744324 0.8301172256469727 5.942726135253906 145 142 152
1.1032462120056152 1.4515318870544434 5.274930000305176 137 131 137
-0.30771011114120483 -2.228851318359375 5.607453346252441 113 116 115
0.7439036965370178 0.7744985222816467 5.459783554077148 183 173 162
1.5926984548568726 1.736162543296814 4.959208011627197 115 107 99
-1.0221189260482788 -1.1201752424240112 4.787553787231445 45 42 45
-0.2148003727197647 2.7836456298828125 5.577898979187012 129 126 127
-0.9178684949874878 0.67928546667099 5.269492149353027 73 69 76
-1.0210751295089722 -0.9231076240539551 4.835676193237305 15 14 18
1.1032607555389404 1.4515676498413086 5.275008201599121 137 131 137
1.500370979309082 -0.7848821878433228 4.119348049163818 128 116 107
-0.603026270866394 -2.2419164180755615 5.14346981048584 57 63 61
1.4142937660217285 0.4523870348930359 5.687012195587158 87 81 78
-0.32465502619743347 0.9651535749435425 6.005714416503906 24 16 16
1.7496991157531738 -0.20361028611660004 6.093834400177002 26 25 30
1.6302340030670166 0.4768754839897156 5.456191539764404 71 69 69
1.6302410364151 0.4768827259540558 5.456232070922852 71 69 69
-1.204201102256775 0.7290786504745483 4.801244258880615 164 159 164
-0.47928503155708313 0.02651895582675934 5.563344955444336 65 65 75
1.5429407358169556 -0.7968595623970032 5.155712127685547 143 150 176
-0.7960274815559387 2.8286876678466797 5.180449485778809 88 83 79
-1.0392279624938965 -0.3082379400730133 4.874016284942627 23 23 29
-1.0413106679916382 -0.3076069951057434 4.884188652038574 18 18 24
-1.0210872888565063 -0.9231134057044983 4.835700511932373 15 14 18
-0.49515607953071594 -0.7863851189613342 5.5860748291015625 70 70 77
-0.8067435622215271 -0.12548395991325378 5.189234256744385 139 135 144
-0.7861379981040955 2.824049711227417 5.218519687652588 97 92 88
-0.9854398369789124 -1.714036464691162 4.7912211418151855 82 78 77
1.5072091817855835 -0.81206214427948 5.28485107421875 155 162 187
-0.48607513308525085 1.0110806226730347 5.842615127563477 30 26 29
1.623595952987671 0.43323734402656555 5.4356231689453125 73 69 66
1.3783209323883057 1.316423773765564 5.117133617401123 25 20 21
-1.2169766426086426 1.9220197200775146 4.956180572509766 147 142 144
1.3844504356384277 -0.8118775486946106 5.336891174316406 192 191 205
-0.162469744682312 1.1460963487625122 6.148197174072266 90 83 90
-0.3249463737010956 0.5869021415710449 5.933163166046143 109 105 122
1.42158043384552 0.4602505564689636 5.722441673278809 185 179 175
-1.4054139852523804 0.3660683333873749 4.902956962585449 150 141 122
1.1256595849990845 1.4058266878128052 5.2599663734436035 63 60 76
1.3078242540359497 0.5041800737380981 5.640851020812988 70 60 57
-0.20183762907981873 0.5299027562141418 6.1193647384643555 138 128 128
-1.041529893875122 -0.08487246930599213 4.90230655670166 26 23 28
-0.17971903085708618 2.739145040512085 5.211049556732178 120 123 124
1.768380045890808 -0.520420491695404 6.003990650177002 81 78 78
-1.0733691453933716 -0.3740527331829071 4.816165447235107 184 184 189
-1.0306525230407715 -1.9225448369979858 4.728184700012207 52 49 48
-1.147701621055603 -2.1100692749023438 4.506272315979004 106 101 101
-1.0320221185684204 0.4909220039844513 4.961667537689209 84 80 85
-0.18994517624378204 -2.216606616973877 5.507632732391357 114 111 100
-0.9752719402313232 -0.9295043349266052 4.883758544921875 96 92 96
1.4711214303970337 0.5263225436210632 5.565779685974121 129 122 126
0.42878952622413635 1.4040898084640503 5.742699146270752 111 104 114
1.6252423524856567 -0.8588306307792664 4.8378095626831055 92 79 67
-0.8058493733406067 -1.3324973583221436 5.056994438171387 21 18 20
1.2417436838150024 0.5941296219825745 5.525796890258789 175 163 155
-0.4288901090621948 0.40238720178604126 5.815330982208252 135 132 139
-0.49559247493743896 -0.7861781716346741 5.590689659118652 70 70 77
1.3179179430007935 -0.49951449036598206 5.475478172302246 151 146 144
1.0751157999038696 0.5707009434700012 5.507809638977051 182 166 155
-0.8100384473800659 -1.941659927368164 5.020579814910889 97 93 94
-0.32160910964012146 -0.20815223455429077 5.8848466873168945 27 25 30
-0.823651134967804 1.8652821779251099 5.4890666007995605 27 24 26
-0.25571057200431824 0.4351786971092224 6.059370994567871 185 174 178
0.5052170157432556 0.9740635752677917 5.667749881744385 60 50 43
2.218923807144165 -0.01724829524755478 5.6595330238342285 171 168 167
-0.46961814165115356 1.192973017692566 5.881425857543945 23 17 19
0.5268064737319946 0.7481561303138733 5.611064434051514 97 86 75
2.1226251125335693 -0.8184301853179932 5.707504749298096 173 170 174
0.5214479565620422 0.740480363368988 5.557851314544678 114 103 92
1.1640770435333252 -0.6333445906639099 5.2465386390686035 150 141 132
-0.4002656042575836 -2.2895240783691406 5.267889976501465 20 21 16
-0.7057445645332336 2.7913496494293213 5.392993927001953 138 133 130
-0.15756335854530334 -1.2350436449050903 6.0522871017456055 32 22 20
1.2551406621932983 -1.9619389772415161 4.9197096824646 95 84 75
-0.9964896440505981 1.6909273862838745 5.234256267547607 17 12 13
-1.0415270328521729 -0.08487427979707718 4.902299404144287 26 23 28
1.2095502614974976 1.6426702737808228 5.103400230407715 90 81 78
-0.8310564756393433 -1.5493717193603516 5.0904741287231445 41 38 43
-0.9862434267997742 -0.11746199429035187 5.013711929321289 74 69 76
-0.8355222940444946 -0.5348114371299744 5.126590728759766 32 30 34
1.1451797485351562 1.7011699676513672 5.270570755004883 50 41 38
1.2805510759353638 -0.7810632586479187 5.363593578338623 137 129 129
-1.3918273448944092 -0.09849842637777328 4.847122669219971 77 69 57
1.6763818264007568 -0.5595447421073914 5.774835109710693 115 112 114
1.2521110773086548 0.5240980386734009 5.576810836791992 28 16 15
1.1845742464065552 -0.562161922454834 5.294425010681152 175 164 158
-1.2169861793518066 1.922023892402649 4.956197261810303 147 142 144
0.6988118886947632 0.9715187549591064 5.532281398773193 177 166 155
-1.2041778564453125 0.7290734648704529 4.801175594329834 164 159 164
1.7088028192520142 -0.5989583730697632 6.046908378601074 125 128 131
0.16848888993263245 2.8217387199401855 5.4473042488098145 68 66 67
1.6263033151626587 1.7251367568969727 4.912475109100342 154 145 143
-1.0210886001586914 -0.9231134653091431 4.8357038497924805 15 14 18
-0.4188326597213745 -2.3023040294647217 5.165431976318359 188 184 172
1.8063511848449707 1.9455432891845703 4.787339687347412 55 46 41
1.217181921005249 -2.0788116455078125 4.699086666107178 51 47 44
-0.3026279807090759 -2.4268627166748047 5.576872825622559 87 87 86
-0.4729473888874054 -2.2423107624053955 5.179220676422119 121 126 116
-0.3026268482208252 -2.426858425140381 5.576873779296875 87 87 86
0.2259405553340912 2.820298433303833 5.367938995361328 108 110 113
-1.176679015159607 -1.2906793355941772 4.562342643737793 16 13 14
-0.9663248062133789 -1.6813328266143799 4.698753356933594 62 58 57
0.7094432711601257 1.018720269203186 5.532156467437744 59 49 41
-0.47727689146995544 0.02567289024591446 5.538751602172852 76 76 86
-1.031367540359497 -0.7336413264274597 4.8395304679870605 41 40 42
2.2817814350128174 -0.05863506346940994 5.811861038208008 134 130 130
-0.5018496513366699 -2.1759209632873535 5.273958206176758 52 52 52
-1.364317536354065 -1.9142147302627563 4.597902774810791 129 120 106
1.5970964431762695 1.3178753852844238 4.9486236572265625 16 13 17
-0.1899181753396988 -2.2165372371673584 5.50748348236084 114 111 100
-0.10494819283485413 -2.2608933448791504 5.626372337341309 78 73 67
1.1471211910247803 1.2787789106369019 5.284323215484619 78 73 78
1.1471269130706787 1.2787933349609375 5.284370422363281 78 73 78
1.660329818725586 0.47690001130104065 5.404067039489746 66 65 68
-0.30772316455841064 -2.228886604309082 5.607539176940918 113 116 115
1.9238790273666382 -0.5624804496765137 6.0567827224731445 121 119 120
-0.307711124420166 -2.2288782596588135 5.607534408569336 113 116 115
1.6302493810653687 0.47688475251197815 5.456259727478027 71 69 69
-0.8390758633613586 0.060298699885606766 5.234611511230469 21 18 23
2.1286377906799316 -0.3563426434993744 5.97085428237915 90 83 83
-1.2101746797561646 1.6942996978759766 4.9379658699035645 102 98 99
-1.022103190422058 -1.1201566457748413 4.787499904632568 45 42 45
1.2416869401931763 1.6669399738311768 5.1883978843688965 80 71 67
-1.1796571016311646 -0.9210197925567627 4.6030120849609375 152 150 152
-1.4101333618164062 0.9153818488121033 4.996730327606201 86 79 67
-0.968385636806488 1.445961833000183 5.207977294921875 127 121 124
1.350756049156189 -0.8000776767730713 5.46412467956543 165 161 169
1.3299739360809326 0.43431082367897034 5.638900279998779 123 116 113
1.1681625843048096 -0.7797917723655701 5.23150110244751 225 218 209
0.06526206433773041 1.3638489246368408 5.996194362640381 18 14 21
-1.0070853233337402 0.27778375148773193 4.985565662384033 170 166 173
-0.6371814608573914 0.45998674631118774 5.509593486785889 83 82 92
-1.371606469154358 -0.4967435300350189 4.807285308837891 26 19 14
-1.0429303646087646 1.2734785079956055 5.1360979080200195 118 113 116
1.9752357006072998 -0.7991575002670288 4.928440570831299 113 117 132
1.1681987047195435 -0.779820442199707 5.231703281402588 225 218 209
0.2567608654499054 0.346834659576416 6.28762674331665 229 224 218
1.6427453756332397 -0.7695041298866272 5.08324670791626 140 147 170
1.383776307106018 -0.802127480506897 5.295866966247559 157 157 169
-0.9874524474143982 1.2829334735870361 5.191946983337402 47 41 46
-0.996635913848877 0.29262757301330566 5.047511100769043 119 115 120
1.4375364780426025 -0.8409834504127502 5.3123369216918945 46 46 58
-1.127360224723816 -2.074519634246826 4.427923679351807 78 73 72
0.44404515624046326 1.2118314504623413 5.76063346862793 32 29 38
-0.8270125389099121 0.2626740634441376 5.249834060668945 51 47 54
-1.3643168210983276 -1.9142152070999146 4.597901821136475 129 120 106
-1.0336012840270996 -0.3279170095920563 4.8494038581848145 147 147 153
-0.8063629865646362 0.27197498083114624 5.265608310699463 196 192 198
-0.9854477047920227 -1.7140475511550903 4.791274070739746 82 78 77
-1.0655455589294434 0.8947112560272217 5.058841228485107 68 63 65
1.6101497411727905 1.7364593744277954 4.905814170837402 128 120 115
1.4383374452590942 0.45372340083122253 5.559408664703369 147 142 139
0.2435692548751831 2.778973340988159 5.54677677154541 136 133 133
-0.996486246585846 1.6909289360046387 5.234258651733398 17 12 13
1.3360475301742554 0.43796950578689575 5.661766052246094 116 109 106
-0.5536043047904968 0.22557035088539124 5.627732753753662 137 136 147
1.6603432893753052 0.4769049286842346 5.404096603393555 66 65 68
-1.0431370735168457 1.2861452102661133 5.088496208190918 157 151 154
-1.3876416683197021 -1.1180371046066284 4.708378314971924 94 85 68
-1.2090243101119995 1.7098102569580078 4.924284934997559 26 22 24
-0.6320048570632935 0.23971381783485413 5.504676342010498 91 90 97
-1.221326470375061 1.3228676319122314 4.896753787994385 112 107 108
-0.1074531227350235 2.7590603828430176 5.564509868621826 146 143 143
-0.8135563731193542 1.0546519756317139 5.383440017700195 77 72 74
-0.49487683176994324 0.8301187753677368 5.943117141723633 145 142 152
-1.387634038925171 -1.1180346012115479 4.708363056182861 94 85 68
-0.6289432048797607 0.23201391100883484 5.483674049377441 16 14 21
-0.8231530785560608 0.6573154330253601 5.3348493576049805 82 78 84
1.4383584260940552 0.4537380635738373 5.559525966644287 147 142 139
-1.0221199989318848 -1.120176076889038 4.787555694580078 45 42 45
-0.4696761667728424 1.1930524110794067 5.88179874420166 23 17 19
-1.036892294883728 1.1040159463882446 5.084495544433594 178 174 176
-0.9731746315956116 -0.13649699091911316 4.984107971191406 16 12 18
-0.6431437730789185 0.6200132966041565 5.512452125549316 9 8 18
1.9779891967773438 0.4406382441520691 6.036206245422363 222 218 217
0.7142120003700256 1.23958158493042 5.620965003967285 43 38 42
1.2596149444580078 1.6875361204147339 5.218838691711426 77 70 68
1.2417200803756714 0.5941040515899658 5.525586128234863 175 163 155
-1.0566483736038208 0.5098568201065063 5.087141036987305 136 132 137
-1.1983493566513062 0.5214319229125977 4.75221061706543 16 12 18
-0.8127148151397705 0.45660868287086487 5.245401859283447 63 59 65
-0.9178668856620789 0.6792832016944885 5.269487380981445 73 69 76
1.2783557176589966 0.545693576335907 5.510649681091309 254 253 249
-0.5268179774284363 0.41427507996559143 5.701325416564941 94 97 114
-0.6793121695518494 0.8438475728034973 5.6151347160339355 23 20 23
-0.6545480489730835 0.23553366959095 5.467079162597656 19 18 24
-0.02514413744211197 2.7977001667022705 5.439167499542236 131 130 130
-0.6544995307922363 0.23551568388938904 5.466895580291748 19 18 24
-1.3660259246826172 -0.2975320816040039 4.808589935302734 152 144 137
-1.0655381679534912 0.8947043418884277 5.058820724487305 68 63 65
1.6819766759872437 -0.9100423455238342 4.088516712188721 86 72 61
-0.48607102036476135 1.0110756158828735 5.842595100402832 30 26 29
0.263876736164093 -1.956151008605957 6.001636981964111 120 120 120
2.284193992614746 -0.39431262016296387 5.899270057678223 57 53 52
-1.0381861925125122 -0.4944041669368744 4.8540239334106445 11 10 14
-1.3917564153671265 -0.09853199869394302 4.846991062164307 77 69 57
2.2841696739196777 -0.39432379603385925 5.89919376373291 57 53 52
1.614288568496704 1.7254072427749634 4.951309680938721 82 72 67
1.7480865716934204 -0.402279257774353 6.048831462860107 61 60 62
1.8156206607818604 1.5544041395187378 4.771174907684326 76 68 65
1.1616748571395874 1.6797600984573364 5.240699291229248 49 38 35
-0.3215734362602234 -0.20814724266529083 5.884670734405518 27 25 30
1.8156383037567139 1.5544300079345703 4.771239280700684 76 68 65
-1.357435941696167 -0.7070005536079407 4.752340793609619 96 90 79
-0.4860679805278778 1.011073350906372 5.842588424682617 30 26 29
-0.5023281574249268 0.4102109968662262 5.75916051864624 36 35 45
-0.8538395762443542 2.841125249862671 5.259936809539795 47 41 35
-0.8135555386543274 1.054607629776001 5.383244514465332 77 72 74
1.3637114763259888 1.5021344423294067 5.053872585296631 127 118 115
-0.8548502922058105 -0.12384392321109772 5.328220367431641 120 117 126
-1.0228087902069092 -1.5111560821533203 4.7345662117004395 62 57 57
0.4522036015987396 2.0241055488586426 5.833773612976074 22 16 21
-1.0041500329971313 0.27288228273391724 4.975525856018066 86 81 88
1.0511447191238403 0.65770024061203 5.5134196281433105 141 129 117
-0.8198790550231934 2.8356590270996094 5.201888084411621 126 119 114
1.3605252504348755 1.9052568674087524 5.142056941986084 47 38 33
1.30661141872406 0.4775068759918213 5.6100029945373535 139 129 127
-0.1624676138162613 1.1460903882980347 6.148169994354248 90 83 90
1.6302564144134521 0.4768843650817871 5.456275939941406 71 69 69
-0.4825676381587982 0.8012741208076477 5.775674343109131 146 144 151
-0.7861368656158447 2.824044704437256 5.218513488769531 97 92 88
-0.49558383226394653 -0.786185085773468 5.590714454650879 70 70 77
-0.0017410359578207135 2.81343412399292 5.310112476348877 37 38 39
1.5882771015167236 1.9688711166381836 5.008641719818115 53 44 39
-0.4505196213722229 0.9964545965194702 5.8636064529418945 27 23 25
-0.17878295481204987 2.7392032146453857 5.209789752960205 120 123 124
-0.48534154891967773 2.772955894470215 5.595134258270264 124 118 114
1.0483671426773071 1.444980502128601 5.3066582679748535 120 112 118
-0.7906251549720764 2.8184268474578857 5.156989097595215 123 117 113
-0.6724338531494141 2.0263965129852295 5.710282802581787 37 33 35
-0.04628651589155197 2.70876407623291 5.517685890197754 58 56 56
-0.3253736197948456 0.5882430672645569 5.9367265701293945 109 105 122
-0.29386481642723083 -1.8029651641845703 5.667973041534424 101 97 99
0.6936017870903015 1.6330029964447021 5.604588508605957 75 71 76
1.0792986154556274 0.5732510685920715 5.52162504196167 166 149 138
1.4711066484451294 0.5263108015060425 5.565702438354492 129 122 126
-0.6585143208503723 -1.7523329257965088 5.186260223388672 24 22 23
1.7764376401901245 0.48913151025772095 5.342771530151367 77 78 80
0.6859504580497742 1.0545965433120728 5.54406213760376 102 96 100
2.008049726486206 0.5045662522315979 5.20294713973999 85 85 85
-0.6036298274993896 0.6282067894935608 5.643302917480469 86 84 95
0.5286079049110413 1.3646533489227295 5.6394219398498535 46 42 57
0.11403030902147293 0.9449033141136169 5.912393569946289 61 50 44
-0.4685393273830414 0.6097818613052368 5.810153007507324 37 35 46
-0.9812620282173157 2.082226037979126 5.27532434463501 109 105 107
-0.8388187289237976 0.06029564514756203 5.233086585998535 21 18 23
-0.9735426902770996 0.6821979880332947 5.112110614776611 82 78 83
1.9752051830291748 -0.7991446256637573 4.928347587585449 113 117 132
1.2521151304244995 0.5241079330444336 5.576818466186523 28 16 15
1.2853479385375977 -0.8473879098892212 5.364121437072754 108 100 98
1.2874929904937744 0.5525146722793579 5.573310375213623 255 253 249
1.2449414730072021 -0.8397674560546875 5.321805000305176 67 55 51
-1.3943217992782593 -0.7382591962814331 4.766806602478027 85 75 61
-1.0470476150512695 0.7060684561729431 5.017477989196777 32 29 34
1.1681978702545166 -0.7798196077346802 5.231696128845215 225 218 209
-0.6433004140853882 0.6200794577598572 5.513012886047363 9 8 18
1.1414635181427002 1.6709543466567993 5.269363880157471 113 104 96
-1.3918417692184448 -0.09851495921611786 4.847167491912842 77 69 57
-0.8079277276992798 0.28098708391189575 5.262103080749512 155 151 157
-0.7996202111244202 0.2683335840702057 5.246437072753906 162 158 164
1.6142735481262207 1.7253867387771606 4.951237678527832 82 72 67
-0.6545465588569641 0.23553325235843658 5.467073440551758 19 18 24
1.9238364696502686 -0.5624597072601318 6.056647300720215 121 119 120
-1.0221065282821655 -1.1201585531234741 4.787508964538574 45 42 45
-1.3876339197158813 -1.1180344820022583 4.708362579345703 94 85 68
-1.3989921808242798 0.3141477406024933 4.885617256164551 67 57 42
1.1048840284347534 1.9027519226074219 5.331377983093262 136 127 122
-0.9965841174125671 0.29261496663093567 5.047282695770264 119 115 120
1.077781319618225 1.4422131776809692 5.315828800201416 118 111 120
1.6070020198822021 1.7403749227523804 4.927834987640381 123 116 110
1.4677985906600952 -1.0711311101913452 4.965909481048584 156 144 135
-0.5268447995185852 0.4142846167087555 5.7014384269714355 94 97 114
1.4116891622543335 -1.0834485292434692 5.029280662536621 159 147 136
1.9797064065933228 0.44268760085105896 6.040206432342529 210 206 205
-0.6363290548324585 0.2326703518629074 5.5196075439453125 49 48 55
1.589596152305603 1.7128102779388428 4.961935043334961 114 104 96
-1.0324643850326538 1.0987123250961304 5.0816240310668945 155 150 152
1.0775097608566284 1.4538248777389526 5.3144330978393555 143 136 141
1.8192940950393677 0.11642701923847198 6.113283157348633 98 92 91
-0.9874656796455383 1.2829387187957764 5.191981315612793 47 41 46
1.8605258464813232 -0.38360291719436646 6.091794490814209 241 238 239
-1.4427471160888672 -1.9301955699920654 4.5274152755737305 87 79 66
-1.025689959526062 -0.09504610300064087 4.8201704025268555 69 67 72
-0.6626907587051392 0.45680609345436096 5.53122615814209 160 157 168
2.2845053672790527 -0.3943144381046295 5.900195598602295 57 53 52
-0.6449097394943237 0.46402692794799805 5.53943395614624 81 80 90
-0.10494577139616013 -2.2608823776245117 5.6263556480407715 78 73 67
-0.19321541488170624 -2.268958806991577 5.641307830810547 101 98 91
-0.30771949887275696 -2.2288739681243896 5.607516765594482 113 116 115
0.7261282205581665 1.0038138628005981 5.499061584472656 145 134 125
1.815618634223938 1.5544028282165527 4.771171569824219 76 68 65
1.1173328161239624 1.6359570026397705 5.16525411605835 55 45 40
1.16269052028656 1.6839879751205444 5.263421535491943 34 22 20
1.8483543395996094 1.572809100151062 4.808060646057129 34 25 25
1.3783403635025024 1.3164409399032593 5.117218017578125 25 20 21
1.7231076955795288 -0.6790827512741089 4.236103534698486 195 203 221
-0.8186940550804138 0.8583887815475464 5.39060115814209 65 60 67
1.4024194478988647 1.577437400817871 5.34846305847168 80 73 72
-1.2253636121749878 1.1320940256118774 4.867913246154785 151 146 147
1.2117043733596802 1.6512142419815063 5.1295671463012695 105 95 92
1.237109661102295 1.6587883234024048 5.132564544677734 26 18 17
-0.9733476042747498 0.8854644298553467 5.133448600769043 154 151 159
1.9094816446304321 1.6347496509552002 5.031710147857666 87 79 78
-0.8022825717926025 0.6565371751785278 5.382188320159912 12 8 16
-1.046925663948059 0.70603346824646 5.017185211181641 32 29 34
-0.4808889925479889 -0.3927471935749054 5.591408729553223 146 143 150
-0.9651360511779785 1.443267822265625 5.211010932922363 105 98 102
-1.3935492038726807 -0.5197553038597107 4.802555084228516 22 13 7
-1.034413456916809 1.662735104560852 5.146613597869873 32 27 29
1.048370599746704 1.4449894428253174 5.30667781829834 120 112 118
-1.3742141723632812 -2.082550048828125 4.176324844360352 72 68 66
-0.8319266438484192 -0.11941034346818924 5.186132907867432 36 33 43
0.45220381021499634 2.0241072177886963 5.833776950836182 22 16 21
-1.1165827512741089 -2.1181938648223877 4.501620769500732 163 158 158
-1.3660236597061157 -0.2975320518016815 4.808585166931152 152 144 137
-1.2286913394927979 0.9311550259590149 4.8444695472717285 152 148 149
1.6076934337615967 0.4322119951248169 5.640937328338623 188 182 179
-0.6030229926109314 -2.241898536682129 5.143427848815918 57 63 61
-0.4729434847831726 -2.242277145385742 5.179152011871338 121 126 116
-0.41035550832748413 -2.3122456073760986 5.313460350036621 33 33 26
-0.302625834941864 -2.4268484115600586 5.576853275299072 87 87 86
-1.2083402872085571 0.9285109639167786 4.847737789154053 157 153 158
-0.6486323475837708 0.8135983943939209 5.563201904296875 28 25 29
-0.501821756362915 -2.1758954524993896 5.273863792419434 52 52 52
-0.07646182179450989 1.1669542789459229 6.1400675773620605 104 97 99
-0.5018485188484192 -2.175919532775879 5.273951053619385 52 52 52
-0.07923342287540436 2.766289234161377 5.62003755569458 106 104 104
0.8513830900192261 1.4435033798217773 5.432605266571045 27 21 26
1.4031579494476318 0.44855934381484985 5.608947277069092 137 132 128
2.1285393238067627 -0.35632485151290894 5.970578193664551 90 83 83
1.7315622568130493 -0.3036624789237976 6.00264835357666 64 63 65
1.2551350593566895 -1.9619168043136597 4.919671535491943 95 84 75
-1.0714187622070312 -0.37783896923065186 4.807853698730469 165 166 171
1.3495603799819946 1.5181422233581543 5.146999835968018 85 77 75
-1.021091341972351 -0.9231209754943848 4.835720062255859 15 14 18
-1.0153396129608154 -0.4951356053352356 4.840449810028076 115 114 118
-0.09004170447587967 2.8027682304382324 5.336280822753906 91 91 92
-1.4136897325515747 0.6943321824073792 4.949889659881592 40 28 18
-1.1782323122024536 -1.6947113275527954 4.481688976287842 104 99 99
-0.16248951852321625 1.1461377143859863 6.14835786819458 90 83 90
1.1510833501815796 1.4988385438919067 5.287140846252441 166 156 159
0.4287855625152588 1.4041101932525635 5.742773532867432 111 104 114
1.7381283044815063 -0.7868344783782959 5.072228908538818 170 178 199
-0.6609480381011963 -0.9695378541946411 5.370284557342529 36 34 36
-0.6315144300460815 -0.9745017886161804 5.324765205383301 141 140 142
-1.1728243827819824 -0.7137633562088013 4.604133129119873 134 130 132
1.823093295097351 -0.7784141302108765 4.9941911697387695 125 131 148
-1.0308936834335327 -0.7329013347625732 4.838328838348389 41 40 42
1.8063381910324097 1.9455204010009766 4.787293434143066 55 46 41
0.06527358293533325 1.3638319969177246 5.996110916137695 18 14 21
-0.5207473635673523 0.6182988882064819 5.782344341278076 11 9 15
0.5052384734153748 0.9740937948226929 5.667903423309326 60 50 43
1.7120031118392944 -0.8170384168624878 5.364866256713867 69 78 100
-1.0228086709976196 -1.5111559629440308 4.734569072723389 62 57 57
-0.8068991899490356 0.680274248123169 5.332312107086182 68 62 68
1.0462130308151245 0.5833761692047119 5.507796764373779 37 19 14
-1.4101333618164062 0.9153822064399719 4.996730804443359 86 79 67
-1.0732442140579224 -0.3740502893924713 4.8155388832092285 182 182 187
-0.4951549470424652 -0.7864021062850952 5.58604097366333 70 70 77
-1.003930687904358 2.073528289794922 5.23705530166626 23 19 21
-1.2041983604431152 0.7290832996368408 4.801234245300293 164 159 164
-1.2213083505630493 1.3228541612625122 4.896707057952881 112 107 108
-1.3363265991210938 -1.5007407665252686 4.63388204574585 81 77 72
1.5927000045776367 1.7361640930175781 4.959212779998779 115 107 99
-0.9874553680419922 1.282936930656433 5.19195556640625 47 41 46
-1.0178931951522827 0.27834436297416687 5.012826919555664 141 136 144
-1.4110339879989624 0.26840740442276 4.894642353057861 64 55 41
-0.9384852647781372 -0.13069209456443787 4.893251419067383 59 55 61
-1.3876497745513916 -1.1180405616760254 4.708394527435303 94 85 68
1.1572431325912476 -0.6256629228591919 5.206932067871094 210 206 197
-1.3990203142166138 0.31415075063705444 4.885692119598389 67 57 42
-1.0258270502090454 0.3037849962711334 4.969186305999756 126 121 126
-0.46961280703544617 1.1929666996002197 5.881400108337402 23 17 19
-0.8031654953956604 1.0805463790893555 5.385970115661621 65 60 62
-1.0636682510375977 -1.1427323818206787 4.888824939727783 31 28 30
1.5970884561538696 1.3178682327270508 4.948597431182861 16 13 17
-0.4834766089916229 -0.41551247239112854 5.620412826538086 60 58 65
-0.4826841950416565 0.8012924194335938 5.776153564453125 146 144 151
-0.9862692356109619 -0.11747214943170547 5.013797283172607 74 69 76
0.45920267701148987 1.8082250356674194 5.7918901443481445 14 10 16
-0.001620777533389628 0.4944569766521454 6.220428466796875 110 97 88
0.6935285329818726 1.632664442062378 5.603817939758301 75 71 76
-0.9981734752655029 -0.9518139362335205 4.998585224151611 71 67 71
-0.666383683681488 -1.7644494771957397 5.214723587036133 26 23 24
-1.4132686853408813 0.5067029595375061 4.933846950531006 94 86 69
-0.10750651359558105 2.7592830657958984 5.5648956298828125 146 143 143
-0.4779096841812134 -2.284428596496582 5.152148723602295 102 103 86
0.9707468152046204 1.86457359790802 5.41093635559082 37 27 24
0.49727097153663635 1.2019972801208496 5.709681987762451 7 6 16
1.0810787677764893 0.575581967830658 5.540643215179443 166 149 138
0.4440419673919678 1.211815595626831 5.76057767868042 32 29 38
1.2417335510253906 0.594118058681488 5.5256876945495605 175 163 155
-0.9476975202560425 1.6341955661773682 5.096904277801514 79 74 76
1.0472893714904785 0.5849262475967407 5.511119842529297 37 19 14
-0.16229405999183655 1.14584481716156 6.146845817565918 90 83 90
-0.2938762903213501 -1.8030591011047363 5.668313026428223 101 97 99
-1.0456961393356323 0.8728728294372559 5.082169532775879 137 132 138
-1.0900020599365234 0.9169110655784607 5.176876544952393 58 54 56
-1.022109866142273 -1.1201611757278442 4.787517070770264 45 42 45
1.7050271034240723 -0.44831669330596924 5.967921257019043 201 201 204
0.8385375738143921 1.3738600015640259 5.233957290649414 49 42 48
-1.1968138217926025 1.2815574407577515 4.8605523109436035 68 65 72
1.8193013668060303 0.11642643064260483 6.113317489624023 98 92 91
0.8699246048927307 2.215604782104492 5.485622406005859 88 82 86
0.716296374797821 0.9926958680152893 5.439767837524414 146 136 127
1.2171870470046997 -2.078829765319824 4.699120044708252 51 47 44
-0.6030195355415344 -2.241899251937866 5.143439769744873 57 63 61
-0.4729411005973816 -2.242281198501587 5.17915678024292 121 126 116
-0.413310170173645 -2.3171298503875732 5.325267314910889 33 33 26
-0.3026251196861267 -2.4268462657928467 5.576848030090332 87 87 86
-1.0381958484649658 -0.4944104850292206 4.854049205780029 11 10 14
-1.0394773483276367 1.4803816080093384 5.118649482727051 23 17 19
-0.8357887268066406 0.0597684271633625 5.22410774230957 27 23 27
1.597094178199768 1.3178704977035522 4.948609352111816 16 13 17
-1.358618974685669 -1.9115768671035767 4.630692958831787 98 92 82
-1.0921825170516968 1.5304995775222778 5.257112979888916 27 20 23
-1.5511887073516846 -1.8593884706497192 4.577103614807129 84 74 60
1.7088072299957275 -0.5989668965339661 6.046931266784668 125 128 131
-0.7998771667480469 0.43379664421081543 5.268831729888916 129 125 131
-0.10494603216648102 -2.2608823776245117 5.626354217529297 78 73 67
-0.19284792244434357 -2.2717254161834717 5.6447882652282715 130 126 118
1.3253518342971802 -2.020416021347046 5.037248134613037 82 77 72
1.2551621198654175 -1.961992859840393 4.919832706451416 95 84 75
-0.30772289633750916 -2.2288992404937744 5.607583999633789 113 116 115
1.2809516191482544 1.458564281463623 5.110937118530273 102 97 107
1.1510868072509766 1.4988476037979126 5.287166118621826 166 156 159
-0.804803729057312 1.083997130393982 5.393123626708984 58 53 55
-1.0414626598358154 -0.08490219712257385 4.902126312255859 26 23 28
-0.9779237508773804 1.0515474081039429 5.156636714935303 125 119 121
-0.9968001246452332 1.0801560878753662 5.158229351043701 138 133 135
1.4067643880844116 0.4606432616710663 5.7556891441345215 214 207 205
1.403160572052002 0.44856005907058716 5.6089324951171875 137 132 128
-1.0322502851486206 0.4909694492816925 4.962705612182617 84 80 85
-0.8319188952445984 -0.11942045390605927 5.186087131500244 36 33 43
-0.4889417290687561 0.397687703371048 5.53725528717041 128 130 147
-0.9862547516822815 -0.11745849996805191 5.013775825500488 74 69 76
-1.0379818677902222 1.105412244796753 5.1112518310546875 183 178 180
-0.7889983057975769 0.6600724458694458 5.294970989227295 143 139 145
-1.2114858627319336 0.33274006843566895 4.7437262535095215 159 155 157
-0.9735207557678223 0.6821885108947754 5.112051486968994 82 78 83
-1.04401695728302 0.3013891577720642 4.960595607757568 55 51 56
-1.0278189182281494 1.0715914964675903 4.942471027374268 95 90 91
-1.0469269752502441 0.7060340046882629 5.017188549041748 32 29 34
-1.3943859338760376 0.29424014687538147 4.887494087219238 26 18 6
-1.4110299348831177 0.2684062421321869 4.8946332931518555 64 55 41
0.25676679611206055 0.34683966636657715 6.287579536437988 229 224 218
-0.8126625418663025 0.2844724953174591 5.217896461486816 105 101 108
-0.96165931224823 0.25875169038772583 5.003077983856201 114 110 116
2.202688217163086 0.27253687381744385 5.944883823394775 241 238 236
-0.7960388660430908 0.8215551376342773 5.337469577789307 122 117 123
-0.3246069550514221 0.9651321172714233 6.005537986755371 24 16 16
1.2417186498641968 1.663590908050537 5.141132831573486 28 20 20
1.6262463331222534 -0.7368729710578918 4.786686420440674 109 116 134
1.8156417608261108 1.554423451423645 4.771223068237305 76 68 65
1.2037227153778076 -0.798230767250061 5.194817543029785 243 240 237
-0.3013036549091339 -1.9455375671386719 5.648829936981201 145 139 136
1.15803861618042 -0.7914137244224548 5.147489070892334 99 84 74
1.8156476020812988 1.5544335842132568 4.771247386932373 76 68 65
1.2853504419326782 -0.8473939299583435 5.364138126373291 108 100 98
1.2927244901657104 1.6597044467926025 5.150147914886475 137 128 125
1.6785417795181274 -0.7966222167015076 5.040628910064697 162 168 190
1.5801395177841187 -0.769843339920044 4.839267730712891 122 128 141
1.5809179544448853 -0.8081698417663574 5.1215667724609375 195 201 219
1.2370814085006714 1.6440246105194092 5.1349310874938965 91 82 79
1.7315700054168701 -0.303670197725296 6.002677917480469 64 63 65
-1.0257035493850708 1.7369939088821411 5.3829569816589355 66 61 63
1.1175287961959839 1.636234998703003 5.166029930114746 55 45 40
-1.0256226062774658 1.6446892023086548 5.154785633087158 80 75 77
-0.8127105832099915 0.4566032886505127 5.245387077331543 63 59 65
1.5649559497833252 1.6819952726364136 4.892329692840576 126 116 108
2.1286351680755615 -0.35634079575538635 5.970845699310303 90 83 83
1.6142771244049072 1.7253869771957397 4.951250076293945 82 72 67
-1.0286335945129395 1.2546237707138062 5.099499702453613 105 99 103
-0.9395857453346252 1.2433710098266602 5.06105375289917 111 105 111
2.081146478652954 -0.3647160530090332 5.914994716644287 239 238 241
-0.959896981716156 1.2509634494781494 5.052255630493164 97 90 95
1.6151046752929688 1.7188950777053833 4.88845157623291 27 19 17
2.0381247997283936 -0.7231217622756958 5.582956314086914 206 213 221
-1.1868036985397339 -0.30644944310188293 4.666935920715332 124 122 127
1.0973100662231445 1.8891375064849854 5.298511981964111 123 113 109
-0.6432610750198364 0.6200714111328125 5.512880325317383 9 8 18
-1.1737016439437866 -0.9188123345375061 4.590358257293701 144 142 144
0.13494408130645752 2.7711617946624756 5.383549690246582 52 52 52
1.1224727630615234 2.040452718734741 5.2828779220581055 91 81 78
1.7958438396453857 -0.4374884068965912 6.05644416809082 53 46 47
-1.0262421369552612 0.46814626455307007 4.9899582862854 104 101 107
1.3589032888412476 1.4912906885147095 5.0145392417907715 154 145 141
-0.6446818709373474 0.8085150718688965 5.528356552124023 46 43 47
0.728587806224823 0.9743130803108215 5.4266157150268555 55 43 36
-1.257712960243225 -2.0929794311523438 4.309058666229248 90 87 85
-1.1125892400741577 -2.113926649093628 4.493228435516357 163 158 158
1.6531295776367188 -2.0115807056427 4.266511917114258 70 70 74
-1.1966115236282349 1.0863115787506104 4.834519386291504 89 86 92
1.3642419576644897 -2.0977110862731934 4.643704891204834 95 92 95
-0.47752952575683594 -2.283508539199829 5.150493144989014 102 103 86
1.8976991176605225 0.4933112561702728 5.282647132873535 94 93 94
2.171715259552002 0.2801780700683594 5.96209716796875 218 215 211
0.7771443724632263 1.0429285764694214 5.503109455108643 159 150 144
-0.48952147364616394 0.2534977197647095 5.7292656898498535 146 146 164
-0.10936722904443741 1.1630452871322632 6.122497081756592 177 168 169
-0.5770679116249084 -2.1810503005981445 5.242798805236816 118 118 121
-0.44415417313575745 0.22323068976402283 5.83584451675415 133 133 148
2.145458459854126 -0.19933833181858063 5.87467098236084 196 190 191
-0.47044503688812256 1.1602437496185303 5.870669841766357 82 74 74
-0.4010865390300751 -2.1390480995178223 5.468803405761719 76 71 73
1.3744423389434814 -0.8100248575210571 5.285499095916748 167 167 180
-0.990657389163971 1.4592803716659546 5.126056671142578 134 127 130
-0.33044135570526123 0.548707127571106 5.925211429595947 102 98 109
1.002849817276001 0.6019458174705505 5.4857096672058105 180 163 153
1.684670090675354 2.1026036739349365 4.907700061798096 68 59 52
1.4225695133209229 -1.254708170890808 5.001670837402344 44 30 18
-0.5984974503517151 0.6259397268295288 5.635568141937256 76 75 85
1.4383282661437988 0.4537280201911926 5.559413909912109 147 142 139
1.067269206047058 1.410328984260559 5.302880764007568 96 90 102
-1.071395993232727 -0.37784162163734436 4.807784557342529 165 166 171
-0.6537558436393738 -1.799613118171692 5.3374128341674805 51 49 50
-1.4106521606445312 1.4719229936599731 5.040493965148926 74 66 53
1.322004795074463 -0.782433807849884 5.33273983001709 179 176 185
1.375510334968567 -1.1974948644638062 5.102742671966553 43 29 17
1.3424350023269653 -0.8177871704101562 5.623010158538818 122 116 119
1.205397605895996 -0.8738797307014465 5.224924087524414 101 85 71
1.61985182762146 1.5521984100341797 4.8804850578308105 165 154 148
-1.2103362083435059 1.683546781539917 4.942532539367676 101 96 101
1.1899958848953247 1.6349953413009644 5.404814720153809 106 96 90
-0.49512916803359985 -0.7863821983337402 5.585927963256836 70 70 77
1.1327018737792969 1.686578631401062 5.300018787384033 48 39 35
0.42879197001457214 1.4040749073028564 5.742644309997559 111 104 114
1.35477876663208 -1.0931618213653564 5.076765537261963 155 143 131
0.789055347442627 1.4084664583206177 5.470815658569336 115 113 131
-1.1823694705963135 1.5043268203735352 4.881646156311035 153 149 153
1.6502457857131958 1.4919254779815674 4.831714630126953 121 113 111
-1.353857398033142 -0.9270908832550049 4.721892356872559 67 63 62
-1.336342692375183 -1.5007551908493042 4.633914947509766 81 77 72
-0.634088397026062 -0.3348675072193146 5.373146057128906 133 132 141
-1.0441612005233765 -1.5113201141357422 4.733574390411377 34 32 32
-0.4946921765804291 0.8300355672836304 5.9423828125 145 142 152
-0.4826258420944214 0.8012512922286987 5.775847911834717 146 144 151
-0.4068427085876465 -1.9531199932098389 5.433045864105225 45 41 39
0.9806342124938965 0.4294668138027191 5.850815773010254 199 188 182
1.6084316968917847 0.4356618821620941 5.82138204574585 190 184 181
-0.6441352367401123 0.43669942021369934 5.549072265625 154 152 164
1.3401697874069214 0.4365246891975403 5.559867858886719 166 159 156
