ply
format ascii 1.0
element vertex 718
property float x
property float y
property float z
property uchar red
property uchar green
property uchar blue
end_header
-1.0070147514343262 -2.3622028827667236 5.839737415313721 71 75 98
-1.0030056238174438 -3.6466455459594727 5.820620059967041 60 61 66
-1.0905938148498535 0.39488381147384644 6.3535943031311035 119 121 135
-1.0455816984176636 -1.3449069261550903 6.1116156578063965 102 105 118
-0.9746143817901611 -2.933525800704956 5.808737754821777 71 74 85
-1.0231658220291138 -2.8582873344421387 5.928957462310791 90 90 102
-1.0814059972763062 1.283524751663208 6.474149703979492 164 161 185
-1.1096549034118652 1.642005205154419 6.521874904632568 86 93 107
-1.0730924606323242 0.7670983076095581 6.378298759460449 56 55 67
-1.112823247909546 2.345318555831909 6.619229793548584 67 65 68
-1.0839788913726807 1.0356510877609253 6.495705604553223 50 50 70
-1.0609694719314575 0.01648077927529812 6.3622870445251465 82 84 101
-1.0814738273620605 1.2835922241210938 6.474480628967285 164 161 185
-0.985802173614502 -3.6881606578826904 5.924169540405273 77 78 82
-1.0229592323303223 -0.9644672870635986 6.151085376739502 110 113 124
-1.0146477222442627 -1.2746458053588867 6.131998538970947 91 93 114
-1.014783263206482 -3.105189085006714 6.001998424530029 84 86 91
-1.051371693611145 0.37345731258392334 6.375628471374512 26 26 37
-1.0477131605148315 0.4318540394306183 6.356093883514404 62 62 80
-1.084821105003357 2.152552843093872 6.599279880523682 44 43 52
-0.9485951662063599 -2.6003973484039307 5.930276870727539 47 52 76
-1.0711017847061157 1.892850399017334 6.590500354766846 94 85 84
-1.0711017847061157 1.892850399017334 6.590500354766846 94 85 84
-0.9631929397583008 -2.9271934032440186 5.869688034057617 66 69 80
-1.0688084363937378 1.8213753700256348 6.5819525718688965 84 76 75
-0.9438378214836121 -3.5735294818878174 5.814316749572754 57 58 63
-1.0512912273406982 0.040315091609954834 6.465602397918701 20 21 32
-1.0612791776657104 1.6414775848388672 6.542590141296387 50 52 65
-0.9712881445884705 -2.268843173980713 6.013002872467041 84 85 103
-0.9550835490226746 -2.8546648025512695 5.9124250411987305 91 92 102
-0.9742835760116577 -2.1453797817230225 6.0323357582092285 85 86 102
-0.9485668540000916 -3.0070626735687256 5.891161918640137 66 67 77
-0.9318469166755676 -2.820084571838379 5.916141033172607 57 59 72
-0.9318469166755676 -2.820084571838379 5.916141033172607 57 59 72
-1.0731475353240967 3.0144577026367188 6.670251846313477 8 6 9
-1.0731475353240967 3.0144577026367188 6.670251846313477 8 6 9
-1.0554550886154175 1.9402235746383667 6.591977596282959 78 69 69
-0.9364566802978516 -3.512209177017212 5.850433349609375 27 28 31
-1.0686471462249756 2.851376533508301 6.685577392578125 40 39 44
-0.9403818249702454 -3.157258987426758 5.881178855895996 71 76 89
-1.0188385248184204 0.2735673487186432 6.378201484680176 63 61 73
-0.9727994799613953 -1.1907203197479248 6.147342205047607 76 80 104
-1.0359047651290894 1.6076263189315796 6.5602569580078125 30 32 54
-1.0302311182022095 1.693952202796936 6.534364223480225 45 44 55
-0.925358235836029 -2.9049553871154785 5.944418430328369 86 87 97
-0.9379339218139648 -2.37021541595459 5.972846031188965 68 73 94
-0.9379339218139648 -2.37021541595459 5.972846031188965 68 73 94
-0.9297273755073547 -2.9300966262817383 5.92702579498291 63 65 76
-0.9791436791419983 -0.6693762540817261 6.258236408233643 35 36 46
-0.9286690950393677 -2.673398494720459 5.9491987228393555 83 88 118
-0.9897871613502502 0.19371940195560455 6.354580402374268 61 61 78
-0.9084174633026123 -3.0159077644348145 5.869595050811768 79 81 89
-1.0051708221435547 1.854836344718933 6.471200942993164 87 78 77
-0.9464516043663025 -1.7754429578781128 6.096579551696777 80 85 106
-1.0061088800430298 0.9319478869438171 6.480151176452637 36 38 66
-1.027557134628296 1.7211928367614746 6.619804859161377 43 41 51
-0.9187755584716797 -2.738557815551758 5.998006343841553 73 79 110
-0.9056277275085449 -3.529418468475342 5.816774368286133 79 79 84
-0.9028218984603882 -3.1903042793273926 5.915620803833008 44 46 57
-0.9023805260658264 -2.7263407707214355 5.922824382781982 49 55 85
-0.9348145127296448 -1.7494748830795288 6.135554313659668 51 55 75
-0.9196339249610901 -2.229151725769043 6.026604652404785 57 61 92
-1.0045124292373657 1.7317570447921753 6.601201057434082 24 20 26
-0.9092487692832947 -2.3870933055877686 5.98183012008667 89 93 117
-0.9177713990211487 -2.1861886978149414 6.035737991333008 62 66 98
-0.8889617323875427 -3.4279937744140625 5.873837471008301 89 92 94
-0.9084647297859192 -1.8574421405792236 6.067152500152588 88 92 112
-0.8991952538490295 -2.2161781787872314 6.031501293182373 48 53 89
-0.9864290952682495 1.2588711977005005 6.534992694854736 57 55 77
-0.888350784778595 -3.060563564300537 5.966716289520264 60 62 70
-0.8941425085067749 -1.9546014070510864 6.084724426269531 84 87 112
-0.8966740965843201 -1.377044916152954 6.179388046264648 50 55 74
-0.90948086977005 0.029960406944155693 6.242320537567139 21 21 32
-0.8557603359222412 -3.4894003868103027 5.877990245819092 107 106 107
-0.8529871702194214 -3.2403645515441895 5.939999103546143 80 83 88
-0.9097873568534851 -0.6913623809814453 6.268985271453857 33 33 45
-0.8701914548873901 -2.330517292022705 6.00007438659668 30 34 62
-0.9012100696563721 -1.5007659196853638 6.216736316680908 69 75 98
-0.9145262837409973 -0.6884098052978516 6.315921783447266 71 71 82
-0.8865758776664734 -2.558285713195801 6.124885082244873 101 102 116
-0.8644012212753296 -2.603344202041626 5.989012718200684 29 31 45
-0.8725077509880066 -2.7641704082489014 5.989487171173096 94 97 109
-0.948818564414978 1.3595863580703735 6.587207317352295 35 33 58
-0.9300538897514343 1.0909068584442139 6.500306606292725 48 46 71
-0.867967963218689 -1.6973066329956055 6.089110851287842 18 21 47
-0.867967963218689 -1.6973066329956055 6.089110851287842 18 21 47
-0.8684366345405579 -1.8260681629180908 6.110271453857422 43 47 75
-0.8373233079910278 -3.3036389350891113 5.9001784324646 122 120 122
-0.8520155549049377 -2.5445470809936523 6.000703811645508 99 98 108
-0.8520155549049377 -2.5445470809936523 6.000703811645508 99 98 108
-0.9490912556648254 1.4011188745498657 6.56996488571167 59 60 83
-0.9359365105628967 1.852518916130066 6.624476909637451 63 57 59
-0.9245545864105225 1.2820096015930176 6.551336288452148 30 29 58
-0.9245545864105225 1.2820096015930176 6.551336288452148 30 29 58
-0.866355299949646 -1.7717827558517456 6.136035442352295 80 84 105
-0.8636141419410706 -1.733712911605835 6.119322776794434 135 140 160
-0.873854398727417 0.29598671197891235 6.323857307434082 56 55 65
-0.873854398727417 0.29598671197891235 6.323857307434082 56 55 65
-0.873854398727417 0.29598671197891235 6.323857307434082 56 55 65
-0.8190187215805054 -3.5578935146331787 5.855453014373779 67 68 70
-0.8384705185890198 -2.3176980018615723 6.007773399353027 74 78 104
-0.8121026754379272 -3.3774616718292236 5.89123010635376 127 123 124
-0.8301477432250977 -2.201791763305664 6.027709484100342 89 92 115
-0.8301477432250977 -2.201791763305664 6.027709484100342 89 92 115
-0.8646296262741089 -0.6384900808334351 6.282081127166748 103 104 114
-0.822574257850647 -1.0792176723480225 6.102330207824707 67 71 85
-0.8770295977592468 -0.04427424818277359 6.382699489593506 70 72 96
-0.8544464707374573 -0.7519599199295044 6.266935348510742 91 91 110
-0.8219310641288757 -2.5005292892456055 6.029242038726807 104 104 117
-0.8219310641288757 -2.5005292892456055 6.029242038726807 104 104 117
-0.8506121039390564 -2.0521950721740723 6.106218338012695 45 45 61
-0.8938271999359131 2.201381206512451 6.654151439666748 59 57 63
-0.8033196330070496 -2.474287509918213 5.995296955108643 97 99 113
-0.8570588231086731 0.21146783232688904 6.404957294464111 73 73 84
-0.8325522541999817 -1.069515347480774 6.229044437408447 109 111 122
-0.8253474831581116 -1.4013721942901611 6.183009624481201 31 36 55
-0.8707969784736633 1.0905662775039673 6.527141094207764 45 43 72
-0.8394096493721008 -0.3690474331378937 6.32912540435791 99 100 110
-0.8628104329109192 1.0556442737579346 6.529555320739746 109 108 128
-0.7859384417533875 -3.4644522666931152 5.890412330627441 92 92 100
-0.7775794267654419 -3.2679381370544434 5.913544654846191 38 40 59
-0.8030956983566284 -1.0298734903335571 6.257654190063477 135 138 145
-0.8479157090187073 0.4328559339046478 6.456387996673584 55 55 72
-0.7799617052078247 -3.1083664894104004 5.938729763031006 72 75 80
-0.8030940294265747 -1.9333299398422241 6.124504566192627 60 63 84
-0.8344269394874573 -0.027696486562490463 6.374054431915283 72 73 98
-0.7886025309562683 -1.388611912727356 6.033867359161377 62 67 93
-0.7838110327720642 -2.4999046325683594 6.043412685394287 82 83 97
-0.794338047504425 -3.193336009979248 6.028493404388428 43 45 53
-0.794338047504425 -3.193336009979248 6.028493404388428 43 45 53
-0.8679575324058533 2.366044521331787 6.719971656799316 13 12 20
-0.8243509531021118 0.09908787906169891 6.398321628570557 42 41 50
-0.7223262786865234 -2.5148262977600098 5.789408206939697 60 60 64
-0.8238691687583923 0.35282042622566223 6.464330196380615 30 29 35
-0.7751853466033936 -1.9420210123062134 6.107355117797852 79 83 103
-0.8227360248565674 0.7731382846832275 6.484551429748535 100 102 111
-0.8227360248565674 0.7731382846832275 6.484551429748535 100 102 111
-0.775372326374054 -1.7566815614700317 6.154581546783447 50 52 71
-0.8181488513946533 0.8831776976585388 6.5032501220703125 87 91 100
-0.7704336643218994 -1.8199214935302734 6.132032871246338 90 92 113
-0.7704336643218994 -1.8199214935302734 6.132032871246338 90 92 113
-0.7998623847961426 0.3551977276802063 6.47749137878418 13 12 18
-0.8116406798362732 0.9850051403045654 6.517259120941162 95 95 106
-0.809901773929596 1.136927843093872 6.512434959411621 32 32 66
-0.7616498470306396 -1.6891974210739136 6.128000259399414 70 76 111
-0.7383909821510315 -2.562859535217285 6.006176471710205 55 54 59
-0.8078760504722595 1.5106189250946045 6.578662395477295 56 54 60
-0.7239034175872803 -3.139885663986206 5.909501075744629 72 73 83
-0.7239049673080444 -3.1398847103118896 5.909494400024414 72 73 83
-0.7629439830780029 -1.8955873250961304 6.26757287979126 72 74 96
-0.8085770606994629 2.123215913772583 6.611226558685303 36 35 44
-0.799849271774292 0.35518547892570496 6.477454662322998 13 12 18
-0.7375265955924988 -2.26713490486145 6.106260299682617 92 93 105
-0.7229851484298706 -1.7401535511016846 6.132578372955322 159 160 180
-0.7898679375648499 1.3218275308609009 6.618758201599121 58 59 75
-0.6898159980773926 -2.4734978675842285 5.958648681640625 59 59 62
-0.6898159980773926 -2.4734978675842285 5.958648681640625 59 59 62
-0.7572035193443298 -0.30697527527809143 6.381439685821533 102 103 113
-0.7849313020706177 1.5030722618103027 6.64221715927124 25 24 25
-0.7730157971382141 0.9521142840385437 6.556344032287598 15 12 23
-0.7916901707649231 2.255373477935791 6.720442771911621 54 54 59
-0.7584699392318726 1.039314866065979 6.597165107727051 25 23 33
-0.7379067540168762 1.6552331447601318 6.510467052459717 29 24 25
-0.7105306386947632 -1.9989217519760132 6.103698253631592 54 58 80
-0.7105306386947632 -1.9989217519760132 6.103698253631592 54 58 80
-0.7729856967926025 0.7976341247558594 6.582024574279785 146 142 151
-0.7136977314949036 -1.5021456480026245 6.178730010986328 41 47 86
-0.6699643135070801 -3.335463762283325 5.931458950042725 83 83 93
-0.6960983276367188 -2.211548328399658 6.1052937507629395 90 92 107
-0.7573611736297607 1.7053295373916626 6.684941291809082 27 23 23
-0.7166571617126465 0.7104607224464417 6.50596809387207 166 162 174
-0.7600111961364746 2.7442831993103027 6.808981895446777 15 14 17
-0.7222669720649719 0.7817955613136292 6.500266075134277 52 47 62
-0.6785560846328735 -2.0480082035064697 6.130504131317139 52 54 73
-0.660881519317627 -3.2448699474334717 5.989509105682373 30 33 45
-0.6790180206298828 -2.4098594188690186 6.168920040130615 58 64 87
-0.6598808169364929 -2.431021213531494 6.054678916931152 31 33 43
-0.7383790612220764 2.3701515197753906 6.770602703094482 77 77 81
-0.6490259170532227 -3.0304741859436035 5.989535331726074 101 101 106
-0.7219353318214417 1.7210323810577393 6.668403625488281 77 71 72
-0.6590057015419006 -2.239827871322632 6.095376491546631 70 72 88
-0.6795102953910828 -0.779090166091919 6.3134636878967285 79 79 94
-0.6703638434410095 -0.4199346899986267 6.303661823272705 95 100 118
-0.6586516499519348 -1.814566731452942 6.1524977684021 72 74 98
-0.7100757956504822 2.2743310928344727 6.760231018066406 29 26 27
-0.6872674226760864 0.5721445083618164 6.4923415184021 70 75 105
-0.704958438873291 1.4692469835281372 6.6620893478393555 50 47 49
-0.6362641453742981 -2.4216325283050537 6.060268878936768 63 65 79
-0.6692707538604736 -0.7176063060760498 6.371786117553711 36 38 47
-0.7025078535079956 1.6929569244384766 6.654616832733154 12 7 6
-0.6402278542518616 -1.7306092977523804 6.178842067718506 73 76 100
-0.6978960633277893 1.641200304031372 6.682140350341797 81 73 70
-0.6598647832870483 -0.3949136435985565 6.36759614944458 101 105 125
-0.5846697092056274 -3.291733503341675 5.849826335906982 46 44 46
-0.6881608963012695 1.331304669380188 6.66038703918457 49 49 55
-0.6346713304519653 -2.2913498878479004 6.095919132232666 71 72 87
-0.6615866422653198 -1.0384362936019897 6.354994773864746 95 99 107
-0.642341673374176 -1.8148478269577026 6.233078956604004 69 71 95
-0.6146345138549805 -3.2985477447509766 5.97743034362793 46 47 54
-0.6733264923095703 0.17068594694137573 6.456940174102783 61 59 70
-0.6230303645133972 -2.3326053619384766 6.09154748916626 56 59 78
-0.6443716883659363 -0.9841854572296143 6.339328765869141 95 96 106
-0.6193681955337524 -2.133030414581299 6.096076011657715 52 54 80
-0.6160522103309631 -2.9398655891418457 6.013523578643799 69 68 74
-0.6646037697792053 1.4350786209106445 6.658092021942139 43 41 41
-0.6646037697792053 1.4350786209106445 6.658092021942139 43 41 41
-0.620311975479126 -1.5383613109588623 6.213834762573242 82 88 112
-0.6414210796356201 0.5030293464660645 6.488548278808594 75 79 108
-0.5874529480934143 -3.2021710872650146 5.972469329833984 80 81 87
-0.5874529480934143 -3.2021710872650146 5.972469329833984 80 81 87
-0.58169025182724 -3.0344061851501465 5.992091178894043 75 76 94
-0.6402324438095093 1.0992637872695923 6.613739967346191 62 57 63
-0.6467588543891907 1.2586331367492676 6.674393177032471 39 37 49
-0.6615784168243408 2.661062717437744 6.8400397300720215 46 43 46
-0.6005951762199402 -0.5973403453826904 6.209996700286865 85 87 102
-0.6004528999328613 -1.7346317768096924 6.2114787101745605 60 64 90
-0.6253333687782288 0.23736964166164398 6.482852935791016 60 58 71
-0.6287853121757507 0.8051535487174988 6.537609577178955 73 66 79
-0.630087673664093 0.9680368900299072 6.561676979064941 74 68 81
-0.647406280040741 2.1527349948883057 6.748549938201904 67 61 62
-0.5863970518112183 -2.9258017539978027 6.144602298736572 76 77 87
-0.5863970518112183 -2.9258017539978027 6.144602298736572 76 77 87
-0.617448091506958 0.27635085582733154 6.476321220397949 69 67 79
-0.6312389969825745 1.328525424003601 6.642065048217773 29 27 35
-0.5684507489204407 -2.935232639312744 6.007174491882324 47 49 59
-0.5851247906684875 -1.6073353290557861 6.18877649307251 76 82 111
-0.6141706109046936 0.5827324986457825 6.51868200302124 59 62 93
-0.6099322438240051 0.16388501226902008 6.480149269104004 57 56 66
-0.581325113773346 -1.7043319940567017 6.19666051864624 48 54 89
-0.5589309334754944 -3.3005430698394775 5.96464729309082 64 64 67
-0.5803173780441284 -1.6471986770629883 6.201535224914551 74 81 111
-0.5589697360992432 -3.257570266723633 5.97379732131958 31 32 37
-0.6113144159317017 0.8927262425422668 6.562473297119141 62 55 66
-0.5341673493385315 -2.8804771900177 5.990437030792236 55 54 66
-0.5629349946975708 -2.1440415382385254 6.10552453994751 66 68 89
-0.565767765045166 -2.2127268314361572 6.13694429397583 51 52 70
-0.5848499536514282 -0.6665614247322083 6.373051643371582 88 89 100
-0.6373685002326965 2.1847434043884277 6.744890213012695 88 82 83
-0.6039254069328308 1.0933126211166382 6.633485794067383 65 60 65
-0.5492583513259888 -3.2797563076019287 6.04998254776001 58 58 64
-0.6036621928215027 2.191439390182495 6.742644786834717 47 42 43
-0.5957733988761902 0.7662594318389893 6.526895046234131 96 88 93
-0.5777621865272522 0.08971869945526123 6.465461254119873 76 73 78
-0.5777621865272522 0.08971869945526123 6.465461254119873 76 73 78
-0.5674344897270203 -0.6978436708450317 6.366884708404541 46 48 58
-0.5212662816047668 -2.9447097778320312 5.992444038391113 72 73 84
-0.525036633014679 -3.5669732093811035 5.940267086029053 43 42 48
-0.5479760766029358 -1.6443614959716797 6.208866119384766 33 39 81
-0.580222487449646 1.1369041204452515 6.611904144287109 56 51 53
-0.5674583911895752 0.3181588649749756 6.50466775894165 60 60 74
-0.5568875670433044 -1.0584298372268677 6.267068386077881 57 60 78
-0.524556040763855 -2.795616865158081 6.066981792449951 38 38 44
-0.524556040763855 -2.795616865158081 6.066981792449951 38 38 44
-0.5253567099571228 -0.6130094528198242 6.261746406555176 86 87 100
-0.5253567099571228 -0.6130094528198242 6.261746406555176 86 87 100
-0.5186955332756042 -1.0295401811599731 6.352308750152588 148 149 159
-0.5399085283279419 -0.661008894443512 6.350955009460449 94 95 106
-0.5497812032699585 0.05937300994992256 6.4698262214660645 91 88 95
-0.5395464897155762 -0.5993436574935913 6.355532646179199 102 103 116
-0.5375382304191589 -0.046274781227111816 6.45184326171875 66 67 89
-0.5133684873580933 -1.7168446779251099 6.213078022003174 46 53 93
-0.5469583868980408 1.1873819828033447 6.631335258483887 73 67 68
-0.5295990705490112 -0.341088205575943 6.4291510581970215 26 28 38
-0.544383704662323 0.08210746198892593 6.482245445251465 71 67 75
-0.5300811529159546 0.36604729294776917 6.539090633392334 97 97 113
-0.5515172481536865 2.310974359512329 6.807456970214844 46 44 45
-0.526748538017273 0.40498071908950806 6.5437541007995605 62 65 91
-0.5334388613700867 2.2992351055145264 6.629942893981934 58 55 57
-0.4925094544887543 -2.1488938331604004 6.144746780395508 68 70 90
-0.4899919927120209 -2.465259313583374 6.113677024841309 60 59 60
-0.4971410036087036 0.01147341076284647 6.460482120513916 75 74 85
-0.5183917284011841 0.0567995049059391 6.483609676361084 61 58 66
-0.4792131185531616 -3.1768102645874023 5.992746353149414 67 67 73
-0.5279325246810913 1.0928325653076172 6.640028476715088 52 46 48
-0.5352463722229004 0.7649204730987549 6.566304683685303 114 105 106
-0.49129751324653625 -2.0430448055267334 6.180872917175293 51 52 64
-0.5146733522415161 0.167576864361763 6.49276876449585 56 54 66
-0.5213403701782227 0.8079712390899658 6.595593452453613 87 76 74
-0.47173523902893066 -3.4170618057250977 5.989748954772949 25 27 35
-0.44993850588798523 -3.016444683074951 5.934225082397461 62 65 69
-0.5186586976051331 1.1403517723083496 6.67657995223999 75 69 69
-0.4478395879268646 -1.6472305059432983 6.075202941894531 56 63 104
-0.4478395879268646 -1.6472305059432983 6.075202941894531 56 63 104
-0.46132543683052063 -3.08855938911438 6.080252647399902 61 64 67
-0.4610191881656647 -0.5425779819488525 6.26593542098999 85 85 98
-0.47449174523353577 -2.0314435958862305 6.217676639556885 48 48 58
-0.4596463143825531 -0.6871305108070374 6.360019683837891 59 61 71
-0.4977082312107086 0.8378569483757019 6.597433567047119 149 136 134
-0.4977082312107086 0.8378569483757019 6.597433567047119 149 136 134
-0.5048784017562866 0.9267376661300659 6.642898082733154 90 79 79
-0.5048784017562866 0.9267376661300659 6.642898082733154 90 79 79
-0.48237818479537964 -0.2600950598716736 6.476830959320068 94 103 115
-0.4574441611766815 -2.1297671794891357 6.186697006225586 53 53 69
-0.4430750012397766 -2.0831716060638428 6.181473255157471 51 51 57
-0.4459480941295624 -2.8017334938049316 6.096056938171387 35 36 38
-0.46748122572898865 -0.7190703749656677 6.395279884338379 68 70 80
-0.5002767443656921 2.700587749481201 6.859802722930908 48 45 47
-0.44762060046195984 -2.1478147506713867 6.183061122894287 48 48 64
-0.46057358384132385 -0.6119768023490906 6.403509616851807 60 61 76
-0.48437950015068054 -0.2196904867887497 6.4840569496154785 83 89 109
-0.4590222239494324 -1.7470000982284546 6.2745280265808105 79 82 108
-0.4590222239494324 -1.7470000982284546 6.2745280265808105 79 82 108
-0.45901772379875183 -1.7469902038574219 6.2745256423950195 79 82 108
-0.44398102164268494 -1.0433242321014404 6.303649425506592 55 57 67
-0.46064049005508423 0.7638823390007019 6.607374668121338 44 32 30
-0.43562090396881104 -1.6405092477798462 6.249350547790527 36 41 85
-0.4370352625846863 -1.5055142641067505 6.291175842285156 66 70 102
-0.4370352625846863 -1.5055142641067505 6.291175842285156 66 70 102
-0.4525575339794159 0.15050111711025238 6.515091896057129 60 55 69
-0.4129711389541626 -3.2955334186553955 5.996803283691406 44 45 49
-0.41362133622169495 -3.226452112197876 6.021090030670166 24 24 30
-0.41250884532928467 -3.3074493408203125 6.017405986785889 43 44 48
-0.4131487309932709 -3.1096725463867188 6.042422294616699 63 63 64
-0.42811182141304016 -1.022718906402588 6.355002403259277 89 91 102
-0.42115554213523865 -0.9863806962966919 6.328187465667725 67 70 84
-0.4004218578338623 -3.5452053546905518 6.0234293937683105 19 17 21
-0.41589537262916565 -1.4848965406417847 6.282212257385254 50 54 86
-0.41487282514572144 -1.5297452211380005 6.280045986175537 49 55 88
-0.42290183901786804 -0.7546325325965881 6.404805660247803 71 74 85
-0.45136114954948425 0.8093796372413635 6.613761901855469 43 31 29
-0.45136114954948425 0.8093796372413635 6.613761901855469 43 31 29
-0.43520891666412354 -1.4245778322219849 6.3161702156066895 22 26 43
-0.43068113923072815 0.7741935849189758 6.637044429779053 64 54 53
-0.41223636269569397 -0.745291531085968 6.357191562652588 71 74 85
-0.4063205122947693 -1.6399794816970825 6.2653069496154785 43 48 86
-0.38018158078193665 -3.4505722522735596 5.990750312805176 70 76 83
-0.4119258522987366 0.4316827952861786 6.55367374420166 39 39 68
-0.3795146346092224 -3.0956201553344727 6.0659356117248535 33 33 36
-0.3784250020980835 -0.5067046880722046 6.4396491050720215 67 67 92
-0.39540618658065796 0.2483007311820984 6.564284801483154 77 74 91
-0.39289480447769165 -1.3916212320327759 6.308612823486328 38 38 49
-0.3729160726070404 -3.1733131408691406 6.031521797180176 98 96 97
-0.38016241788864136 -3.0367870330810547 6.166782379150391 29 30 34
-0.4047882556915283 0.5083978772163391 6.572788238525391 56 54 80
-0.3652414083480835 -3.6673765182495117 6.019328594207764 52 50 51
-0.386995404958725 -0.12366348505020142 6.492275238037109 59 61 84
-0.3480342626571655 -1.7201801538467407 6.154193878173828 22 21 27
-0.39444056153297424 1.0976979732513428 6.636434078216553 83 79 81
-0.3576786518096924 -3.28729510307312 6.022348403930664 23 22 26
-0.3877289891242981 0.27564966678619385 6.571362018585205 80 78 98
-0.35872069001197815 -2.7626330852508545 6.104824542999268 98 93 93
-0.3812500536441803 0.8973017334938049 6.647645473480225 114 105 107
-0.3592160940170288 -3.2622311115264893 6.052067756652832 37 36 41
-0.37234288454055786 1.031444787979126 6.721303462982178 125 120 122
-0.37369784712791443 1.1199191808700562 6.514330863952637 95 92 92
-0.36520227789878845 -0.33279332518577576 6.515227317810059 57 58 69
-0.36739975214004517 -0.9990190267562866 6.470042705535889 36 37 44
-0.3613620698451996 -0.9407039880752563 6.428808212280273 22 21 29
-0.3731990158557892 0.5385774970054626 6.595203876495361 34 34 60
-0.33628255128860474 -2.8439831733703613 6.038085460662842 67 65 76
-0.36457207798957825 0.11306716501712799 6.545777797698975 42 37 45
-0.3580615520477295 0.35070791840553284 6.600444793701172 151 149 162
-0.36207395792007446 0.2725260257720947 6.562301158905029 41 39 59
-0.36280888319015503 0.5750331878662109 6.60867166519165 65 64 89
-0.354208767414093 -0.4983077347278595 6.45230770111084 56 58 85
-0.34693023562431335 -0.7313804626464844 6.440224647521973 43 42 47
-0.33802616596221924 -2.3865370750427246 6.181073188781738 109 105 104
-0.33807122707366943 -2.4866790771484375 6.185729503631592 51 49 49
-0.3311551809310913 -2.9832305908203125 6.089287281036377 97 95 100
-0.3357744812965393 -2.383800983428955 6.171185493469238 110 106 105
-0.3495100140571594 -0.6967459917068481 6.445187091827393 70 72 79
-0.3495100140571594 -0.6967459917068481 6.445187091827393 70 72 79
-0.3723949193954468 1.031471848487854 6.7215681076049805 125 120 122
-0.3443790376186371 -3.4425172805786133 6.147880554199219 27 25 27
-0.33813929557800293 -2.7559049129486084 6.140236854553223 79 75 74
-0.33313116431236267 -0.6820887327194214 6.415342807769775 78 81 93
-0.3345507085323334 0.3839712142944336 6.596521854400635 14 11 15
-0.3275909125804901 -0.20920723676681519 6.498222827911377 90 89 102
-0.30742549896240234 -0.27957287430763245 6.495038032531738 53 52 63
-0.29495909810066223 -2.879847764968872 6.108752727508545 42 41 58
-0.29495909810066223 -2.879847764968872 6.108752727508545 42 41 58
-0.3056847155094147 -1.4192860126495361 6.347957134246826 24 22 28
-0.30725914239883423 -0.2807219326496124 6.494427680969238 53 52 63
-0.295782208442688 -2.3871688842773438 6.179378986358643 70 65 64
-0.26922595500946045 -2.8750250339508057 6.022908687591553 71 67 75
-0.2959669232368469 1.0303115844726562 6.7068963050842285 61 55 57
-0.28687137365341187 -3.005486011505127 6.107086658477783 73 69 72
-0.27609896659851074 -3.454704761505127 5.9861979484558105 56 55 58
-0.27609896659851074 -3.454704761505127 5.9861979484558105 56 55 58
-0.30353283882141113 0.7390068769454956 6.628777980804443 52 42 42
-0.3006887435913086 -2.244945526123047 6.211346626281738 109 102 95
-0.2689623534679413 -1.3948948383331299 6.362049102783203 88 87 96
-0.296899676322937 0.00475824810564518 6.545881748199463 81 79 86
-0.298255056142807 0.7652086615562439 6.624662399291992 81 72 71
-0.29801157116889954 0.5288325548171997 6.638440132141113 49 43 43
-0.28927022218704224 -0.6925267577171326 6.452144622802734 71 71 79
-0.28736135363578796 0.22194121778011322 6.589457988739014 41 38 52
-0.28736135363578796 0.22194121778011322 6.589457988739014 41 38 52
-0.27991408109664917 -0.6546235680580139 6.445008754730225 74 77 97
-0.2632138729095459 -2.196215867996216 6.188397407531738 104 95 88
-0.27689626812934875 -0.2639509439468384 6.532486438751221 49 48 57
-0.25823694467544556 -3.084016799926758 6.086491584777832 70 63 64
-0.27566900849342346 -0.2640449106693268 6.526320457458496 49 48 57
-0.25898897647857666 -2.335742950439453 6.184576511383057 71 63 60
-0.2536309063434601 -0.516288697719574 6.4333906173706055 45 51 73
-0.24676981568336487 -0.09987464547157288 6.509756565093994 45 42 53
-0.2685529291629791 0.3984493315219879 6.610605239868164 54 49 47
-0.2671927511692047 0.6817217469215393 6.653971195220947 149 141 141
-0.24818140268325806 -0.2720683217048645 6.503647327423096 52 49 57
-0.2615185081958771 0.6519419550895691 6.896631240844727 70 63 63
-0.24423256516456604 0.09899791330099106 6.568241119384766 58 51 57
-0.23539775609970093 -2.1683573722839355 6.340264320373535 64 57 55
-0.23043681681156158 -0.22239749133586884 6.511397838592529 48 46 56
-0.23056861758232117 -0.1909843534231186 6.543869495391846 68 65 77
-0.21877604722976685 -2.068063974380493 6.243960857391357 80 75 76
-0.22829653322696686 0.04564381390810013 6.573380947113037 74 68 74
-0.23314616084098816 0.18740078806877136 6.574815273284912 70 66 77
-0.22524887323379517 0.43872135877609253 6.6330037117004395 58 53 53
-0.22095727920532227 -0.28076183795928955 6.517981052398682 104 101 107
-0.22095727920532227 -0.28076183795928955 6.517981052398682 104 101 107
-0.2174631953239441 0.7187013626098633 6.583291530609131 79 68 68
-0.2191748470067978 0.5886029005050659 6.651607036590576 60 52 52
-0.20155365765094757 -2.4164164066314697 6.148647785186768 39 34 31
-0.19670450687408447 -1.452081561088562 6.280357360839844 49 43 52
-0.18988554179668427 -3.1260244846343994 6.1302924156188965 58 53 53
-0.18719905614852905 -2.4157886505126953 6.205867290496826 77 71 68
-0.18802428245544434 -2.946016550064087 6.225697994232178 49 45 48
-0.20615732669830322 -2.046570301055908 6.249182224273682 56 51 53
-0.19645653665065765 0.05223824456334114 6.561636924743652 68 61 67
-0.19532707333564758 -0.27265697717666626 6.526014804840088 46 42 49
-0.19162721931934357 -0.3042903542518616 6.5346150398254395 50 47 52
-0.19604472815990448 0.8715142607688904 6.7313618659973145 62 53 58
-0.1600620150566101 -0.08109817653894424 6.57321310043335 57 54 70
-0.16814248263835907 -2.152472972869873 6.258522987365723 49 43 44
-0.18802395462989807 -2.9461822509765625 6.226032733917236 49 45 48
-0.18801963329315186 -2.946174383163452 6.226016998291016 49 45 48
-0.15849892795085907 -2.1981048583984375 6.247353553771973 56 49 50
-0.1704472452402115 0.5140892863273621 6.828701972961426 52 45 48
-0.16114044189453125 0.6615303754806519 6.693124771118164 21 16 18
-0.13963820040225983 -0.1510145366191864 6.546335697174072 40 38 54
-0.15383023023605347 -1.270250678062439 6.397164344787598 33 31 43
-0.1471668928861618 -1.122601866722107 6.425760269165039 33 30 44
-0.12965886294841766 -1.4530062675476074 6.373031139373779 46 44 49
-0.12108945846557617 -2.3951261043548584 6.241415500640869 56 48 47
-0.12528949975967407 1.00729238986969 6.791879653930664 50 44 45
-0.058885153383016586 1.2934993505477905 5.666656970977783 113 109 106
-0.06267789751291275 1.1963359117507935 6.1091461181640625 93 90 88
-0.03466315194964409 1.3071924448013306 5.602167129516602 88 82 77
-0.03058703802525997 1.1579469442367554 6.330594062805176 67 63 60
-0.021982913836836815 1.1062687635421753 6.511252403259277 70 65 63
-0.015482952818274498 1.2774451971054077 5.691007614135742 91 87 83
0.04543720558285713 -3.450321674346924 5.678872585296631 54 56 55
0.040226228535175323 1.1919313669204712 6.085358142852783 99 95 90
0.06300531327724457 1.288750410079956 5.692820072174072 96 91 85
0.07533825933933258 1.1985235214233398 6.0932230949401855 88 81 77
0.09710579365491867 1.2120710611343384 5.973598480224609 74 67 64
0.14431403577327728 1.2980221509933472 5.57169246673584 82 73 64
0.20850957930088043 1.1903355121612549 5.943508625030518 101 87 79
0.2107698619365692 1.261729121208191 5.739600658416748 85 75 67
0.22168099880218506 1.2454853057861328 5.772773742675781 82 71 64
0.20105288922786713 1.4642055034637451 4.825416564941406 112 109 103
0.213314950466156 1.3876999616622925 5.168318271636963 92 85 77
0.24549570679664612 1.247368335723877 5.688604831695557 76 65 57
0.25371912121772766 1.3180278539657593 5.505095958709717 62 51 43
0.25165924429893494 1.4950348138809204 4.63142204284668 88 84 81
0.2516649663448334 1.495021104812622 4.6313862800598145 88 84 81
0.34899330139160156 1.363042950630188 5.295146942138672 57 45 38
0.3708653450012207 1.3321683406829834 5.148876667022705 63 51 44
0.3446553349494934 1.446172833442688 4.904489994049072 115 112 106
0.3566407561302185 1.4195950031280518 4.988478660583496 98 91 85
0.3168596029281616 2.5060784816741943 4.409687519073486 86 87 91
0.35896724462509155 1.412670612335205 4.8861517906188965 102 98 93
0.4008025527000427 1.4122604131698608 5.097148895263672 42 33 25
0.38241875171661377 1.4701980352401733 4.731869697570801 83 79 75
0.3814319670200348 1.53276526927948 4.460558891296387 70 66 61
0.4627218246459961 1.4149047136306763 5.001148223876953 152 145 141
0.46474677324295044 1.4905879497528076 4.693741798400879 111 108 103
0.430736780166626 1.5851315259933472 4.161600112915039 110 107 103
0.5238586664199829 1.4493643045425415 4.837024211883545 147 144 139
0.5238586664199829 1.4493643045425415 4.837024211883545 147 144 139
0.5238586664199829 1.4493643045425415 4.837024211883545 147 144 139
0.4743735194206238 1.6424640417099 3.9325201511383057 59 56 55
0.510233461856842 1.6547715663909912 3.854274034500122 189 184 183
0.6210569143295288 1.6058883666992188 4.08188009262085 81 76 74
0.5715948343276978 1.679292917251587 3.695652723312378 85 81 80
0.5766959190368652 1.6987507343292236 3.6135499477386475 85 82 81
0.7075493931770325 1.5829955339431763 4.179966449737549 86 80 75
0.709262490272522 1.598359227180481 4.1064772605896 87 83 78
0.6422295570373535 1.6681758165359497 3.760145902633667 89 84 84
0.7337928414344788 1.596498727798462 4.090841293334961 89 84 80
0.7632348537445068 0.7664459943771362 4.162296295166016 12 12 18
0.7669330835342407 1.2637044191360474 4.250023365020752 19 15 18
0.7669330835342407 1.2637044191360474 4.250023365020752 19 15 18
0.7343115210533142 1.5916123390197754 4.082093715667725 88 84 79
0.7663671970367432 1.1407506465911865 4.233694076538086 7 7 16
0.7594661712646484 0.8916186690330505 4.184167385101318 41 40 45
0.7449482679367065 0.3054385483264923 4.079479694366455 27 28 35
0.7449482679367065 0.3054385483264923 4.079479694366455 27 28 35
0.7667349576950073 1.0084079504013062 4.175482749938965 13 13 20
0.7667349576950073 1.0084079504013062 4.175482749938965 13 13 20
0.7667349576950073 1.0084079504013062 4.175482749938965 13 13 20
0.7632869482040405 0.7664117217063904 4.162169456481934 12 12 18
0.6626373529434204 1.7002298831939697 3.584299325942993 105 101 100
0.7752130627632141 0.9843138456344604 4.211241722106934 37 36 41
0.7203936576843262 -0.8208997249603271 3.834656000137329 213 208 203
0.7800934314727783 0.5581181049346924 4.143390655517578 32 34 44
0.788575291633606 0.6757553815841675 4.15916109085083 53 55 65
0.788575291633606 0.6757553815841675 4.15916109085083 53 55 65
0.7532302737236023 -0.47028467059135437 3.9583497047424316 27 22 22
0.757625937461853 -0.7796481251716614 3.8840081691741943 255 254 250
0.7756142020225525 0.021004432812333107 4.0468974113464355 42 43 48
0.7982802987098694 0.6613358855247498 4.1601481437683105 41 43 53
0.8004240393638611 0.6973094940185547 4.158563613891602 29 32 39
0.8107655644416809 0.734994649887085 4.159731388092041 32 33 40
0.7982314229011536 0.5044167637825012 4.134140968322754 33 35 45
0.7456167936325073 -1.0956096649169922 3.838956832885742 156 152 148
0.8069974780082703 0.7581831812858582 4.17319917678833 47 47 54
0.8069974780082703 0.7581831812858582 4.17319917678833 47 47 54
0.7981584668159485 0.34772172570228577 4.121426105499268 46 50 60
0.7456132769584656 -1.0955936908721924 3.838968515396118 156 152 148
0.7456132769584656 -1.0955936908721924 3.838968515396118 156 152 148
0.8443841338157654 1.2934811115264893 4.291400909423828 57 52 52
0.7992223501205444 0.2664085328578949 4.086031436920166 69 71 80
0.6854642629623413 1.7334799766540527 3.5194902420043945 83 79 79
0.8261521458625793 0.7946941256523132 4.199681282043457 28 28 34
0.8254107236862183 1.3958269357681274 4.171076774597168 72 66 62
0.8345073461532593 0.7572472095489502 4.130427837371826 34 34 40
0.850006103515625 1.2355531454086304 4.259353160858154 56 55 65
0.8481012582778931 0.7661001682281494 4.197967529296875 39 39 45
0.8726882338523865 1.1213961839675903 4.275402545928955 59 59 70
0.8437629342079163 0.4994884431362152 4.082367897033691 26 29 38
0.8437629342079163 0.4994884431362152 4.082367897033691 26 29 38
0.6966002583503723 1.7468360662460327 3.390049934387207 105 102 99
0.8632020950317383 0.702160120010376 4.190636157989502 32 35 40
0.7540408968925476 1.7008874416351318 3.6766371726989746 122 118 117
0.7987136244773865 1.6578656435012817 3.831448793411255 114 111 107
0.8590512871742249 0.4060980975627899 4.119375705718994 34 37 48
0.7531595230102539 1.7078981399536133 3.6091818809509277 78 74 73
0.8859710693359375 1.3832626342773438 4.233848571777344 72 66 61
0.7217084765434265 1.7488586902618408 3.4352805614471436 109 106 103
0.8931184411048889 0.618268609046936 4.174939155578613 67 70 81
0.7358617186546326 1.7323944568634033 3.4887118339538574 107 104 102
0.8999990820884705 1.4043046236038208 4.244474411010742 126 119 113
0.6838763356208801 1.7880702018737793 3.2700424194335938 110 105 104
0.8769419193267822 1.398260474205017 4.0571465492248535 82 75 73
0.9025914669036865 0.8763005137443542 4.227300643920898 68 70 78
0.9031748175621033 0.7377237677574158 4.225959777832031 49 51 58
0.844965398311615 1.6451621055603027 3.899564266204834 113 109 104
0.8109742403030396 1.690829873085022 3.7018330097198486 113 109 108
0.8800037503242493 -0.33507058024406433 4.0306854248046875 38 36 39
0.9461346864700317 1.3958323001861572 4.280337333679199 77 68 63
0.9570540189743042 1.3869179487228394 4.325925350189209 150 143 139
0.9673558473587036 1.1983556747436523 4.3697896003723145 18 19 32
0.9664280414581299 1.3058196306228638 4.385477066040039 60 54 55
0.9664280414581299 1.3058196306228638 4.385477066040039 60 54 55
0.9664280414581299 1.3058196306228638 4.385477066040039 60 54 55
0.9600910544395447 1.1716363430023193 4.336425304412842 36 36 48
0.7373315095901489 1.787509560585022 3.3547780513763428 87 83 81
0.7296400666236877 1.7819762229919434 3.2465603351593018 107 104 100
0.7309165000915527 1.7795777320861816 3.268409013748169 90 85 83
0.9921745657920837 1.1066228151321411 4.429460048675537 47 45 51
0.8558567762374878 1.6751946210861206 3.7549526691436768 127 122 119
0.9658856987953186 1.3969138860702515 4.22672700881958 76 68 63
0.9939522743225098 1.3861466646194458 4.314111232757568 163 157 152
0.73630690574646 1.790930986404419 3.152028799057007 101 96 92
0.8610653281211853 1.6777665615081787 3.717496395111084 81 76 74
1.0122147798538208 1.0877830982208252 4.365339279174805 51 48 53
1.0246403217315674 1.2149670124053955 4.400816440582275 86 84 93
1.0368545055389404 1.2834393978118896 4.414349555969238 128 120 126
1.005476713180542 1.394344449043274 4.247932434082031 132 126 121
1.00178062915802 1.40689218044281 4.21558141708374 76 69 65
1.0532795190811157 1.3303749561309814 4.414079189300537 53 40 37
0.801193356513977 1.7630524635314941 3.3355555534362793 98 95 93
0.8002623319625854 1.7982558012008667 3.290043592453003 80 77 75
0.9859912991523743 1.4487920999526978 4.020183086395264 36 29 26
0.9901348948478699 -0.9187576174736023 4.022759914398193 90 81 82
0.9999009370803833 1.4408714771270752 4.043734550476074 108 102 101
1.0396703481674194 1.4147334098815918 4.184662342071533 154 148 144
1.0351008176803589 1.4361069202423096 4.0870842933654785 59 53 52
0.8909907937049866 1.72442626953125 3.4745707511901855 77 73 73
0.8763463497161865 1.737783670425415 3.4260714054107666 87 84 83
0.8365700840950012 1.7645155191421509 3.2665650844573975 77 73 70
0.8498778939247131 1.7728230953216553 3.3058998584747314 73 70 68
0.8180199265480042 1.7974461317062378 3.1772420406341553 92 89 86
1.0146929025650024 1.4630467891693115 3.9168074131011963 92 82 77
0.812117874622345 1.7984901666641235 3.129049777984619 52 52 67
0.8437111973762512 1.7989916801452637 3.211074113845825 75 71 67
0.8311141133308411 1.7973346710205078 3.137322425842285 52 49 53
1.0884331464767456 1.4567441940307617 4.155312538146973 147 139 135
0.9247777462005615 1.7265222072601318 3.473249912261963 78 74 74
1.1806577444076538 1.296159267425537 4.378253936767578 255 255 255
0.8556255102157593 1.7975746393203735 3.1602959632873535 97 95 92
0.8781076073646545 1.7941433191299438 3.2026150226593018 76 73 71
0.8901436924934387 1.7913477420806885 3.2039942741394043 98 95 93
1.1899491548538208 0.6027856469154358 4.292930603027344 69 67 76
1.207582950592041 0.670520544052124 4.358216285705566 86 83 87
1.2069779634475708 0.8530099987983704 4.328517913818359 25 24 28
1.2154690027236938 0.8269970417022705 4.313823223114014 108 106 108
0.9101461172103882 1.7858232259750366 3.2472167015075684 70 66 65
1.205017328262329 0.741397500038147 4.319397449493408 46 43 46
1.2210893630981445 0.9814308285713196 4.364197254180908 65 63 66
1.2027360200881958 0.6554855108261108 4.275346755981445 93 90 92
0.9588286876678467 1.7514734268188477 3.3767287731170654 104 100 100
1.1961009502410889 0.18565118312835693 4.191873073577881 21 20 23
1.1992334127426147 0.07806147634983063 4.168915271759033 53 54 59
1.1992334127426147 0.07806147634983063 4.168915271759033 53 54 59
1.1807445287704468 -0.33350905776023865 4.115830421447754 122 125 132
0.9312946200370789 1.785005807876587 3.213299512863159 76 73 71
1.1720921993255615 -0.7085185050964355 4.0588178634643555 136 138 152
1.1726441383361816 -0.7898884415626526 4.050875186920166 92 92 102
1.2069604396820068 -0.26536819338798523 4.125157356262207 69 71 73
1.2447919845581055 1.1547365188598633 4.223597526550293 94 89 87
1.2123440504074097 -0.532833456993103 4.155708312988281 34 33 37
1.0234649181365967 1.75020170211792 3.4113926887512207 72 67 63
1.1493836641311646 1.5126094818115234 3.8597307205200195 82 78 76
1.1049234867095947 1.529800295829773 3.6372931003570557 66 60 56
1.043552041053772 1.55565345287323 3.425462484359741 133 128 126
1.0764445066452026 1.5364309549331665 3.5388238430023193 66 61 58
0.941271185874939 1.8255077600479126 3.053961992263794 95 92 90
1.0277928113937378 1.7664138078689575 3.325115203857422 41 34 32
1.0277928113937378 1.7664138078689575 3.325115203857422 41 34 32
1.045461654663086 1.7386983633041382 3.3136844635009766 75 68 65
1.111996054649353 1.5305407047271729 3.5420219898223877 87 80 75
1.022231101989746 1.7792776823043823 3.244391441345215 93 90 88
1.0809204578399658 1.5408276319503784 3.424250364303589 80 73 69
1.174211025238037 1.5156742334365845 3.689607858657837 127 123 121
0.99771648645401 1.803663969039917 3.1406586170196533 90 86 83
1.1260744333267212 1.531805396080017 3.490894317626953 37 31 26
1.0162433385849 1.832895040512085 3.0796926021575928 88 85 85
1.0297763347625732 1.8026543855667114 3.0600528717041016 107 104 104
1.1421246528625488 1.5575833320617676 3.3829092979431152 79 72 67
1.1421273946762085 1.557585597038269 3.3829150199890137 79 72 67
1.0323307514190674 1.8227158784866333 3.069272518157959 78 75 76
1.1223454475402832 1.5729403495788574 3.3254919052124023 71 65 62
1.0994130373001099 1.803291916847229 3.256582736968994 77 72 68
1.1754720211029053 1.5462756156921387 3.466123104095459 86 77 73
1.4966888427734375 0.4077690541744232 4.331803321838379 29 30 31
1.142404556274414 1.579298973083496 3.3185291290283203 141 135 132
1.2412946224212646 1.5423578023910522 3.5893759727478027 105 100 99
1.492941975593567 1.0887402296066284 4.31196403503418 107 106 103
1.1639231443405151 1.56699538230896 3.3663582801818848 47 38 34
1.183511734008789 1.5611412525177002 3.3690624237060547 62 53 49
1.4969700574874878 -0.18926957249641418 4.218535423278809 21 19 21
1.1123473644256592 1.822059154510498 3.095111131668091 72 69 68
1.2628824710845947 1.5445880889892578 3.488644599914551 125 119 114
1.1451270580291748 1.6227964162826538 3.0830070972442627 76 72 70
1.283467411994934 1.564089059829712 3.4729762077331543 130 123 119
1.1733167171478271 1.5842666625976562 3.1296284198760986 73 66 62
1.2141470909118652 1.6007394790649414 3.25288462638855 34 26 23
1.372208833694458 1.5119391679763794 3.5860490798950195 79 69 63
1.3721858263015747 1.5119340419769287 3.5859851837158203 79 69 63
1.3721858263015747 1.5119340419769287 3.5859851837158203 79 69 63
1.1739143133163452 1.628780484199524 3.05361008644104 58 53 49
1.4324284791946411 1.2423529624938965 3.6882803440093994 72 71 77
1.2045869827270508 1.6267286539077759 3.0995688438415527 84 80 78
1.5700767040252686 1.1642290353775024 3.9695205688476562 62 61 60
1.7241816520690918 -0.13993524014949799 4.3378682136535645 106 107 110
1.7241816520690918 -0.13993524014949799 4.3378682136535645 106 107 110
1.2007863521575928 1.6280378103256226 3.017871856689453 154 148 145
1.2479726076126099 1.627449870109558 3.086873769760132 116 109 105
1.1988850831985474 1.6426644325256348 2.966235399246216 83 78 76
1.2479853630065918 1.627470850944519 3.0869085788726807 116 109 105
1.2605127096176147 1.6328507661819458 3.071272134780884 103 97 93
1.3330860137939453 1.6293272972106934 3.2686593532562256 98 94 93
1.3330860137939453 1.6293272972106934 3.2686593532562256 98 94 93
1.7746272087097168 -0.3944002091884613 4.282879829406738 97 98 103
1.2197556495666504 1.6551285982131958 2.9466781616210938 85 78 74
1.208550214767456 1.6589211225509644 2.910050868988037 89 80 77
1.3982231616973877 1.5990861654281616 3.3000025749206543 113 108 106
1.2833991050720215 1.6395058631896973 3.026670217514038 46 40 40
1.264249563217163 1.6558815240859985 2.9391543865203857 110 100 95
1.264249563217163 1.6558815240859985 2.9391543865203857 110 100 95
1.248834252357483 1.662006139755249 2.9016401767730713 56 49 46
1.3659416437149048 1.625143051147461 3.157181978225708 74 68 68
1.3208147287368774 1.6351596117019653 3.044588804244995 59 54 53
1.5121188163757324 1.3798446655273438 3.480536937713623 56 57 68
1.3168787956237793 1.6424143314361572 3.0111641883850098 82 75 71
1.292402982711792 1.6529929637908936 2.943624496459961 62 53 49
1.6544933319091797 1.2032711505889893 3.756967306137085 78 79 80
1.508900761604309 1.29387629032135 3.4262726306915283 87 88 92
1.2680107355117798 1.6677381992340088 2.8744304180145264 101 96 92
1.530542016029358 1.2789219617843628 3.452422618865967 43 44 42
1.4056271314620972 1.6459016799926758 3.1120080947875977 84 76 73
1.357265830039978 1.6074954271316528 2.983433246612549 62 57 56
1.314800500869751 1.6577593088150024 2.895956516265869 71 60 55
1.378359317779541 1.6748491525650024 3.0320358276367188 61 54 52
1.3949719667434692 1.6537928581237793 3.065819025039673 50 44 43
1.3521546125411987 1.6555321216583252 2.9457221031188965 140 131 129
1.5576287508010864 1.2949298620224 3.378298759460449 52 52 50
1.7183703184127808 1.227763056755066 3.7045040130615234 59 60 61
1.3703556060791016 1.6781400442123413 2.9852304458618164 99 92 88
1.5466147661209106 1.3462636470794678 3.3030812740325928 60 65 72
1.4344416856765747 1.6543357372283936 3.0457146167755127 85 76 69
1.4388110637664795 1.6652175188064575 2.9890687465667725 143 134 127
1.4324595928192139 1.6788825988769531 2.9403698444366455 82 74 70
1.4265506267547607 1.688043475151062 2.927769184112549 95 88 84
1.4340230226516724 1.654872179031372 2.9173166751861572 106 96 91
1.5813301801681519 1.3334770202636719 3.2315640449523926 71 73 78
-1.20149564743042 1.398152232170105 6.525174140930176 54 53 62
1.0368616580963135 1.283470869064331 4.4144792556762695 128 120 126
-1.1603834629058838 1.4275678396224976 6.572878837585449 173 171 188
-1.047005534172058 1.405847191810608 6.513278007507324 141 141 163
-1.201492428779602 1.3981412649154663 6.52515172958374 54 53 62
-1.8825290203094482 0.4254250228404999 6.17812967300415 36 35 44
-1.0817431211471558 1.4535077810287476 6.729427337646484 110 110 133
-2.6289584636688232 -0.2132074236869812 5.828722953796387 80 80 87
-1.1686333417892456 1.4265614748001099 6.475524425506592 11 11 33
-0.7375845313072205 0.8879713416099548 6.5566911697387695 120 115 127
-1.2527148723602295 0.41278573870658875 6.323715686798096 136 139 159
0.5102350115776062 1.6547634601593018 3.8542582988739014 189 184 183
1.036849856376648 1.2834343910217285 4.414359092712402 128 120 126
-1.6501017808914185 1.4165794849395752 6.19063663482666 77 77 81
-1.7180780172348022 -0.6085618734359741 6.049256324768066 18 18 28
-1.7180970907211304 -0.6085604429244995 6.049296855926514 18 18 28
-2.5885071754455566 1.1472128629684448 6.044353485107422 26 24 28
-1.71747887134552 0.409297913312912 6.171695232391357 30 29 38
-1.6092416048049927 2.116213083267212 6.468706130981445 61 60 61
-2.611440896987915 0.817528486251831 5.988404273986816 29 27 32
-2.6114165782928467 0.8174757957458496 5.988265514373779 29 27 32
-2.789781332015991 0.8223428726196289 5.918453693389893 33 33 36
-0.5957726240158081 0.7662579417228699 6.526893615722656 96 88 93
1.0072730779647827 1.513766884803772 3.6470251083374023 126 117 112
0.9577404856681824 1.380334496498108 4.2861223220825195 173 167 163
-0.34971365332603455 0.3770977258682251 6.582949638366699 135 133 146
-2.2313692569732666 -0.23086516559123993 5.953975200653076 22 23 30
-0.44118186831474304 0.9510215520858765 6.616811275482178 161 153 155
-1.2709218263626099 -2.337059736251831 5.914931297302246 28 30 44
0.9706553816795349 1.386694073677063 4.329038143157959 39 32 29
