ply
format ascii 1.0
element vertex 713
property float x
property float y
property float z
property uchar red
property uchar green
property uchar blue
end_header
-1.0037555694580078 2.0730299949645996 6.781266212463379 141 130 122
-1.6627299785614014 -0.8132309317588806 6.786692142486572 149 148 160
-0.7568566799163818 1.4972037076950073 6.833648204803467 13 5 5
0.5296299457550049 0.11343517899513245 5.9851861000061035 127 122 122
0.7227359414100647 2.8292903900146484 5.219784736633301 120 112 102
1.6230593919754028 -0.463950514793396 3.7127068042755127 143 140 135
0.6705299615859985 0.5333933234214783 5.833341598510742 165 163 166
1.5964549779891968 0.3381010591983795 3.7491815090179443 100 96 90
0.3984147012233734 2.916865825653076 4.972860336303711 183 177 167
-2.3965814113616943 -0.016115033999085426 7.321415424346924 77 82 96
0.8669813871383667 0.14016243815422058 5.853740692138672 48 45 40
-0.20302890241146088 2.6124887466430664 6.582026958465576 45 38 34
-2.2994234561920166 0.18772825598716736 7.394691467285156 254 253 254
1.482494831085205 -2.0099751949310303 3.9174740314483643 70 69 67
-2.15901255607605 -0.8154280185699463 7.349830627441406 215 224 240
1.8328787088394165 -0.8421085476875305 5.04547119140625 212 207 191
0.42883652448654175 2.8592402935028076 5.286338806152344 148 141 132
0.862708330154419 -0.6344924569129944 5.8122053146362305 110 109 104
-2.3463873863220215 -0.7945652604103088 7.339348793029785 195 193 204
-2.3046975135803223 0.20507052540779114 7.374674320220947 103 97 99
0.271097332239151 0.04692256823182106 6.706164360046387 27 28 48
1.028891682624817 2.833109140396118 5.568277835845947 133 129 119
0.8423811197280884 2.883225440979004 5.1188836097717285 100 95 84
-2.2224910259246826 -0.06465116888284683 7.416864395141602 122 124 134
0.5620270371437073 2.8321683406829834 5.265395164489746 106 100 91
1.0662364959716797 2.921536445617676 5.070610523223877 186 180 167
0.6644076704978943 -0.8112323880195618 5.669504642486572 81 79 80
0.6538367867469788 -0.8315742015838623 5.804454326629639 45 44 45
0.6538422703742981 -0.8315635323524475 5.804342269897461 45 44 45
-2.439013957977295 -0.731897234916687 7.2302374839782715 91 96 115
-2.0649514198303223 -0.7643635869026184 7.362497806549072 188 198 219
0.5373652577400208 -0.08484663814306259 6.071495056152344 151 146 147
-2.138854503631592 -1.0827181339263916 6.432750701904297 147 134 125
-1.9663970470428467 0.33597084879875183 7.448602676391602 51 52 65
0.8627064824104309 -0.6345062851905823 5.813257694244385 110 109 104
1.243330478668213 -2.015707015991211 4.4667487144470215 32 31 32
1.6358528137207031 -0.6935222744941711 3.71824312210083 52 47 42
-2.1228721141815186 -0.13867396116256714 7.416491985321045 115 116 124
-2.116133451461792 1.5362575054168701 6.350221157073975 68 58 53
1.6020829677581787 -0.700962245464325 3.719679832458496 147 142 125
-1.7133948802947998 1.5165258646011353 6.46881103515625 73 60 53
-1.9265267848968506 -0.12954218685626984 7.473587989807129 181 190 204
0.6708229184150696 -0.5332676768302917 5.748415470123291 47 45 45
0.3847862482070923 2.764457941055298 5.521543502807617 67 62 53
-1.4806617498397827 1.516087532043457 6.5465264320373535 47 36 26
-1.4806984663009644 1.51609468460083 6.546494483947754 54 43 33
-1.7133240699768066 1.5164865255355835 6.468611240386963 73 60 53
-0.3970823585987091 2.8213791847229004 5.279427528381348 164 160 152
1.4868165254592896 2.8862860202789307 5.216878414154053 114 107 93
0.5143133997917175 2.870157480239868 5.135344505310059 144 136 126
0.6890798211097717 2.9164061546325684 5.02026891708374 179 175 165
0.6062676310539246 2.8590211868286133 5.268723964691162 177 170 161
-1.2419389486312866 1.514634370803833 6.65862512588501 92 82 77
0.5463749170303345 0.30755627155303955 6.027899742126465 32 27 27
-0.25518280267715454 2.8315067291259766 5.302880764007568 87 83 76
1.4970133304595947 2.8912646770477295 5.27780818939209 183 177 164
-0.5346276164054871 2.793337106704712 5.789658069610596 108 102 95
-0.8330190777778625 2.8244643211364746 5.302732467651367 151 147 139
-1.0149604082107544 1.5217472314834595 6.775880336761475 47 36 28
-1.2748448848724365 1.5051875114440918 6.644521713256836 36 26 19
-1.2419418096542358 1.5146336555480957 6.658624649047852 92 82 77
-0.6069220900535583 2.873920202255249 5.148852348327637 164 158 149
0.8436930179595947 -2.036630392074585 5.316174507141113 57 55 53
0.9263008236885071 -1.8915084600448608 5.672175884246826 105 102 94
0.6890783905982971 2.9164326190948486 5.020302772521973 179 175 165
-0.9589494466781616 2.7745144367218018 5.726821422576904 126 121 113
0.7354336977005005 2.871206521987915 5.242883682250977 107 101 90
1.613070011138916 -1.3525617122650146 3.6737802028656006 86 84 77
0.4805189371109009 2.915839195251465 5.36236047744751 132 125 116
-2.6941773891448975 0.9526288509368896 6.035676002502441 59 49 39
-1.970851182937622 1.3602296113967896 6.402639865875244 181 171 164
0.5581649541854858 -1.235059380531311 5.967911720275879 35 34 34
-0.3661664128303528 1.4740279912948608 6.938939571380615 7 2 4
-0.04582224413752556 2.7937750816345215 5.451766014099121 139 131 123
-0.08350926637649536 2.8791003227233887 5.285971641540527 127 122 114
0.96201092004776 2.8978230953216553 5.047454833984375 177 171 159
-1.9585814476013184 -1.0837234258651733 6.505560874938965 150 136 126
0.6754157543182373 -1.2194448709487915 5.714469909667969 71 69 70
-2.4141502380371094 -0.5965242385864258 7.2198028564453125 93 97 110
-0.035337481647729874 1.4832185506820679 7.09728479385376 20 18 21
1.2354719638824463 2.908935070037842 5.188479900360107 159 153 138
0.19373436272144318 2.7491910457611084 5.769525527954102 166 159 150
-0.03984198719263077 2.7657742500305176 5.62600564956665 152 145 137
-1.6757057905197144 0.4546777606010437 6.894036293029785 171 174 187
0.8813305497169495 -1.2350454330444336 5.781928062438965 53 51 44
-1.1641615629196167 1.373884677886963 6.6827287673950195 37 28 24
-2.161328077316284 -2.0547521114349365 6.092504501342773 49 45 44
-1.143377661705017 1.3529011011123657 6.6207051277160645 111 102 99
0.5883720517158508 -1.4393460750579834 5.9205145835876465 81 80 80
-1.1374822854995728 1.3536502122879028 6.647090911865234 197 187 184
0.36921826004981995 2.877017021179199 5.122496604919434 52 43 33
-1.1640692949295044 1.3634495735168457 6.682265758514404 35 26 23
0.9263038039207458 -1.8915196657180786 5.672208309173584 105 102 94
0.9263016581535339 -1.8915146589279175 5.6721978187561035 105 102 94
-1.989183783531189 -0.7788888216018677 7.212916851043701 153 156 169
-2.238069534301758 -0.7897821664810181 7.2098307609558105 136 137 148
0.6907901763916016 -1.8474195003509521 5.654264450073242 79 75 73
1.7138144969940186 2.8375465869903564 5.4100775718688965 29 22 13
0.44510841369628906 0.4600375294685364 6.291112422943115 103 98 102
-0.6264260411262512 2.8118491172790527 5.404332637786865 167 160 152
1.0677576065063477 2.8784596920013428 5.259441375732422 176 170 157
0.8900821805000305 -1.8393490314483643 5.730417728424072 126 125 116
-0.9878033399581909 1.3696885108947754 7.026696681976318 84 76 80
0.6087055206298828 2.8054769039154053 5.428589820861816 79 75 68
-0.9062132239341736 1.313405156135559 6.744137287139893 8 2 6
0.6440396308898926 2.81172251701355 5.354405879974365 121 114 105
0.8691116571426392 -0.24098609387874603 5.819206237792969 137 135 127
0.8679167628288269 2.929434299468994 5.063216209411621 140 136 125
1.6023362874984741 0.35607287287712097 3.7742791175842285 78 74 68
1.5965065956115723 -0.27401256561279297 3.7476980686187744 105 101 88
-0.8001044392585754 2.8867201805114746 4.805566787719727 143 136 127
-0.17473147809505463 2.9122917652130127 5.451920986175537 129 124 117
-1.2308710813522339 2.8565542697906494 5.101678848266602 160 153 144
0.4004380404949188 2.856999158859253 5.338059902191162 153 147 137
-0.6264506578445435 2.8118977546691895 5.40441370010376 167 160 152
0.35899171233177185 2.8144326210021973 5.102144241333008 167 158 149
1.596535325050354 -0.2740127742290497 3.747769832611084 105 101 88
0.44960615038871765 2.8921420574188232 5.225083827972412 185 177 165
0.6495469808578491 2.8268282413482666 5.475229740142822 167 162 153
0.588365912437439 -1.4393665790557861 5.920587539672852 81 80 80
0.41348934173583984 2.929927349090576 4.891960144042969 185 179 170
0.686052680015564 -1.652105689048767 5.668301105499268 23 22 21
-1.322724461555481 1.1512413024902344 6.568636894226074 87 81 82
0.5883665680885315 -1.4393740892410278 5.920607566833496 81 80 80
-0.16050025820732117 2.7995219230651855 5.433802127838135 142 136 129
-0.7960690259933472 2.8605000972747803 5.128620624542236 145 139 131
-2.502514600753784 -0.44225218892097473 7.230672836303711 57 72 99
0.9231510758399963 2.8356196880340576 5.444145202636719 65 59 47
0.8796404004096985 -1.6320151090621948 5.740352153778076 117 114 109
0.8604122996330261 2.877504587173462 5.19584846496582 155 150 139
-0.4770250916481018 0.8737022280693054 6.939655780792236 165 156 147
0.9944725036621094 2.871856927871704 5.156681537628174 127 122 110
-1.4039496183395386 2.797797918319702 5.441962718963623 134 128 120
-0.5875925421714783 2.832970380783081 5.535881042480469 157 149 142
-0.2699846029281616 1.472221851348877 6.999889373779297 122 120 126
1.6838372945785522 0.5856219530105591 3.5536060333251953 88 86 81
0.8927299380302429 2.9024007320404053 5.121213912963867 158 155 145
1.6976723670959473 1.200992465019226 3.5778586864471436 72 71 68
-0.22878602147102356 2.7963364124298096 5.530496120452881 171 164 157
-0.25782525539398193 2.8663830757141113 4.924766540527344 106 96 88
1.3439573049545288 2.849151372909546 5.07907247543335 152 148 134
0.44510743021965027 0.4600374400615692 6.29111909866333 103 98 102
0.15945354104042053 -1.2878434658050537 6.854750633239746 66 62 60
0.11604522913694382 2.837892532348633 5.212193965911865 62 54 46
0.8623388409614563 -1.0298625230789185 5.797680377960205 45 43 42
-2.1675117015838623 -0.8335658311843872 6.648923873901367 101 103 121
-2.228442668914795 -0.8429247140884399 6.705299377441406 203 206 219
1.6230543851852417 -0.46394598484039307 3.712679862976074 143 140 135
-1.1642016172409058 1.3276264667510986 6.657451629638672 26 18 18
-0.3662051260471344 1.4742317199707031 6.939613342285156 7 2 4
1.6237307786941528 -0.4808286428451538 3.7193470001220703 26 23 17
0.49837538599967957 2.8976550102233887 4.909695148468018 164 157 145
0.7133547067642212 2.884674310684204 5.073590278625488 111 106 95
0.689075767993927 2.9163920879364014 5.020253658294678 179 175 165
-1.1012428998947144 -0.43601787090301514 6.833203315734863 236 233 230
0.5296311974525452 0.11343172192573547 5.985165596008301 127 122 122
0.5883700847625732 -1.4393476247787476 5.920520782470703 81 80 80
0.8546745181083679 -0.8231384754180908 5.656829833984375 59 57 55
-2.234301805496216 -0.46814438700675964 7.378897666931152 119 115 119
-1.1276037693023682 0.38224247097969055 6.926095962524414 172 164 158
0.5883751511573792 -1.4393198490142822 5.920431137084961 81 80 80
1.6023359298706055 0.3560726046562195 3.774277448654175 78 74 68
0.8813304305076599 -1.235038161277771 5.7818708419799805 53 51 44
0.8796328902244568 -1.631995677947998 5.740293025970459 117 114 109
0.669334352016449 2.8644585609436035 5.136876583099365 82 76 65
1.636732578277588 -0.6927265524864197 3.7204291820526123 43 39 33
-1.014944314956665 1.5217434167861938 6.775848388671875 47 36 28
-2.078066349029541 -0.8033332824707031 7.421277046203613 136 142 159
0.6643081307411194 -0.6289620995521545 5.770025730133057 26 24 24
0.6754213571548462 -1.2194091081619263 5.714356422424316 71 69 70
0.8813307285308838 -1.2350343465805054 5.781840801239014 53 51 44
-1.2419499158859253 1.5146387815475464 6.658655643463135 92 82 77
-1.6717784404754639 0.4555125832557678 6.88447380065918 171 174 187
-1.6757221221923828 0.45468202233314514 6.89408540725708 171 174 187
1.83308744430542 -0.8494001030921936 5.057077884674072 209 204 191
-2.0628364086151123 -0.7652156949043274 7.350871562957764 185 196 216
-1.7134156227111816 1.5165363550186157 6.468859672546387 73 60 53
-1.4807868003845215 1.5161545276641846 6.546718597412109 54 43 33
-2.409680128097534 -0.018638702109456062 7.357902526855469 81 84 99
-1.713353157043457 1.5165038108825684 6.4687042236328125 73 60 53
0.5156876444816589 2.924376964569092 5.011501312255859 91 82 73
0.9794548153877258 2.904879570007324 5.1037797927856445 171 165 151
0.6898566484451294 2.911360502243042 5.010334491729736 171 167 157
-1.910133957862854 -0.7308875322341919 7.351802349090576 187 194 211
0.6614539623260498 0.7190144658088684 5.8157877922058105 146 143 146
-1.1454061269760132 1.3792330026626587 6.778896331787109 87 79 78
-1.9038286209106445 -0.7204799056053162 7.339735507965088 30 34 52
-2.1882405281066895 1.5313831567764282 6.261098861694336 23 12 8
-2.2430977821350098 -0.8138387203216553 7.354435920715332 140 145 164
0.8891575932502747 -2.044637680053711 5.23630952835083 28 26 25
0.5580796599388123 1.2473397254943848 6.03475284576416 139 134 133
-2.0941262245178223 -0.09249477833509445 7.457033634185791 213 216 228
-1.097798228263855 -1.775881052017212 6.700396537780762 75 63 53
0.34194299578666687 0.2401590794324875 6.479714393615723 56 54 69
0.44510743021965027 0.46003538370132446 6.291087627410889 103 98 102
0.44611650705337524 2.861400604248047 5.138934135437012 66 58 47
0.49317118525505066 2.9321465492248535 4.932046890258789 158 150 141
0.4416196048259735 -0.28838831186294556 6.25465726852417 44 41 43
1.6215709447860718 -0.05537252500653267 3.769587993621826 10 6 2
-1.1276389360427856 0.38223692774772644 6.926212310791016 172 164 158
-2.1613216400146484 -2.0547451972961426 6.092486381530762 49 45 44
-2.2814879417419434 -0.4973210096359253 7.257409572601318 177 177 189
0.9263038635253906 -1.8915151357650757 5.672188758850098 105 102 94
0.5156885385513306 2.9243855476379395 5.0115180015563965 91 82 73
-1.9265327453613281 -0.1295483559370041 7.473562240600586 181 190 204
0.6707502007484436 -1.4304505586624146 5.711210250854492 27 26 26
-2.1882212162017822 1.5313713550567627 6.261054992675781 23 12 8
-0.27101388573646545 -1.8478132486343384 7.238546848297119 82 81 83
-1.4930084943771362 1.7030620574951172 6.584287643432617 93 82 73
-2.376267910003662 -0.8326873183250427 6.540863513946533 46 40 47
0.7491138577461243 2.886451482772827 5.0075554847717285 190 187 176
-2.2920351028442383 0.18610841035842896 7.378511428833008 254 253 254
1.3021531105041504 2.861562728881836 5.00183629989624 92 86 71
0.5040042996406555 0.2926061451435089 6.112106800079346 106 102 102
-2.212815284729004 -0.7952937483787537 6.605498313903809 132 132 150
1.3615957498550415 2.9090614318847656 5.137669086456299 137 132 116
-2.2689223289489746 1.330142855644226 6.2163591384887695 120 113 115
0.7969133257865906 2.826686143875122 5.465357780456543 119 113 102
1.4824928045272827 -2.009967803955078 3.9174606800079346 70 69 67
-0.4770250916481018 0.8737024068832397 6.939655780792236 165 156 147
-0.37094902992248535 2.858898639678955 5.29686975479126 114 109 103
-0.9062201380729675 1.3134065866470337 6.744143962860107 8 2 6
0.8627108931541443 -0.6344588994979858 5.8119635581970215 110 109 104
-1.0029696226119995 1.318499207496643 6.698974609375 41 33 34
-0.06458868831396103 2.8581299781799316 5.182098388671875 147 141 132
1.314867377281189 -2.0088083744049072 4.311481475830078 117 116 119
-2.1161506175994873 1.536263108253479 6.350241184234619 68 58 53
-2.227198600769043 1.162858247756958 6.255116939544678 127 122 127
-1.487675666809082 -2.644322156906128 6.2904372215271 169 165 171
0.549570620059967 2.7986931800842285 5.494687557220459 93 87 80
0.6911371946334839 -1.8395421504974365 5.642219066619873 53 49 47
-1.2159074544906616 -2.597562551498413 6.411920547485352 120 117 118
-2.2224929332733154 -0.0646510124206543 7.416868686676025 122 124 134
0.31547796726226807 2.9177119731903076 4.893331050872803 80 74 65
1.7138203382492065 2.8375566005706787 5.410091876983643 29 22 13
0.6643115878105164 -0.6289644241333008 5.770043849945068 26 24 24
-1.9266612529754639 -0.12958601117134094 7.473875999450684 181 190 204
0.1302301585674286 2.733569383621216 5.783048629760742 146 139 129
-1.9715760946273804 1.3621315956115723 6.4044342041015625 155 145 137
0.8900824785232544 -1.839335560798645 5.730377197265625 126 125 116
-0.15976539254188538 2.2252073287963867 6.466470718383789 147 140 132
0.24285729229450226 0.010548361577093601 6.695591449737549 22 24 44
-2.239485025405884 0.013203762471675873 7.388637542724609 133 133 145
-2.1976821422576904 -1.8712434768676758 6.021790027618408 48 36 30
0.5318372845649719 0.6784694790840149 6.122462749481201 84 77 83
0.6914973855018616 -0.8155115842819214 5.732696056365967 37 36 37
0.5693296790122986 -0.8506069183349609 6.03648567199707 64 64 65
-0.9283170700073242 1.881005883216858 6.780538558959961 42 34 32
0.3925670385360718 2.8404932022094727 5.323713779449463 154 147 137
-0.46761736273765564 0.7188476920127869 6.880687713623047 169 160 148
1.6849141120910645 1.20015287399292 3.6132888793945312 145 143 139
-1.1674727201461792 1.3694998025894165 6.680994510650635 64 55 52
0.3405471742153168 2.861006259918213 5.28549337387085 179 171 162
-0.10012251883745193 2.840653657913208 5.544917583465576 117 111 103
0.5894545912742615 -1.6079822778701782 5.840466499328613 27 27 25
0.2484665960073471 -0.8761550188064575 6.596932888031006 68 70 75
1.0172381401062012 2.8020238876342773 5.499910354614258 94 89 79
0.16354112327098846 2.77071475982666 5.679636478424072 155 150 141
-1.2247400283813477 1.3779551982879639 6.690178871154785 47 38 34
0.3984344005584717 2.9167490005493164 4.972651481628418 183 177 167
-1.5007834434509277 1.3338068723678589 6.560869216918945 87 76 72
-1.5009419918060303 1.3338713645935059 6.561260223388672 87 76 72
0.869111180305481 -0.24100032448768616 5.819215297698975 137 135 127
-0.16828127205371857 2.838595151901245 5.403930187225342 63 57 50
1.1843209266662598 2.8998074531555176 5.114039897918701 123 116 104
-0.08660846948623657 2.8856377601623535 5.299609661102295 128 123 115
0.8423446416854858 2.883528232574463 5.119354724884033 100 95 84
-1.0037729740142822 2.0730836391448975 6.781372547149658 141 130 122
0.6656270027160645 -0.25990647077560425 5.740629196166992 132 132 136
-1.3227356672286987 1.1512420177459717 6.568664073944092 87 81 82
0.8807639479637146 -1.5110211372375488 5.743414402008057 106 104 97
-0.36941733956336975 2.8538122177124023 5.292333602905273 132 127 121
-0.07290646433830261 2.8591692447662354 5.306191921234131 116 110 102
0.7355168461799622 2.861898899078369 5.333008766174316 100 91 81
-0.03984198719263077 2.7657742500305176 5.62600564956665 152 145 137
0.6699259877204895 -1.0301036834716797 5.7322235107421875 116 116 116
-0.2856011688709259 2.848453998565674 5.268845558166504 53 49 43
0.5304989814758301 2.932859182357788 5.181697845458984 106 97 87
1.1603072881698608 2.8980531692504883 5.144430160522461 188 182 170
0.47212523221969604 2.930882692337036 5.044851303100586 114 106 94
-1.713475227355957 1.5165656805038452 6.468739032745361 73 60 53
-1.2167842388153076 1.5217214822769165 6.678248405456543 30 19 14
0.648487389087677 1.2916772365570068 5.900717258453369 67 63 62
-0.7568551898002625 1.4972023963928223 6.833642482757568 13 5 5
0.7549874186515808 2.815434694290161 5.479330062866211 81 76 66
-1.1316949129104614 1.3735851049423218 6.747756481170654 140 130 127
0.6545907855033875 0.9042416214942932 5.858256816864014 114 111 113
0.06484720855951309 2.730854034423828 5.957765102386475 42 36 26
-2.270343780517578 1.3162165880203247 6.219346523284912 134 128 132
0.9657249450683594 2.897763729095459 5.037326812744141 134 128 115
0.08281213790178299 2.8822567462921143 5.19185209274292 105 99 91
0.6907871961593628 -1.84744131565094 5.654332160949707 79 75 73
-2.187962770462036 1.4024513959884644 6.2763824462890625 102 93 90
-1.778070330619812 -1.089908480644226 6.58552360534668 137 123 115
1.6194051504135132 -1.5380840301513672 3.660855770111084 89 89 81
0.923152506351471 2.8356401920318604 5.4441914558410645 65 59 47
-0.9625153541564941 1.3175331354141235 6.784181594848633 140 132 135
0.44510817527770996 0.46003231406211853 6.291107654571533 103 98 102
0.34944039583206177 2.9014265537261963 5.050336837768555 79 72 62
-2.6882641315460205 1.1754194498062134 6.062442779541016 98 94 98
0.48392924666404724 2.8940627574920654 4.975611209869385 72 63 52
0.7505525946617126 2.858025550842285 5.122471332550049 134 130 119
-0.9528352618217468 1.3108749389648438 6.751401901245117 156 148 151
-0.9515751600265503 1.844307541847229 6.794177055358887 43 35 28
-0.9062119126319885 1.3133931159973145 6.744081497192383 8 2 6
0.6425553560256958 1.8665598630905151 5.895562648773193 48 44 43
1.4863332509994507 -2.001950740814209 3.948218822479248 97 96 96
0.6610912084579468 1.0999246835708618 5.860433578491211 155 152 152
0.874531090259552 -0.4449099898338318 5.811834335327148 144 142 133
-1.4221720695495605 1.2202014923095703 6.567122459411621 126 119 120
-2.227229118347168 1.1628779172897339 6.255224227905273 127 122 127
0.45492467284202576 2.9196925163269043 4.95404052734375 191 185 175
-1.978519082069397 1.1605644226074219 6.353532791137695 26 20 22
-1.4932688474655151 -2.6499853134155273 6.3076605796813965 161 157 162
-0.4357772171497345 1.2606170177459717 6.869462966918945 91 84 95
-2.0779950618743896 -0.8033137321472168 7.421116352081299 136 142 159
-2.176846981048584 -0.8076642155647278 7.290678977966309 216 224 241
0.5076078772544861 2.8866724967956543 4.892538070678711 109 101 89
-1.3227158784866333 1.1512377262115479 6.568604946136475 87 81 82
0.5673753619194031 0.11770664900541306 6.02198600769043 155 150 150
-1.3198567628860474 1.120874047279358 6.57428503036499 155 149 150
0.15282879769802094 0.023461347445845604 6.898897171020508 20 21 40
-2.161317825317383 -2.0547406673431396 6.092484474182129 49 45 44
0.46202555298805237 0.09303479641675949 6.262004852294922 16 11 13
0.9391674995422363 -1.8582690954208374 5.659611225128174 211 208 195
-1.6367825269699097 -2.0762956142425537 6.316842555999756 52 48 48
0.6908026337623596 -1.8474112749099731 5.654334545135498 79 75 73
-2.1746511459350586 -0.7226349115371704 7.282216548919678 198 211 229
0.8900999426841736 -1.8393715620040894 5.730498790740967 126 125 116
0.5792593359947205 -0.2581796944141388 5.961141109466553 135 132 134
0.665504515171051 -0.23987723886966705 5.793127059936523 43 42 45
-2.6699769496917725 0.9612492322921753 6.047031879425049 139 129 120
-1.4886497259140015 2.088932752609253 6.5329790115356445 58 52 48
-2.694143056869507 0.9526165723800659 6.035599231719971 59 49 39
-2.2553775310516357 -1.8938475847244263 6.271021366119385 56 45 35
-2.3568506240844727 -0.6892503499984741 7.2965826988220215 155 165 184
-2.2126455307006836 1.9144641160964966 6.283904075622559 87 78 71
0.6945736408233643 -1.6523551940917969 5.688018321990967 24 22 21
-0.9140374064445496 2.0810840129852295 6.822412490844727 19 14 14
-1.2484158277511597 -1.9097751379013062 6.689650535583496 54 39 27
1.5752376317977905 1.1619223356246948 3.8314623832702637 60 54 48
-1.44920814037323 -2.063053846359253 6.345775127410889 106 103 102
-1.003771424293518 2.0730783939361572 6.781365871429443 141 130 122
0.2796825170516968 -0.8999554514884949 6.621088981628418 170 173 177
-1.7133322954177856 1.5164915323257446 6.4686360359191895 73 60 53
1.6292314529418945 -0.06807419657707214 3.7624638080596924 34 32 27
1.1845898628234863 2.9015674591064453 5.115603446960449 123 116 104
0.42485910654067993 0.8306345343589783 6.332876205444336 63 61 74
-1.7941819429397583 -0.6271033883094788 7.499483585357666 141 144 161
0.8441638350486755 2.8581607341766357 5.3384199142456055 169 163 152
0.4802471697330475 2.916201114654541 5.368241310119629 87 81 72
0.6809458136558533 -1.1807129383087158 5.6820902824401855 71 71 71
0.7067325711250305 -1.4387394189834595 5.788427829742432 84 82 82
-0.4676051437854767 0.7188431024551392 6.880631446838379 169 160 148
1.603166937828064 -0.9117295145988464 3.6954922676086426 114 107 91
-0.7568632960319519 1.497205138206482 6.8336310386657715 13 5 5
-0.467615008354187 0.71884685754776 6.880676746368408 169 160 148
0.6750584840774536 -0.8451693654060364 5.739586353302002 123 122 123
0.6935049891471863 -0.819047212600708 5.731779098510742 26 23 24
0.5690935850143433 -0.2635432481765747 6.127279281616211 97 94 96
0.8396604657173157 -1.423704743385315 5.7442522048950195 114 112 112
0.5824333429336548 -1.0407227277755737 5.951369762420654 60 59 58
0.07638128846883774 -1.6737717390060425 7.0845184326171875 66 59 59
-1.2671674489974976 1.3381907939910889 6.672410011291504 38 30 30
0.5403493642807007 2.8817830085754395 5.169345378875732 182 176 166
-2.0781924724578857 -0.8033739328384399 7.421578407287598 136 142 159
0.5693151950836182 -0.8505774140357971 6.036355495452881 64 64 65
0.704092800617218 -1.8197433948516846 5.714136123657227 30 26 23
0.34190115332603455 2.852900505065918 5.2729315757751465 186 177 168
-2.116147994995117 1.5362653732299805 6.350265979766846 68 58 53
-2.4660186767578125 0.4945615530014038 6.478375434875488 100 88 85
-1.4930322170257568 1.7030854225158691 6.584350109100342 93 82 73
-0.17291483283042908 2.254544258117676 6.541507720947266 133 127 118
-2.1882388591766357 1.531380534172058 6.2610883712768555 23 12 8
0.8813301920890808 -1.2350413799285889 5.7818922996521 53 51 44
-1.3826627731323242 0.48002785444259644 6.9119367599487305 150 143 143
0.5792535543441772 -0.2581683397293091 5.961120128631592 135 132 134
-1.515537142753601 1.531242847442627 6.556982040405273 179 167 158
0.028470255434513092 -1.510378122329712 7.1344099044799805 132 120 112
0.1450042575597763 -1.473028540611267 6.856436729431152 31 26 27
-1.4807658195495605 1.51614248752594 6.546677589416504 54 43 33
0.6754242181777954 -1.2194161415100098 5.714393138885498 71 69 70
-1.7134150266647339 1.5165361166000366 6.46885871887207 73 60 53
-1.0149483680725098 1.521740198135376 6.775833606719971 47 36 28
0.030140992254018784 -1.4723674058914185 7.102415561676025 28 14 10
-2.188023567199707 1.4024726152420044 6.276496410369873 102 93 90
-0.7568636536598206 1.4972147941589355 6.833710193634033 13 5 5
0.6484861969947815 1.2916812896728516 5.900738716125488 67 63 62
-2.28291654586792 1.3227280378341675 6.23519229888916 118 112 115
-1.7558715343475342 1.392225980758667 6.631821632385254 123 112 106
-2.0335590839385986 1.374714732170105 6.517148017883301 70 59 56
-1.985135793685913 1.3422746658325195 6.362010478973389 124 114 109
-0.36615949869155884 1.4740053415298462 6.938862323760986 7 2 4
-1.1221816539764404 1.3706722259521484 6.717086315155029 134 124 121
-1.1708621978759766 1.3742234706878662 6.694538116455078 70 61 58
-1.5008273124694824 1.3338260650634766 6.560972690582275 87 76 72
-1.156022071838379 1.3667460680007935 6.69570255279541 189 179 176
-1.5008964538574219 1.3338522911071777 6.561145782470703 87 76 72
-1.6424870491027832 1.3330692052841187 6.467813014984131 18 9 7
-1.2222893238067627 1.3588972091674805 6.688145637512207 144 135 132
-1.1642112731933594 1.3276325464248657 6.657480716705322 26 18 18
-1.1276369094848633 0.3822384178638458 6.926206111907959 172 164 158
-0.9641818404197693 1.352159023284912 6.7247514724731445 59 52 52
1.5845896005630493 -0.08031826466321945 3.764932870864868 150 146 131
1.6358665227890015 -0.693532407283783 3.7183241844177246 52 47 42
0.7935818433761597 2.9008655548095703 5.1391825675964355 136 132 122
1.1465436220169067 2.9167096614837646 5.309275150299072 82 76 64
1.1778340339660645 2.8572537899017334 5.217464923858643 63 57 45
1.6039949655532837 -0.0713072195649147 3.7039794921875 107 105 97
0.7008090019226074 2.908216953277588 5.046294689178467 142 137 126
-2.0898854732513428 -0.4314233660697937 7.417356967926025 61 57 64
-2.0324583053588867 0.3403186798095703 7.426577091217041 144 150 164
-2.4812960624694824 1.9248313903808594 6.179773807525635 14 7 6
0.4437556564807892 -0.09825752675533295 6.270368576049805 25 22 25
0.5384554862976074 2.8962056636810303 5.066455841064453 58 50 39
1.7869020700454712 -0.7460564970970154 4.955207824707031 110 104 90
0.4523341655731201 2.8662736415863037 5.17967414855957 177 171 159
0.4674202799797058 2.888317346572876 5.2215094566345215 122 114 105
0.6566328406333923 -0.835716724395752 5.829343318939209 52 50 51
1.6384646892547607 -0.2532409727573395 3.727194309234619 18 18 15
1.0138863325119019 2.9061553478240967 4.999217510223389 70 64 51
0.6814911365509033 -0.7890650629997253 5.738997936248779 35 33 36
0.2484482228755951 -0.8761708736419678 6.597102165222168 68 70 75
-0.2856060862541199 2.848484754562378 5.268899440765381 53 49 43
0.13023075461387634 2.7335782051086426 5.783072471618652 146 139 129
-1.253351092338562 -1.9139264822006226 6.70351505279541 54 39 27
-1.4596974849700928 1.2708451747894287 6.674983024597168 101 93 93
1.0945813655853271 2.8292036056518555 5.444910049438477 123 118 106
-2.5234570503234863 -2.0625245571136475 5.968078136444092 53 49 48
0.504210352897644 2.81347393989563 5.0334153175354 152 144 135
-2.042109251022339 1.3440637588500977 6.359011650085449 19 11 14
0.9604330062866211 2.7978639602661133 5.5489959716796875 84 80 71
-1.2221159934997559 1.3842778205871582 6.684587001800537 53 44 40
0.24195358157157898 0.40042802691459656 6.719488143920898 58 57 74
1.2409765720367432 2.8467259407043457 5.368875980377197 184 179 167
0.9559497237205505 2.856717586517334 5.332598686218262 152 145 133
-1.7885823249816895 -0.8483956456184387 6.775310039520264 82 83 99
0.6926905512809753 -0.8069053888320923 5.724969863891602 136 135 136
1.486334204673767 -2.001953125 3.948225498199463 97 96 96
-2.0131120681762695 -0.8339598774909973 6.646214008331299 213 214 225
-2.2319467067718506 -0.8748777508735657 6.965149402618408 205 207 220
0.5342646837234497 0.8800461292266846 6.215512275695801 31 26 29
1.625914216041565 -0.47937333583831787 3.7100017070770264 27 24 20
-2.491724967956543 -0.2255876660346985 7.279270648956299 134 142 160
0.7051109075546265 -2.047179937362671 5.665750503540039 89 86 84
0.7051093578338623 -2.0471649169921875 5.665715217590332 89 86 84
-0.7568768858909607 1.497227668762207 6.833760738372803 13 5 5
-2.5234527587890625 -2.062520742416382 5.968070983886719 53 49 48
0.5385253429412842 2.8925087451934814 5.062628269195557 82 74 63
1.0137896537780762 2.900202512741089 5.0896782875061035 146 140 127
-1.6367825269699097 -2.07629656791687 6.316842079162598 52 48 48
0.7215130925178528 -0.8252096176147461 5.7410454750061035 36 34 34
0.6907909512519836 -1.8474057912826538 5.654235363006592 79 75 73
0.8900843858718872 -1.8393579721450806 5.7304487228393555 126 125 116
-0.11065744608640671 2.8446359634399414 5.307664394378662 124 117 110
-2.2553770542144775 -1.893848180770874 6.271026134490967 56 45 35
0.48000621795654297 2.8683764934539795 5.0983686447143555 64 57 46
-0.9623674154281616 1.8596009016036987 6.767132759094238 127 117 109
-2.044814348220825 1.3825856447219849 6.553305625915527 73 63 59
0.3508647680282593 -0.8732513189315796 6.432833671569824 25 25 26
-1.4799268245697021 1.3354997634887695 6.588200569152832 35 25 21
0.010778111405670643 1.0949575901031494 7.093026638031006 10 8 19
-1.0977907180786133 -1.7758841514587402 6.700398921966553 75 63 53
0.6206237077713013 1.447792649269104 5.845569133758545 19 14 15
-2.1883034706115723 1.5314128398895264 6.261212348937988 23 12 8
-2.475634813308716 1.8933275938034058 6.166893005371094 92 87 82
0.3929787576198578 2.884835958480835 5.23294734954834 59 49 40
-0.32491764426231384 1.2894748449325562 7.002148151397705 12 8 18
-2.2749948501586914 0.17156492173671722 7.346888542175293 254 253 254
0.6807909607887268 -0.7899562120437622 5.754730224609375 78 76 79
0.8396603465080261 -1.4236878156661987 5.744189262390137 114 112 112
0.8396573066711426 -1.4236844778060913 5.744171619415283 114 112 112
0.9576016664505005 2.808412790298462 5.338635444641113 102 95 83
1.6031683683395386 -0.9117314219474792 3.6954996585845947 114 107 91
0.664019763469696 -0.8113666772842407 5.677529811859131 81 79 80
-1.1391351222991943 2.069047689437866 6.696549415588379 26 14 10
0.516948401927948 1.6312037706375122 6.160704612731934 12 7 6
0.5883755683898926 -1.4393092393875122 5.920402526855469 81 80 80
0.10267189890146255 -1.7158030271530151 7.1411566734313965 35 30 35
0.6469847559928894 2.9171924591064453 5.041967391967773 95 90 80
0.8724634051322937 -0.8634886741638184 5.949420928955078 73 70 67
-0.5834047794342041 1.4816017150878906 6.929106712341309 92 84 84
-2.524656295776367 1.3374037742614746 6.247323036193848 102 98 102
-0.5160408020019531 1.0670667886734009 6.904934883117676 103 97 105
0.07638128846883774 -1.6737717390060425 7.0845184326171875 66 59 59
-0.36615151166915894 1.4739255905151367 6.938609600067139 7 2 4
-0.928336501121521 1.8810397386550903 6.780660629272461 42 34 32
-1.2212944030761719 1.3813636302947998 6.681552886962891 58 49 45
1.5690182447433472 0.778718888759613 3.818577766418457 101 94 82
-1.1666356325149536 1.3668090105056763 6.680943965911865 100 91 87
-1.500741958618164 1.333783507347107 6.560750484466553 87 76 72
-2.1879637241363525 1.4024494886398315 6.2763752937316895 102 93 90
1.591355562210083 0.7719466090202332 3.8175671100616455 82 77 70
-1.0082507133483887 1.3207428455352783 6.715677738189697 59 51 52
-1.008971095085144 1.325171709060669 6.717400074005127 56 48 49
0.03451532870531082 -1.5038394927978516 7.089174270629883 132 120 112
0.10009513050317764 -1.484032392501831 6.979023456573486 45 39 35
0.6343305706977844 1.6568654775619507 5.866673469543457 11 7 6
-1.2797572612762451 1.5074845552444458 6.6679816246032715 36 26 20
-2.059406280517578 -0.18547047674655914 7.392032146453857 49 46 55
-0.9605486989021301 1.3058404922485352 6.751782417297363 87 79 82
-0.9061984419822693 1.3133883476257324 6.744062423706055 8 2 6
-1.2024174928665161 1.2756801843643188 6.654383659362793 122 116 119
0.6443807482719421 1.4766887426376343 5.862042427062988 137 132 133
-1.9850852489471436 1.342263102531433 6.361908435821533 124 114 109
0.11152514815330505 -1.2698906660079956 6.857924461364746 34 28 24
-1.2447655200958252 1.5179109573364258 6.673686504364014 92 82 77
-0.04898856207728386 1.3081735372543335 7.27752161026001 61 57 69
-0.4780829846858978 1.219950556755066 6.938782691955566 112 106 121
-1.322724461555481 1.151239275932312 6.568632125854492 87 81 82
-0.9114395976066589 2.020665407180786 6.727722644805908 123 116 115
-2.6775991916656494 0.9604803919792175 6.058709144592285 142 131 122
0.4234437048435211 1.051149845123291 6.323456287384033 62 56 61
-2.4813232421875 1.9248418807983398 6.179819583892822 14 7 6
-1.7208300828933716 -0.8463230729103088 6.751720905303955 32 32 43
-1.13063383102417 1.3746885061264038 6.742762565612793 122 112 109
-1.5182108879089355 1.3316563367843628 6.523623466491699 25 14 10
0.8511950969696045 0.6991738080978394 5.8748087882995605 69 70 61
-2.176673173904419 -0.8075236082077026 7.290292739868164 216 224 241
-2.078082323074341 -0.8033347725868225 7.42132043838501 136 142 159
1.5911201238632202 -0.4313168227672577 3.706193208694458 93 89 79
-2.188295602798462 1.531408667564392 6.261197090148926 23 12 8
-2.1796109676361084 -0.7243809103965759 7.293328762054443 149 161 185
-1.6650874614715576 1.3217564821243286 6.548328399658203 117 109 106
-1.7133373022079468 1.5164977312088013 6.468689918518066 73 60 53
-2.2250123023986816 0.5910648107528687 6.4283576011657715 127 118 109
-2.6067161560058594 0.5741913914680481 6.322039604187012 161 147 136
-1.4928869009017944 1.702962040901184 6.583972930908203 93 82 73
0.5689224004745483 0.498440146446228 6.022869110107422 131 127 127
-0.17104847729206085 2.2498812675476074 6.530555248260498 157 151 142
-1.6787869930267334 1.5017715692520142 6.463268280029297 150 140 132
1.5965304374694824 -0.27400854229927063 3.7477545738220215 105 101 88
0.6653087139129639 -0.4318279027938843 5.7448225021362305 39 37 38
-2.189333438873291 -0.47764161229133606 7.358905792236328 59 56 62
-1.3825868368148804 0.4800107777118683 6.9117431640625 150 143 143
-1.2740379571914673 1.9008411169052124 6.6868367195129395 38 27 21
-0.44138312339782715 1.253568410873413 6.9041666984558105 110 103 114
1.5752367973327637 1.1619189977645874 3.8314599990844727 60 54 48
-1.4807465076446533 1.5161443948745728 6.546724319458008 54 43 33
0.8690909147262573 -0.24097156524658203 5.819063663482666 137 135 127
0.5018745064735413 0.2859675884246826 6.090682029724121 13 9 9
0.4146569073200226 0.08775060623884201 6.450699806213379 88 83 90
-1.71330726146698 1.5164786577224731 6.468579292297363 73 60 53
1.6040022373199463 -0.07130587100982666 3.704014301300049 107 105 97
-2.122903347015381 -0.13868363201618195 7.416595935821533 115 116 124
0.44373950362205505 -0.0982678085565567 6.270563125610352 25 22 25
-2.0927228927612305 -0.0953831598162651 7.4517621994018555 169 170 186
0.8617424964904785 -0.0491432286798954 5.820570468902588 31 29 24
-2.0897393226623535 -0.09775961190462112 7.440831661224365 220 223 235
-2.185760259628296 1.5117449760437012 6.289851665496826 138 127 118
-2.3018476963043213 0.20116861164569855 7.337650299072266 146 140 141
-1.0361226797103882 1.2977641820907593 6.483282566070557 74 65 67
0.16570411622524261 2.694868564605713 5.683432102203369 101 93 83
-0.11063221842050552 2.843632698059082 5.305838584899902 124 117 110
1.0384007692337036 2.8600502014160156 5.175036430358887 71 65 53
-1.216076374053955 -2.597766399383545 6.412433624267578 120 117 118
-1.1225820779800415 0.4357360899448395 6.87765645980835 87 76 67
-1.599165678024292 0.5885966420173645 6.666459083557129 40 29 23
-1.0511168241500854 1.3518481254577637 6.74882173538208 92 84 84
-1.9851046800613403 1.3422564268112183 6.361912727355957 124 114 109
0.8377588987350464 0.32169976830482483 5.87410306930542 12 11 7
-0.5061783194541931 0.6835740804672241 6.9147114753723145 130 120 110
1.2443015575408936 -2.477888822555542 4.457619667053223 28 26 29
-2.6741793155670166 0.9637501239776611 6.05380916595459 129 117 109
-0.5264931321144104 1.2762371301651 6.973609924316406 67 60 70
-1.0074737071990967 1.6697531938552856 6.782111167907715 128 116 109
1.0146722793579102 -2.056466579437256 4.998755931854248 155 154 156
0.06930897384881973 1.0912467241287231 7.027458667755127 66 61 70
-1.607438564300537 0.5917205810546875 6.700969219207764 43 32 27
-2.1161270141601562 1.5362517833709717 6.3502092361450195 68 58 53
-2.1613240242004395 -2.0547473430633545 6.092496395111084 49 45 44
-1.82462477684021 -2.054151773452759 6.167455673217773 118 116 116
-0.47803881764411926 1.2199139595031738 6.938579559326172 112 106 121
0.690784215927124 -1.847499132156372 5.6545634269714355 79 75 73
-1.4489338397979736 -2.062769651412964 6.34495735168457 106 103 102
-0.925076425075531 -2.0744380950927734 6.573192119598389 44 40 40
1.0312144756317139 -1.773885726928711 5.6658806800842285 188 181 161
-1.4537245035171509 1.5424890518188477 6.52173376083374 164 153 143
-2.1915042400360107 -1.8755738735198975 6.073933124542236 131 121 113
1.6023304462432861 0.3560730516910553 3.774264097213745 78 74 68
-1.322725534439087 1.1512411832809448 6.568629264831543 87 81 82
-1.248429536819458 -1.909806489944458 6.689757823944092 54 39 27
0.8796406984329224 -1.6320140361785889 5.7403459548950195 117 114 109
-1.4807567596435547 1.5161330699920654 6.546628475189209 54 43 33
0.6769137382507324 -1.5919617414474487 5.694785118103027 153 153 151
0.6234124898910522 1.4410134553909302 5.804394245147705 26 22 22
-1.687592625617981 1.506758451461792 6.483796119689941 150 140 132
-1.2113884687423706 1.6999249458312988 6.688457012176514 40 29 24
-0.20303930342197418 2.6125028133392334 6.582056999206543 45 38 34
-0.8923187255859375 1.5223112106323242 6.585858345031738 78 69 64
0.6443825960159302 1.4766759872436523 5.862001419067383 137 132 133
-1.2303982973098755 1.6434732675552368 6.4592719078063965 74 64 57
-1.1808568239212036 1.7000290155410767 6.707769393920898 36 26 17
0.880765974521637 -1.5110173225402832 5.743407726287842 106 104 97
1.5729544162750244 0.958980143070221 3.7752127647399902 112 108 100
0.5217565894126892 1.648275375366211 6.211031436920166 19 14 13
1.6031657457351685 -0.9117283821105957 3.695486307144165 114 107 91
-0.9318336844444275 1.815736174583435 6.718564510345459 57 47 42
0.577228844165802 -1.4804002046585083 6.103260040283203 48 47 47
-1.8833566904067993 2.0903851985931396 6.429721832275391 27 18 13
-2.481350898742676 1.924864411354065 6.179892539978027 14 7 6
0.024639450013637543 -1.7001270055770874 7.228251934051514 55 44 39
0.07635912299156189 -1.6738159656524658 7.0846943855285645 66 59 59
-0.5510287284851074 1.877018928527832 6.727463722229004 133 126 120
-1.014938473701477 1.5217328071594238 6.775791168212891 47 36 28
-1.2447526454925537 1.5179013013839722 6.673648357391357 92 82 77
-0.9987373352050781 2.089437961578369 6.728066444396973 119 107 101
-0.4798296093940735 0.8673219680786133 6.951681137084961 141 132 123
-1.1415842771530151 2.0715458393096924 6.704046726226807 26 14 10
-1.0037727355957031 2.0730836391448975 6.781372547149658 141 130 122
0.854030966758728 -1.036930799484253 5.7714738845825195 23 21 21
0.6828827857971191 -1.0250154733657837 5.746933460235596 27 26 26
-1.1605088710784912 2.030846357345581 6.717318058013916 69 59 51
-1.1441807746887207 1.9904520511627197 6.68673038482666 62 53 45
1.5752344131469727 1.1619226932525635 3.8314507007598877 60 54 48
-0.49838724732398987 1.472001314163208 6.853911876678467 14 6 6
0.8375508189201355 -0.8268970251083374 5.721944332122803 31 29 28
-0.9325600266456604 2.0454678535461426 6.801191329956055 129 122 120
-2.4211151599884033 -0.8253183364868164 6.262580871582031 128 110 97
-0.7653407454490662 1.455539584159851 6.781833648681641 128 118 114
-2.4570298194885254 -0.8140144944190979 6.3820366859436035 69 58 54
-1.794907569885254 -0.851134181022644 6.790218353271484 82 83 99
-1.9490805864334106 1.3609950542449951 6.34346866607666 142 131 124
-1.9427012205123901 -0.869979202747345 7.196343898773193 81 84 105
1.5911237001419067 -0.43131816387176514 3.7062041759490967 93 89 79
0.6584701538085938 -0.6568698287010193 5.7771406173706055 111 109 110
-2.457033395767212 1.3219881057739258 6.199591636657715 84 78 82
0.6643118262290955 -0.6289625763893127 5.769993782043457 26 24 24
-2.5290684700012207 1.3373371362686157 6.254554271697998 96 93 99
0.162610724568367 -0.7099663615226746 6.868026256561279 34 31 32
0.3011634945869446 -0.6620228290557861 6.5555739402771 144 144 154
-1.912589430809021 -0.7337611317634583 7.361363410949707 120 127 146
-2.4282541275024414 -0.6902358531951904 7.115994453430176 163 170 187
-1.2098643779754639 1.3768833875656128 6.627346515655518 58 48 44
-1.680254340171814 1.3999923467636108 6.620868682861328 117 106 99
-2.145768404006958 -0.6337427496910095 7.414447784423828 109 122 149
-1.9850553274154663 1.3422476053237915 6.361820697784424 124 114 109
-0.9750657081604004 1.284390926361084 6.782860279083252 127 120 122
0.6653084754943848 -0.43182817101478577 5.744827747344971 39 37 38
1.6307692527770996 -0.27343448996543884 3.73734712600708 27 24 20
0.6669325828552246 0.3618665039539337 5.768823623657227 34 30 32
1.6164190769195557 -0.2518489956855774 3.677135705947876 90 89 84
1.6384575366973877 -0.2532491683959961 3.7272017002105713 18 18 15
0.6583554148674011 0.14251263439655304 5.825462341308594 135 133 133
-0.3915361762046814 1.451572060585022 6.973178386688232 117 108 108
-2.042083740234375 1.3440423011779785 6.358933925628662 19 11 14
-2.2127490043640137 -0.4890602231025696 7.397298336029053 74 71 76
-2.23429012298584 -0.4681485891342163 7.378866672515869 119 115 119
-2.0921552181243896 -0.45554545521736145 7.437168121337891 47 43 51
1.6028320789337158 0.5550559759140015 3.770777940750122 36 31 25
-1.2516531944274902 1.3658252954483032 6.621770858764648 132 122 116
1.421024203300476 -1.4692788124084473 5.75682258605957 53 45 30
-1.5422053337097168 1.3463783264160156 6.5798749923706055 64 54 48
-1.8898082971572876 -0.8964722752571106 7.158766746520996 45 44 58
-1.2095786333084106 1.3629893064498901 6.688955783843994 127 118 115
0.4460331201553345 -0.6710996031761169 6.265530109405518 23 22 23
-1.6364697217941284 1.3083956241607666 6.4894514083862305 96 87 84
-2.122880697250366 -0.13866721093654633 7.416511535644531 115 116 124
1.5985230207443237 -0.0661991536617279 3.6914875507354736 100 98 90
0.44362199306488037 -0.09824240952730179 6.268857955932617 25 22 25
-1.3295549154281616 1.1525187492370605 6.6001386642456055 28 22 23
-2.3461623191833496 -0.09178969264030457 7.336252212524414 229 227 233
-0.37686148285865784 1.390467643737793 6.934024810791016 46 39 44
1.58576238155365 -0.04289764538407326 3.7688026428222656 102 97 84
-1.005056381225586 1.3203139305114746 6.706005096435547 41 33 34
0.15208005905151367 0.022852305322885513 6.865697383880615 13 14 31
-1.0731714963912964 1.3653138875961304 6.926663398742676 49 41 43
-1.2671689987182617 1.3381747007369995 6.672309875488281 38 30 30
-2.4129505157470703 0.06232389435172081 7.346837520599365 169 166 170
-1.8522309064865112 0.07049643993377686 7.442093372344971 147 142 145
-1.8294497728347778 0.10072428733110428 7.3847479820251465 221 220 222
0.5673812031745911 0.11771190166473389 6.0219197273254395 155 150 150
0.8669852614402771 0.14016909897327423 5.853845119476318 48 45 40
-2.0414702892303467 0.18746988475322723 7.472122669219971 145 138 139
-0.9573519825935364 1.304627776145935 6.74128532409668 87 79 82
-2.325578451156616 0.19838842749595642 7.375236988067627 140 132 133
0.0160692036151886 0.20960408449172974 7.225680351257324 90 80 81
-1.2024154663085938 1.275679349899292 6.654369831085205 122 116 119
0.6668684482574463 -0.43305104970932007 5.758296012878418 38 36 37
1.5730078220367432 0.743660569190979 3.816115617752075 77 71 59
0.5080792307853699 0.2553582489490509 6.105384349822998 124 119 119
-0.906197726726532 1.313387393951416 6.7440571784973145 8 2 6
0.6612914800643921 1.0982526540756226 5.855106353759766 159 156 156
0.6814696192741394 -0.837864339351654 5.8141961097717285 33 32 33
0.5071422457695007 0.2931307852268219 6.230898857116699 29 25 25
-1.4928033351898193 1.7028923034667969 6.5837602615356445 93 82 73
0.5367490649223328 0.30758926272392273 6.120322227478027 95 91 91
0.5591901540756226 0.30464956164360046 5.89885139465332 86 82 81
-1.1276357173919678 0.38223496079444885 6.926199436187744 172 164 158
0.6661102175712585 0.3322835862636566 5.874760150909424 30 27 27
-1.329606533050537 0.40620914101600647 6.610844612121582 185 184 189
-1.122565507888794 0.43573102355003357 6.877603530883789 87 76 67
-1.3825303316116333 0.47999855875968933 6.911551475524902 150 143 143
-0.3249345123767853 1.2894963026046753 7.002260208129883 12 8 18
-0.6735485792160034 1.4583629369735718 6.852385520935059 107 99 98
-2.2868542671203613 1.403385877609253 6.198107719421387 85 77 72
-0.7039214968681335 1.3715564012527466 6.836523532867432 56 49 53
-1.661198377609253 -2.0637407302856445 6.266111850738525 134 130 132
-2.606743574142456 0.574192464351654 6.322103023529053 161 147 136
0.5435143113136292 2.9005353450775146 5.1332244873046875 169 160 150
0.5486837029457092 -0.08084539324045181 5.905247688293457 96 91 92
-2.003758192062378 1.1338701248168945 6.387300491333008 74 70 76
-2.3933770656585693 -0.8810603022575378 6.243063449859619 89 70 56
-1.5008747577667236 1.497534990310669 6.632959842681885 152 140 129
0.8827562928199768 -0.9993928670883179 5.773950099945068 106 104 96
-1.7473821640014648 1.394672155380249 6.4348273277282715 72 61 51
-0.9382229447364807 1.7008097171783447 6.8149895668029785 71 61 55
0.8359181880950928 -0.8383778929710388 5.826329708099365 30 28 27
-2.2008159160614014 -0.016591867431998253 7.346222877502441 163 164 177
-2.161320209503174 -2.0547432899475098 6.09248685836792 49 45 44
-2.4689106941223145 0.4951156973838806 6.486095905303955 100 88 85
0.926300585269928 -1.8915081024169922 5.672175884246826 105 102 94
0.8919872641563416 -1.874049425125122 5.751351356506348 135 133 124
