ply
format ascii 1.0
element vertex 708
property float x
property float y
property float z
property uchar red
property uchar green
property uchar blue
end_header
-0.206137552857399 -0.8940305709838867 4.184299468994141 51 56 86
-0.20519152283668518 -0.9192641377449036 4.18035888671875 53 57 90
-0.21549846231937408 0.4494938850402832 4.38969612121582 65 55 54
-0.2024465948343277 -1.2857390642166138 4.134790420532227 102 98 98
-0.2024465948343277 -1.2857390642166138 4.134790420532227 102 98 98
-0.2091383934020996 -0.17594559490680695 4.306413173675537 72 75 89
-0.2234865427017212 0.5560271739959717 4.423529148101807 146 138 139
-0.20891426503658295 0.246248260140419 4.372652053833008 37 38 66
-0.18947476148605347 -0.31598249077796936 4.297571659088135 67 68 92
-0.19716216623783112 -1.102746844291687 4.232988357543945 74 74 87
-0.1867396980524063 -2.049422264099121 4.021296977996826 74 80 87
-0.1867396980524063 -2.049422264099121 4.021296977996826 74 80 87
-0.18838967382907867 -1.8416414260864258 4.063199520111084 34 33 36
-0.19103634357452393 -1.2221273183822632 4.143043041229248 47 45 48
-0.19784961640834808 0.332173228263855 4.375870227813721 33 33 63
-0.18949684500694275 -1.0678764581680298 4.2411370277404785 20 19 26
-0.1922973394393921 0.5262048840522766 4.427276134490967 115 107 107
-0.19798167049884796 0.6098479628562927 4.4886474609375 62 57 58
-0.17478127777576447 -1.9567400217056274 4.043479919433594 23 22 26
-0.1764717847108841 -0.8709536790847778 4.237990379333496 23 21 27
-0.17875546216964722 0.1485757827758789 4.365012168884277 43 42 59
-0.17410004138946533 -0.3108728528022766 4.297142028808594 56 58 84
-0.16426700353622437 -1.480584979057312 4.1247358322143555 50 48 47
-0.16369573771953583 -1.4279232025146484 4.132534503936768 115 110 108
-0.15675653517246246 0.39349842071533203 4.425642013549805 101 96 97
-0.14745193719863892 -1.9697694778442383 3.983466625213623 25 23 25
-0.14733973145484924 -1.3713027238845825 4.1515727043151855 104 97 89
-0.15110540390014648 -0.4444662630558014 4.297480583190918 22 20 22
-0.1508244276046753 -0.18161004781723022 4.340219497680664 54 52 63
-0.1478951871395111 -0.8555422425270081 4.2319488525390625 24 22 28
-0.1415552943944931 -1.4296096563339233 4.141801357269287 70 64 62
-0.14714428782463074 -0.07716339826583862 4.356105804443359 70 67 79
-0.14714428782463074 -0.07716339826583862 4.356105804443359 70 67 79
-0.14663273096084595 -0.8561742901802063 4.318035125732422 79 78 85
-0.1469680368900299 0.44781020283699036 4.438297748565674 77 68 66
-0.14624229073524475 0.3002901077270508 4.419249534606934 49 43 43
-0.14256621897220612 -0.012450502254068851 4.358443737030029 74 71 79
-0.14084330201148987 -0.4276825189590454 4.308132648468018 70 70 78
-0.14151111245155334 0.5812309384346008 4.442605018615723 42 36 41
-0.13996970653533936 0.16800019145011902 4.413910388946533 39 37 48
-0.13655833899974823 0.11690708249807358 4.378264427185059 40 37 52
-0.13655833899974823 0.11690708249807358 4.378264427185059 40 37 52
-0.1309105008840561 0.08261869102716446 4.386031627655029 68 62 69
-0.1266171932220459 -1.8149470090866089 4.089498996734619 79 73 74
-0.11669855564832687 -0.07565412670373917 4.294577598571777 57 53 64
-0.13281354308128357 -0.20802795886993408 4.34436559677124 47 45 52
-0.1251327097415924 -1.4562482833862305 4.139620304107666 37 32 31
-0.12469752877950668 -1.4065780639648438 4.167074203491211 66 57 53
-0.12422943115234375 -1.4263103008270264 4.153142929077148 100 90 87
-0.12422943115234375 -1.4263103008270264 4.153142929077148 100 90 87
-0.12218473851680756 -1.8400224447250366 4.09490966796875 69 62 63
-0.1235823780298233 -1.4334908723831177 4.148928165435791 99 91 88
-0.1254510134458542 -0.016340957954525948 4.383571624755859 78 75 81
-0.12544888257980347 -0.0163393747061491 4.383560657501221 78 75 81
-0.14036773145198822 0.03592681512236595 4.374654293060303 65 60 65
-0.12508422136306763 -0.3654179275035858 4.31419563293457 71 75 93
-0.1253218650817871 -0.01633123867213726 4.383091449737549 78 75 81
-0.11886388808488846 -0.07691854983568192 4.375057220458984 45 41 52
-0.12910670042037964 0.22660961747169495 4.411388397216797 55 50 49
-0.10996531695127487 -2.032912015914917 4.054848670959473 17 14 15
-0.10996531695127487 -2.032912015914917 4.054848670959473 17 14 15
-0.10881344974040985 -1.9962856769561768 4.077098846435547 53 49 48
-0.11032288521528244 -1.4290366172790527 4.1622819900512695 72 62 59
-0.1141706109046936 0.044027749449014664 4.383717060089111 58 52 57
-0.11427895724773407 0.43061402440071106 4.445664405822754 58 48 46
-0.11427895724773407 0.43061402440071106 4.445664405822754 58 48 46
-0.10486582666635513 -1.7484264373779297 4.1112446784973145 74 67 68
-0.10792937874794006 -0.14893634617328644 4.362700939178467 50 47 57
-0.09936410933732986 -1.8045296669006348 4.111318588256836 43 37 38
-0.10058271139860153 -1.2454063892364502 4.1948957443237305 88 83 83
-0.10058081150054932 1.306144118309021 4.271878242492676 40 35 40
-0.11886988580226898 -0.07696139812469482 4.375032424926758 45 41 52
-0.09825585037469864 -0.18551228940486908 4.340707778930664 101 97 102
-0.09096027910709381 -2.0788164138793945 4.065086841583252 44 40 40
-0.09096027910709381 -2.0788164138793945 4.065086841583252 44 40 40
-0.08990083634853363 -1.9020098447799683 4.095827579498291 60 53 53
-0.08589628338813782 0.07030284404754639 4.402830123901367 59 53 61
-0.08483581990003586 0.4757256507873535 4.4802937507629395 104 95 98
-0.0880330353975296 0.014983483590185642 4.392341136932373 67 61 66
-0.08230333030223846 -1.8521467447280884 4.102664947509766 57 52 52
-0.0874447450041771 -0.17924319207668304 4.364089012145996 47 42 50
-0.08536610007286072 -0.19802159070968628 4.362753391265869 60 56 62
-0.08101679384708405 -1.6054638624191284 4.141860485076904 41 36 36
-0.09761316329240799 -1.239861249923706 4.216063022613525 58 52 54
-0.08936398476362228 -1.675775408744812 4.144237995147705 33 28 29
-0.06730454415082932 -0.06569796800613403 4.388616561889648 48 45 60
-0.07728163152933121 -0.4547502398490906 4.330280780792236 42 37 38
-0.07594574987888336 -0.6645303964614868 4.300800323486328 40 38 47
-0.07622773945331573 -0.040880631655454636 4.416881561279297 38 36 48
-0.06788525730371475 -1.7059894800186157 4.071918964385986 47 43 46
-0.05976762995123863 -0.10502928495407104 4.404026031494141 40 37 52
-0.06802365183830261 0.4469229578971863 4.4727678298950195 42 36 41
-0.06392472237348557 -0.7703418135643005 4.282495498657227 38 35 47
-0.06133953854441643 -1.6860287189483643 4.149323463439941 51 46 46
-0.05978354811668396 -1.7855252027511597 4.134485721588135 42 37 38
-0.058662187308073044 -1.482027292251587 4.179075717926025 53 48 47
-0.050160329788923264 -0.8795455098152161 4.269143104553223 47 43 49
-0.047001052647829056 0.7343754172325134 4.1045637130737305 152 142 132
-0.04633353278040886 -0.8611670732498169 4.284742832183838 24 18 20
-0.0398293137550354 -1.6576263904571533 4.148231506347656 64 59 56
-0.035386763513088226 0.5383444428443909 4.513294219970703 30 25 27
0.08114691078662872 0.6529102325439453 4.323361873626709 63 59 54
0.14539705216884613 0.6746728420257568 4.212457656860352 65 57 53
0.14289730787277222 2.092071294784546 3.961225748062134 49 50 61
0.15805207192897797 0.693988025188446 4.125962257385254 68 61 56
0.21404054760932922 1.1890877485275269 3.7116923332214355 77 77 96
0.2671467363834381 0.7237658500671387 3.9849860668182373 83 72 63
0.29676270484924316 0.4396895170211792 4.298573970794678 135 133 132
0.2939498722553253 0.5257521867752075 3.9678955078125 65 57 52
0.2864333391189575 1.2679860591888428 3.600766658782959 59 59 80
0.3181185722351074 1.1948314905166626 3.5363779067993164 59 56 73
0.33737730979919434 1.2712926864624023 3.5067520141601562 33 30 41
0.36842256784439087 0.7482070326805115 3.8173835277557373 99 86 77
0.3961990773677826 1.4758154153823853 3.407381296157837 107 110 124
0.43254750967025757 1.3233165740966797 3.371420383453369 60 60 77
0.4611561596393585 1.2317849397659302 3.297563314437866 101 96 94
0.46198394894599915 1.192520260810852 3.2695701122283936 73 65 61
0.5302493572235107 0.7979806065559387 3.5765836238861084 81 72 64
0.4898932874202728 1.3267651796340942 3.2800796031951904 59 58 69
0.5369821190834045 0.7921342849731445 3.4971706867218018 92 84 77
0.5365269780158997 1.2623424530029297 3.17492938041687 95 90 94
0.5941153764724731 0.787009596824646 3.5020551681518555 53 43 34
0.5579021573066711 1.098982334136963 3.078435182571411 98 88 80
0.5689030289649963 1.1635838747024536 3.0732550621032715 101 93 84
0.6374930739402771 0.5859085917472839 3.3955235481262207 55 50 45
0.6923123002052307 0.7223053574562073 3.300046920776367 139 127 117
0.7337647676467896 0.7593851685523987 3.245811939239502 134 122 112
0.7337647676467896 0.7593851685523987 3.245811939239502 134 122 112
0.7810702919960022 0.7100661396980286 3.1782124042510986 49 41 40
0.7810702919960022 0.7100661396980286 3.1782124042510986 49 41 40
0.7015160322189331 1.0903127193450928 2.81524395942688 127 119 111
0.8005703687667847 0.5582922101020813 3.1650774478912354 65 65 72
0.8161167502403259 0.709735631942749 3.207294464111328 56 50 49
0.7141854763031006 1.025131344795227 2.793189764022827 98 90 82
0.8231696486473083 0.678015410900116 3.1925742626190186 72 69 77
0.8000712394714355 0.12176226824522018 3.134755849838257 37 38 46
0.8456387519836426 0.6656795144081116 3.2600250244140625 94 96 105
0.8336222767829895 0.7041295170783997 3.2107443809509277 66 61 62
0.8069092035293579 0.9090900421142578 3.0493860244750977 112 108 102
0.8578689694404602 0.7743712067604065 3.1779732704162598 131 122 114
0.881455659866333 0.7700331211090088 3.2577550411224365 146 137 131
0.9067978858947754 0.6705378293991089 3.2894437313079834 106 102 110
0.9050536155700684 0.7681973576545715 3.250864028930664 124 116 109
0.9263879656791687 0.7302554845809937 3.300591468811035 57 40 35
0.9385416507720947 0.6930590271949768 3.2991249561309814 75 59 52
0.9407786726951599 0.6526384949684143 3.30106258392334 62 48 42
0.8530858755111694 0.9300876259803772 2.938950300216675 116 113 108
0.8178157806396484 0.9566885232925415 2.7997376918792725 91 86 85
0.89347243309021 0.7951284646987915 3.0621750354766846 31 21 17
0.7886026501655579 1.186613917350769 2.666327714920044 101 95 85
0.7857089638710022 0.9880068898200989 2.6762709617614746 98 94 88
0.9106171727180481 -0.6277405619621277 3.1109225749969482 72 62 56
1.0040251016616821 0.6255972385406494 3.3026678562164307 161 151 152
1.0093785524368286 0.5450307726860046 3.3125064373016357 60 57 60
0.8996872901916504 -0.6075139045715332 2.944587469100952 59 50 45
0.9979066848754883 0.3116759955883026 3.2589523792266846 43 40 48
1.002004623413086 0.13602817058563232 3.173215389251709 72 73 80
0.9793649315834045 0.7941065430641174 3.125109910964966 182 171 165
1.001058578491211 -0.0641888901591301 3.167790174484253 93 94 102
0.9798650741577148 0.7948189973831177 3.126044273376465 173 161 155
1.0365492105484009 0.647994875907898 3.2571113109588623 154 142 137
0.9166792035102844 0.9465901255607605 2.867779493331909 124 121 116
0.9462514519691467 0.8390091061592102 2.8613462448120117 133 125 115
1.05710768699646 0.40786612033843994 3.202387571334839 41 41 42
1.1030099391937256 0.04178003966808319 3.21718430519104 77 77 79
1.0940860509872437 0.6693925857543945 3.172945261001587 148 131 127
1.0940577983856201 0.3966697156429291 3.1679317951202393 107 106 107
1.0621088743209839 0.8030176758766174 3.0348520278930664 137 128 122
1.1594161987304688 0.6303170919418335 3.0982632637023926 175 171 168
0.9433749914169312 1.013190746307373 2.5193850994110107 85 85 90
1.160420536994934 0.7023360729217529 3.061781644821167 136 121 120
1.1636180877685547 0.6764010190963745 3.0570454597473145 108 101 100
1.45427405834198 0.29593002796173096 3.7993083000183105 25 24 25
1.1698532104492188 0.6506327390670776 3.0438575744628906 85 81 80
1.1847503185272217 0.6696362495422363 3.0022130012512207 148 143 144
1.0631563663482666 0.9549121260643005 2.6628081798553467 84 79 73
1.2521148920059204 0.6012746691703796 3.1502819061279297 70 68 67
1.2245908975601196 0.6585972309112549 2.9396896362304688 106 107 111
1.2122702598571777 0.826513409614563 2.87587308883667 126 116 109
1.2437818050384521 0.6882575750350952 2.925227642059326 86 88 99
1.2481921911239624 0.7202587723731995 2.9126453399658203 78 76 87
1.2645491361618042 0.6637714505195618 2.9259371757507324 145 145 144
1.175832748413086 0.8758817315101624 2.6653459072113037 55 49 45
1.2792505025863647 0.7176775336265564 2.865518569946289 57 58 69
1.3219664096832275 0.697458803653717 2.8109829425811768 90 91 93
1.343023657798767 0.7360844016075134 2.8059489727020264 80 83 88
1.3536765575408936 0.6907876133918762 2.7760226726531982 59 60 58
-0.406074583530426 0.6199988722801208 4.356189250946045 53 52 65
-1.4086755514144897 1.328923225402832 3.8850109577178955 28 26 32
-1.4080307483673096 1.3459484577178955 3.885327100753784 36 34 40
-1.2095494270324707 0.06736588478088379 3.8256471157073975 78 79 83
-0.9177811145782471 0.5679886937141418 4.0604658126831055 17 17 31
-1.4847321510314941 1.326521873474121 3.8173556327819824 75 74 78
-1.197666049003601 0.29603254795074463 3.871056318283081 5 6 11
-1.1860111951828003 0.29791656136512756 3.8623876571655273 187 187 192
-0.9490467309951782 0.06518752872943878 3.944363832473755 161 163 170
-1.4210983514785767 0.9172453284263611 3.8147358894348145 23 22 28
-1.2939717769622803 0.695285439491272 3.8511760234832764 26 26 33
1.3308284282684326 0.6880425214767456 2.82580828666687 46 46 46
1.3308260440826416 0.6880389451980591 2.8257980346679688 46 46 46
-0.3065289855003357 0.44277533888816833 4.247401714324951 122 116 126
-1.2095872163772583 0.06737414002418518 3.825709581375122 78 79 83
-0.6210964918136597 1.2394248247146606 4.317349433898926 73 69 71
-0.6712397933006287 -1.3824421167373657 3.8705124855041504 31 32 48
-0.4468514025211334 -1.0316258668899536 4.027813911437988 159 161 180
0.8937928676605225 0.7611038088798523 3.243190288543701 144 136 129
-0.42368513345718384 -1.041400671005249 4.058077812194824 135 136 151
0.8945863842964172 0.7558895945549011 3.251311779022217 104 95 89
-1.1723906993865967 0.31845197081565857 3.866682767868042 224 225 231
-1.5110933780670166 1.142439842224121 3.8123414516448975 77 74 76
-1.4293744564056396 1.7379214763641357 3.919508695602417 119 119 123
1.22428297996521 0.835168182849884 2.884186267852783 129 118 110
-0.5763454437255859 0.7701937556266785 4.243052959442139 133 130 155
-1.2245240211486816 -0.9699990153312683 3.6439602375030518 39 42 47
-0.621100127696991 1.239432454109192 4.317372798919678 73 69 71
0.9447826147079468 0.6775919198989868 3.309339761734009 83 66 59
-0.9366489052772522 -0.17775720357894897 3.9395766258239746 31 30 39
-0.9366419911384583 -0.17775367200374603 3.9395551681518555 31 30 39
-0.6790513396263123 0.029184715822339058 4.090062618255615 64 66 78
-0.4068163335323334 0.4957241415977478 4.316360950469971 25 24 34
-1.437451720237732 1.1268091201782227 3.8874948024749756 23 21 22
-0.6582903265953064 0.43111950159072876 4.172420024871826 7 8 12
-0.6241222620010376 0.8685344457626343 4.247672080993652 146 148 179
-1.4091054201126099 1.5201913118362427 3.9257826805114746 27 23 28
1.0542787313461304 0.6020181179046631 3.2751688957214355 128 124 119
-0.22124545276165009 0.5558363199234009 4.394952297210693 153 145 146
-0.36465251445770264 -1.0368683338165283 4.0477213859558105 149 150 172
-0.7228890657424927 0.4343644380569458 4.1075239181518555 107 111 132
-1.4092705249786377 1.5203888416290283 3.9262516498565674 27 23 28
-0.6600638031959534 0.28996825218200684 4.140282154083252 161 165 185
-0.6097835898399353 0.8465746641159058 4.252192974090576 103 101 120
-1.015392780303955 0.2659461200237274 3.9552221298217773 45 44 53
-0.5192250609397888 0.6345691084861755 4.280108451843262 127 126 147
-1.225455641746521 -0.12045475840568542 3.7912731170654297 75 77 84
-0.6978480219841003 -0.40835946798324585 4.028963088989258 57 57 64
-0.6328268647193909 0.8576401472091675 4.290896415710449 97 97 111
-0.6565508246421814 0.2647283971309662 4.120384693145752 146 150 169
-1.4306390285491943 -0.10533704608678818 3.6804087162017822 99 99 106
-0.4381212890148163 -1.8979321718215942 3.9244678020477295 115 117 125
-1.4111818075180054 0.7110146880149841 3.8074636459350586 10 10 14
-0.8786550760269165 0.24942533671855927 4.013490676879883 73 73 83
-1.517505168914795 0.7365648746490479 3.735462188720703 22 23 24
-0.6562752723693848 0.6530588865280151 4.238631725311279 90 90 103
0.9156020283699036 0.7011744379997253 3.2951791286468506 102 92 95
-0.2653972804546356 0.47230035066604614 4.362375736236572 76 66 63
-1.4111782312393188 0.711013913154602 3.807459592819214 10 10 14
-0.9152913689613342 0.48550841212272644 4.03946590423584 8 8 18
-1.442788004875183 1.533591866493225 3.8872978687286377 110 106 111
1.0040260553359985 0.6256005167961121 3.3026630878448486 161 151 152
-0.4137718379497528 0.8318691253662109 4.363041400909424 12 12 15
-0.42412954568862915 0.2068837434053421 4.267961025238037 17 16 23
-0.6284537315368652 0.852706789970398 4.232912063598633 139 141 159
-0.6654595136642456 0.6835005283355713 4.2191901206970215 58 56 69
-0.17759859561920166 0.19630931317806244 4.38101863861084 154 153 166
-0.6597509384155273 0.6562562584877014 4.2011399269104 74 74 84
-0.8902608156204224 1.296056866645813 4.213935852050781 53 53 55
-0.4241175353527069 0.20690149068832397 4.267884731292725 17 16 23
-1.48080313205719 1.5343571901321411 3.867912769317627 23 19 23
-0.6979256272315979 -0.82215815782547 3.9499971866607666 11 13 23
1.2054311037063599 0.8462480902671814 2.863765001296997 99 90 84
-0.45027095079421997 -2.0527215003967285 3.905322790145874 37 35 35
-1.4583393335342407 0.11718007922172546 3.688746690750122 144 143 148
-0.6794812679290771 -1.237250804901123 3.8951423168182373 48 51 59
-1.4716746807098389 0.09897997975349426 3.6737611293792725 56 54 62
1.0175801515579224 0.08469197154045105 3.2085041999816895 117 116 119
-1.5117058753967285 1.5631810426712036 3.87198543548584 148 144 148
-1.5008256435394287 1.5580593347549438 3.8575265407562256 152 149 152
-0.31387683749198914 0.4533311724662781 4.349096775054932 107 99 106
-1.338831901550293 -0.5558512806892395 3.633690357208252 60 65 71
-0.9462363719940186 -0.5916217565536499 3.875231981277466 21 22 30
-1.4086812734603882 1.3289382457733154 3.8850345611572266 28 26 32
-0.5306057929992676 0.847376823425293 4.312837600708008 101 101 126
-1.5273709297180176 0.5227949023246765 3.7280240058898926 82 83 87
-0.42653563618659973 -1.8780053853988647 3.89809250831604 124 126 132
-0.44718605279922485 -1.9248114824295044 3.918928861618042 12 12 17
-0.5647696256637573 0.8473782539367676 4.28644323348999 119 119 140
-0.15016138553619385 0.6079868078231812 4.486337661743164 83 78 79
-0.1501450389623642 0.6079780459403992 4.486273765563965 83 78 79
-1.4092984199523926 1.5204209089279175 3.9263174533843994 27 23 28
-1.428826093673706 -0.30857306718826294 3.604449510574341 75 75 80
-0.44143757224082947 -1.9261233806610107 3.921961545944214 132 133 137
-0.46567869186401367 -2.0774238109588623 3.9463987350463867 37 35 36
-1.3388373851776123 0.0733414813876152 3.7387633323669434 28 30 38
-1.1828149557113647 0.37740013003349304 3.8811020851135254 145 146 156
-1.1736735105514526 0.49317222833633423 3.9016659259796143 48 48 53
-1.1427067518234253 1.1177644729614258 4.007382869720459 42 41 44
-0.6979305744171143 -0.8221608400344849 3.9500272274017334 11 13 23
-1.4329580068588257 -0.7373262047767639 3.56076717376709 29 32 37
-1.4329522848129272 -0.7373238205909729 3.5607595443725586 29 32 37
-0.9304072856903076 0.2541263699531555 3.9939496517181396 65 65 74
-0.17644038796424866 -0.8709936141967773 4.237851142883301 23 21 27
-0.2573920786380768 0.44907623529434204 4.391485214233398 64 53 51
-0.44311416149139404 -0.8260841965675354 4.111337184906006 67 70 81
-0.4752196967601776 -0.399431973695755 4.124814510345459 28 30 40
-0.7991365790367126 -1.1924793720245361 3.830580711364746 167 169 179
-0.48394110798835754 -0.39783957600593567 4.149900913238525 55 56 66
-0.5736284852027893 0.42454031109809875 4.167740345001221 69 68 77
-0.6987252831459045 -1.6489030122756958 3.8399734497070312 141 142 156
-1.2348432540893555 -0.5438360571861267 3.7581443786621094 42 44 47
-0.6041148900985718 1.0441404581069946 4.28964900970459 9 9 15
-0.6605757474899292 0.41861921548843384 4.05244255065918 27 28 41
-0.9780998826026917 -1.8268589973449707 3.64507794380188 82 84 92
-0.6711426377296448 0.8263447880744934 4.207723617553711 81 80 89
-0.9233496785163879 0.885556161403656 4.107241153717041 19 20 24
-0.3365370035171509 0.45032578706741333 4.354645252227783 154 151 159
-0.7909677624702454 0.24208909273147583 4.082160949707031 36 36 47
-0.9341857433319092 -0.14704270660877228 3.933621644973755 40 39 47
1.058850646018982 0.6077238321304321 3.2365689277648926 55 50 47
-1.3388206958770752 -0.5558438301086426 3.6336660385131836 60 65 71
-0.5218853950500488 1.0394725799560547 4.326475620269775 74 70 76
-0.19228510558605194 0.5261983871459961 4.427234172821045 115 107 107
-0.6437053084373474 0.8993592858314514 4.247340679168701 50 55 71
-0.7642038464546204 0.44029495120048523 4.083561420440674 78 84 106
0.7810712456703186 0.7100415825843811 3.17814040184021 49 41 40
-0.9253151416778564 -0.1518409103155136 3.934347629547119 134 136 143
0.9042863249778748 0.7670679688453674 3.2432103157043457 175 167 159
-0.5796741247177124 -0.7884336709976196 4.018192291259766 17 20 31
-0.1710548847913742 0.6084021925926208 4.471714496612549 126 121 123
-1.175246238708496 0.3727222979068756 3.8677611351013184 93 94 104
-0.40390318632125854 1.0205535888671875 4.4067487716674805 25 20 21
-0.4082939922809601 0.4451318085193634 4.318636417388916 150 148 158
-0.4280669093132019 0.42902758717536926 4.3502912521362305 75 76 84
-0.13068607449531555 0.512732207775116 4.452784061431885 42 33 37
-1.3933151960372925 1.0984413623809814 3.821148633956909 70 68 69
-0.6206930875778198 0.6384546756744385 4.21397590637207 21 21 39
-0.4038975238800049 1.02055025100708 4.406705379486084 25 20 21
-0.6476976275444031 0.8399814963340759 4.250016689300537 86 85 94
-1.1743147373199463 0.6898987293243408 3.9512150287628174 26 25 33
1.3178750276565552 0.7338877320289612 2.8029286861419678 101 102 111
-1.4850651025772095 1.3266682624816895 3.817795991897583 75 74 78
-1.5113242864608765 1.1424375772476196 3.81259822845459 69 66 68
-0.6812927722930908 0.429522305727005 4.184342384338379 27 28 35
-1.5174956321716309 0.7365515828132629 3.735438823699951 22 23 24
-1.4211000204086304 0.9172461032867432 3.814739227294922 23 22 28
-0.6983594298362732 -0.40965890884399414 4.029445648193359 46 45 54
-1.1737492084503174 0.7059926390647888 3.9446332454681396 6 6 10
-0.6978397965431213 -0.40835970640182495 4.0289435386657715 57 57 64
1.2517577409744263 0.6647502183914185 2.9489901065826416 58 59 60
0.8810552358627319 0.7686624526977539 3.258617401123047 161 152 146
1.205431342124939 0.8462488651275635 2.863765239715576 99 90 84
1.2778403759002686 0.6784413456916809 2.9074032306671143 76 77 77
-0.2789434790611267 0.45154669880867004 4.374541759490967 123 114 115
-0.48394259810447693 -0.3978388011455536 4.149905204772949 55 56 66
-1.43744695186615 1.1268068552017212 3.8874917030334473 23 21 22
-0.43799489736557007 -0.39374810457229614 4.171209335327148 70 72 82
1.2238487005233765 0.8341714143753052 2.881993532180786 129 118 110
-0.1752888560295105 0.5968937873840332 4.402783393859863 120 115 117
-0.6540728807449341 0.43226203322410583 4.171261310577393 13 14 18
-0.37166473269462585 0.41477641463279724 4.269912242889404 144 141 150
-0.44303062558174133 -1.9099767208099365 3.9201087951660156 90 93 99
-0.6794729232788086 -1.2373430728912354 3.8951239585876465 48 51 59
-1.403396725654602 0.5089133381843567 3.744791269302368 49 48 54
0.9591962099075317 -0.6837676763534546 2.560333490371704 167 173 184
-0.6055883169174194 0.8412191271781921 4.223588943481445 156 155 173
-1.4427611827850342 1.5335839986801147 3.8872697353363037 110 106 111
-0.2789474427700043 0.451533704996109 4.374580383300781 123 114 115
-1.1704012155532837 0.31750234961509705 3.860226631164551 214 215 222
-1.4531831741333008 0.30066749453544617 3.7224695682525635 21 21 26
-0.46317076683044434 -2.0741279125213623 3.9399099349975586 43 40 41
-0.2789488434791565 0.45153436064720154 4.3745856285095215 123 114 115
0.6924077868461609 0.7224342823028564 3.300461530685425 139 127 117
-0.45027437806129456 -2.052731990814209 3.905348062515259 37 35 35
-1.182868242263794 0.8926984667778015 4.003245830535889 62 61 67
-1.1421902179718018 1.1183501482009888 4.002741813659668 64 63 65
-1.184303641319275 0.2984148859977722 3.8579282760620117 181 181 186
-1.198410987854004 0.2997141182422638 3.868696451187134 12 11 18
-1.0153981447219849 0.2659478187561035 3.9552323818206787 45 44 53
-0.6794801354408264 -1.2372499704360962 3.8951399326324463 48 51 59
-0.644361674785614 0.2686298191547394 4.128810882568359 120 124 146
-0.6562590599060059 0.2710096836090088 4.155821800231934 110 114 135
-0.9307106137275696 -0.3360512852668762 3.9033749103546143 19 18 28
-0.6697370409965515 0.42041176557540894 4.11132287979126 94 95 106
-0.41227400302886963 0.6251339316368103 4.329357624053955 159 159 180
-0.3775632083415985 0.5380899906158447 4.313812255859375 131 127 139
-0.6592256426811218 0.2669545114040375 4.127464294433594 157 160 179
0.9671693444252014 0.722263514995575 3.2795798778533936 223 207 196
-0.6547642350196838 0.2666601240634918 4.150585651397705 52 56 77
-0.9303787350654602 0.254086971282959 3.9938158988952637 65 65 74
-1.2025867700576782 0.4739146828651428 3.870248556137085 143 143 149
-0.4502565562725067 -2.0526487827301025 3.905285358428955 37 35 35
-0.24758456647396088 0.4449687600135803 4.368960380554199 86 73 72
-0.46804139018058777 -1.041006088256836 4.045590400695801 86 89 108
-0.17759478092193604 0.1963077336549759 4.381003379821777 154 153 166
-1.2198573350906372 -0.9356229901313782 3.631204843521118 109 112 120
-0.9780988097190857 -1.8268555402755737 3.645075798034668 92 94 102
-0.4241202175617218 0.20689666271209717 4.267889976501465 17 16 23
-0.9118337631225586 0.4848572313785553 4.03069543838501 9 9 19
-0.4468863010406494 -1.0325754880905151 4.027860641479492 152 154 172
-0.5451950430870056 0.6347573399543762 4.2402825355529785 176 176 197
-1.4408878087997437 -0.1231880784034729 3.6680867671966553 42 42 47
-1.455854892730713 0.11699607968330383 3.685349941253662 144 143 148
-0.9604393839836121 -1.4263858795166016 3.716549873352051 66 69 74
-1.1814910173416138 0.4824875295162201 3.8974246978759766 6 7 11
-0.6682783365249634 0.4212758243083954 4.097253322601318 87 88 100
-0.9525541663169861 0.06728223711252213 3.9484317302703857 151 153 160
-0.42973071336746216 -1.8815617561340332 3.9063284397125244 118 120 127
-1.395042061805725 1.0999431610107422 3.8238754272460938 70 68 69
1.0040348768234253 0.6256048083305359 3.3026950359344482 161 151 152
-1.409132957458496 1.5202211141586304 3.9258275032043457 27 23 28
1.0758875608444214 0.6210944652557373 3.2376222610473633 112 107 104
-0.9156577587127686 0.6587768793106079 4.072261333465576 18 19 28
-0.6654523611068726 0.6834965944290161 4.21917200088501 58 56 69
-0.9234353303909302 0.885600209236145 4.107418060302734 19 20 24
-1.225650668144226 -0.12048625946044922 3.7915756702423096 75 77 84
-1.4409759044647217 -0.1231403648853302 3.668229579925537 42 42 47
-1.4409501552581787 -0.12314869463443756 3.6681790351867676 42 42 47
-1.1983330249786377 -0.12123385816812515 3.777534246444702 90 91 98
0.915596604347229 0.7011732459068298 3.295182228088379 102 92 95
-0.9342751502990723 -0.14674104750156403 3.9338629245758057 40 39 47
-0.7139869332313538 -0.8243846297264099 3.918983221054077 129 132 142
-0.6979312896728516 -0.8221617937088013 3.9500315189361572 11 13 23
-0.9286817908287048 -0.15199606120586395 3.9408507347106934 129 129 137
-1.2070528268814087 -0.7644723653793335 3.6962413787841797 82 83 89
0.9156036376953125 0.7011733651161194 3.2951743602752686 102 92 95
-0.22127634286880493 0.5558459162712097 4.395152568817139 153 145 146
-1.4287025928497314 -0.308562308549881 3.6042826175689697 75 75 80
-0.221250981092453 0.5558390021324158 4.39497184753418 153 145 146
-1.4581223726272583 -0.3100462555885315 3.644237756729126 65 66 71
-0.6720123887062073 -0.40481141209602356 4.019448280334473 87 88 97
-0.7228635549545288 0.4343520998954773 4.1074323654174805 107 111 132
0.912853479385376 0.6784343123435974 3.261314630508423 101 96 101
-0.42412662506103516 0.2068856805562973 4.267953395843506 17 16 23
-0.17879536747932434 0.19659483432769775 4.385586738586426 154 153 166
-1.2129112482070923 -0.337772399187088 3.7751998901367188 67 68 76
-1.4371402263641357 1.7456064224243164 3.927147626876831 114 114 118
-1.1925241947174072 -1.3616043329238892 3.5142197608947754 57 60 67
-0.9603512287139893 -1.4262690544128418 3.71638822555542 66 69 74
-0.8692881464958191 0.454881489276886 4.052488327026367 55 55 71
-1.5039535760879517 1.5600050687789917 3.8640074729919434 133 130 133
-0.9030489325523376 1.6835507154464722 4.220203399658203 16 15 20
-1.4808958768844604 1.5344445705413818 3.868149518966675 23 19 23
-0.9030518531799316 1.6835517883300781 4.220208644866943 23 21 26
-0.6211034059524536 1.2394349575042725 4.3173828125 73 69 71
-1.4092671871185303 1.520384430885315 3.9262397289276123 27 23 28
-0.3141002655029297 0.4556923508644104 4.357581615447998 93 86 92
-0.9717979431152344 -1.4374943971633911 3.7369418144226074 109 112 117
-0.9462358951568604 -0.5916217565536499 3.8752310276031494 21 22 30
-1.3388240337371826 -0.5558465719223022 3.6336705684661865 60 65 71
-0.9462283849716187 -0.5916212797164917 3.875216484069824 21 22 30
-0.22345802187919617 0.5559388399124146 4.422910213470459 146 138 139
-1.40556800365448 1.3445240259170532 3.8817241191864014 36 34 40
-1.4086790084838867 1.328926682472229 3.8850176334381104 28 26 32
-0.6234479546546936 0.8680208325386047 4.251113414764404 141 143 174
-1.40868079662323 1.3289389610290527 3.8850340843200684 28 26 32
-0.6687114834785461 -1.3820836544036865 3.869819402694702 29 31 46
1.1537765264511108 0.6308579444885254 3.112123489379883 141 137 134
-1.2363612651824951 -0.5491108298301697 3.7266273498535156 38 40 44
-0.7022265195846558 -0.5917741656303406 3.990187168121338 97 100 109
-1.2348593473434448 -0.5438416004180908 3.758168935775757 42 44 47
-0.15014567971229553 0.6079781651496887 4.486276149749756 83 78 79
-0.9682981967926025 -1.021074652671814 3.778923511505127 66 69 73
-1.4375414848327637 1.1268807649612427 3.8876352310180664 23 21 22
-0.9527873396873474 -0.34763941168785095 3.9036929607391357 135 137 147
-0.42374175786972046 -1.0414464473724365 4.058238506317139 135 136 151
-0.6544392108917236 0.955388069152832 4.236812591552734 41 47 63
-0.9234023690223694 -0.355359822511673 3.905117988586426 28 28 37
1.330837607383728 0.688056468963623 2.8258466720581055 46 46 46
-0.6018735766410828 1.042790174484253 4.284032344818115 9 9 15
-0.13068555295467377 0.512731671333313 4.452781677246094 42 33 37
-0.9233843684196472 -0.3553631901741028 3.905083417892456 28 28 37
0.9038195013999939 0.7625488638877869 3.2291269302368164 176 168 161
-0.22919076681137085 0.710618793964386 4.415069580078125 86 79 75
-1.1580331325531006 1.1327497959136963 4.020564556121826 47 46 50
-1.4210972785949707 0.917245626449585 3.8147354125976562 23 22 28
-1.5111795663833618 1.1424363851547241 3.812370538711548 77 74 76
-0.4430534541606903 -1.9100115299224854 3.920170307159424 90 93 99
-0.6055046916007996 0.8411077260971069 4.222993850708008 156 155 173
-0.6782597899436951 -0.40636640787124634 4.033915996551514 103 104 112
-1.4374443292617798 1.1268036365509033 3.887483596801758 23 21 22
-0.9147344827651978 0.4845012426376343 4.0365519523620605 8 8 18
-0.621099591255188 1.2394304275512695 4.3173675537109375 73 69 71
-1.4111974239349365 0.7110193371772766 3.807501792907715 10 10 14
-0.6648192405700684 0.02700500749051571 4.00311803817749 63 63 76
-0.6812853217124939 0.4295165538787842 4.184323310852051 27 28 35
-1.5174912214279175 0.7365494966506958 3.7354328632354736 22 23 24
-1.2366442680358887 -0.7803925275802612 3.6832289695739746 82 84 90
-0.1783926784992218 -1.2756494283676147 4.186251163482666 24 20 18
-0.6984416246414185 -0.40885862708091736 4.030244827270508 57 57 64
-1.4308433532714844 0.9413473606109619 3.8259756565093994 18 18 21
-0.4043463468551636 0.42072126269340515 4.279008865356445 82 81 90
-1.5222102403640747 0.518123209476471 3.7141385078430176 23 24 28
1.1456433534622192 0.6264305710792542 3.090156078338623 101 97 94
-0.9303778409957886 0.254086434841156 3.99381422996521 65 65 74
-0.6360985636711121 0.8609107732772827 4.236926555633545 16 19 37
-1.196901559829712 0.30044713616371155 3.861403703689575 31 30 38
-1.2071278095245361 0.30078932642936707 3.8529856204986572 140 140 148
-1.1842950582504272 0.29601752758026123 3.8626935482025146 139 139 145
-1.4209952354431152 1.3559988737106323 3.9052071571350098 87 85 91
-0.4080423414707184 0.5962312817573547 4.340232849121094 129 129 140
-0.6709595918655396 0.24738521873950958 4.127298831939697 143 145 164
-1.1939581632614136 -0.12147334963083267 3.7705078125 88 89 96
-1.4299556016921997 0.9259921908378601 3.790670394897461 132 132 135
-1.440950632095337 -0.12314853817224503 3.668179750442505 42 42 47
-1.4116026163101196 1.7509262561798096 3.947390556335449 19 18 20
-1.4533138275146484 0.3006371557712555 3.7226531505584717 21 21 26
-1.1704288721084595 0.7064880132675171 3.9341654777526855 14 13 17
-1.5059114694595337 1.560469388961792 3.864799976348877 140 136 140
-0.8864739537239075 1.652777910232544 4.142841339111328 60 58 63
-0.42950889468193054 0.18991106748580933 4.267729759216309 96 96 103
-1.4808084964752197 1.534367322921753 3.8679330348968506 23 19 23
-0.9030367732048035 1.6835362911224365 4.220176696777344 23 21 26
-1.174315094947815 0.6898990869522095 3.951215982437134 26 25 33
-1.4072612524032593 1.5277107954025269 3.9043469429016113 53 49 54
-1.409272313117981 1.5203908681869507 3.926255941390991 27 23 28
-0.42781296372413635 -1.879416823387146 3.901379108428955 124 126 132
-0.9498278498649597 0.06376027315855026 3.9364986419677734 173 175 182
-1.4374966621398926 1.126845359802246 3.8875648975372314 23 21 22
-1.2095386981964111 0.06736564636230469 3.8256216049194336 78 79 83
-0.8732684850692749 1.465283989906311 4.2106218338012695 16 16 20
-1.2095909118652344 0.0673740953207016 3.8257110118865967 78 79 83
-1.182863473892212 0.8926956057548523 4.003237724304199 62 61 67
-0.5763423442840576 0.770191490650177 4.243032932281494 133 130 155
-0.9339752197265625 -0.14810162782669067 3.925994396209717 42 41 49
-0.929623544216156 -0.15381059050559998 3.9447665214538574 98 98 105
-1.2232515811920166 -1.1793333292007446 3.61903977394104 74 78 82
-0.2015019804239273 -0.2074693739414215 4.317672252655029 108 110 121
-0.40880581736564636 -0.200320765376091 4.203670978546143 90 94 100
-0.6688770055770874 -1.3743964433670044 3.8746089935302734 106 108 123
-0.7169322371482849 -1.0095840692520142 3.9337735176086426 52 54 61
-0.4383748769760132 -1.9281041622161865 3.9185383319854736 116 116 121
-1.4287272691726685 -0.3085644841194153 3.604315996170044 75 75 80
-0.7192769646644592 -0.9940125942230225 3.978360891342163 56 59 67
-0.6749746799468994 -0.3787664771080017 4.029831886291504 45 47 56
-0.5133781433105469 -2.0674612522125244 3.857866048812866 137 139 141
-0.19235683977603912 -1.0401825904846191 4.195662975311279 29 30 41
-0.450255811214447 -2.0526504516601562 3.9052670001983643 37 35 35
-0.9780977368354797 -1.8268581628799438 3.6450746059417725 82 84 92
-0.7228705286979675 0.43435442447662354 4.107448577880859 107 111 132
-0.2683511972427368 0.473410040140152 4.386451244354248 68 58 55
1.2133283615112305 0.8350769877433777 2.855245351791382 43 33 24
1.0040239095687866 0.625597357749939 3.3026628494262695 161 151 152
-0.9409417510032654 -0.5742835998535156 3.8826611042022705 99 102 110
-0.5451880693435669 0.6347565650939941 4.240283012390137 176 176 197
-0.22345896065235138 0.5559399724006653 4.422914505004883 146 138 139
-1.440938949584961 1.7451941967010498 3.9258594512939453 105 106 110
-1.2939709424972534 0.6952868103981018 3.851175308227539 26 26 33
-1.17157781124115 0.3147417902946472 3.864403486251831 196 197 204
-0.981476902961731 -1.0265734195709229 3.802706718444824 67 70 75
-0.6979362368583679 -0.8221660852432251 3.9500551223754883 11 13 23
-0.41227829456329346 0.6251363754272461 4.329370498657227 159 159 180
-0.31410107016563416 0.45569244027137756 4.357585906982422 93 86 92
-1.2178456783294678 -1.1953935623168945 3.5796749591827393 90 93 100
-0.31410059332847595 0.4556949734687805 4.357583522796631 93 86 92
-0.42295756936073303 0.42131760716438293 4.254657745361328 74 75 85
-0.2789514660835266 0.4515364170074463 4.374595642089844 123 114 115
-1.3388216495513916 -0.555845320224762 3.6336638927459717 60 65 71
-0.40570852160453796 0.46920064091682434 4.309005260467529 90 88 98
-0.5133840441703796 -2.067470073699951 3.8578810691833496 137 139 141
-0.6211043000221252 1.2394366264343262 4.317388534545898 73 69 71
-0.6544309854507446 0.9553824067115784 4.236792087554932 41 47 63
-0.4456314146518707 -1.2226957082748413 4.028506755828857 82 83 100
-1.4581547975540161 -0.31005042791366577 3.6442818641662598 65 66 71
-0.1821102797985077 -0.0222631748765707 4.369968414306641 111 110 120
-1.3387929201126099 0.0733407586812973 3.7386655807495117 28 30 38
-0.861391007900238 1.281213402748108 4.195409297943115 111 112 116
-0.42878490686416626 -0.37641623616218567 4.168350696563721 51 53 62
-0.3750990629196167 0.5360521674156189 4.305645942687988 109 105 117
0.8790774941444397 0.7439811825752258 3.1923675537109375 145 137 130
-1.2332134246826172 -0.7809147834777832 3.677931070327759 83 85 92
0.9623263478279114 0.7181355953216553 3.2622296810150146 146 129 118
-1.2024922370910645 -0.12169267982244492 3.784085750579834 81 82 89
-1.522215485572815 0.5181223750114441 3.7141449451446533 23 24 28
-0.9686185121536255 -1.6085165739059448 3.6941616535186768 53 56 61
-0.9366489052772522 -0.17775726318359375 3.9395759105682373 31 30 39
-0.6538263559341431 0.2712975740432739 4.128346920013428 168 172 191
-1.2053779363632202 0.2981105446815491 3.84273099899292 160 161 168
-0.6541046500205994 0.6514248847961426 4.233160018920898 90 90 103
-1.193759560585022 0.2989102602005005 3.855372905731201 7 7 14
-1.4170022010803223 0.7018553018569946 3.784273862838745 12 13 17
-1.1742291450500488 0.6898379325866699 3.9509198665618896 26 25 33
-0.4065840244293213 0.5938464999198914 4.341036319732666 115 113 124
-0.949582040309906 -1.0224701166152954 3.794508218765259 84 87 92
-0.3974702060222626 0.9932453036308289 4.370065212249756 103 99 98
-0.4043461084365845 0.4207213819026947 4.27900505065918 82 81 90
-0.4262392818927765 0.1850617229938507 4.244725227355957 106 106 112
-1.4347808361053467 0.9434362053871155 3.8317580223083496 18 18 21
-0.6055816411972046 0.841343104839325 4.223719120025635 156 155 173
-0.950955331325531 0.06446186453104019 3.926514148712158 175 177 184
-1.4216089248657227 0.5315181612968445 3.757042646408081 14 15 20
-0.7022988200187683 -0.5760940909385681 3.9899356365203857 10 11 19
-0.9109203815460205 0.4825196862220764 4.0328049659729 6 6 15
-1.453302025794983 0.3006410598754883 3.72263765335083 21 21 26
-1.421100378036499 0.9172468185424805 3.8147404193878174 23 22 28
-0.7085159420967102 -1.8477888107299805 3.832806348800659 60 60 67
-1.5013976097106934 1.5556944608688354 3.8581321239471436 150 146 150
-1.4092822074890137 1.5204013586044312 3.92627215385437 27 23 28
-1.4091477394104004 1.5202383995056152 3.925868272781372 27 23 28
-1.3877753019332886 1.5016212463378906 3.9200174808502197 96 92 99
-0.8732678294181824 1.4652842283248901 4.210624694824219 16 16 20
-0.6371023058891296 1.454557180404663 4.31755256652832 98 98 102
-1.1786251068115234 0.7106097340583801 3.944235324859619 59 59 63
-1.2052454948425293 0.4710064232349396 3.874361515045166 120 120 126
-1.510482907295227 1.1421722173690796 3.8114354610443115 77 74 76
-1.4374616146087646 1.126818060874939 3.887514114379883 23 21 22
-0.621099591255188 1.2394304275512695 4.3173675537109375 73 69 71
-1.4375044107437134 1.1268548965454102 3.887589693069458 23 21 22
-0.19767579436302185 -1.2760522365570068 4.1380839347839355 96 92 92
-0.6238378882408142 1.2154433727264404 4.302449703216553 117 113 114
-0.1784282922744751 -1.2757046222686768 4.186381816864014 28 24 22
-0.9457002282142639 0.23627686500549316 3.9492886066436768 137 138 148
1.2085908651351929 0.6013365983963013 3.30637526512146 75 73 71
-0.42374497652053833 -1.0414470434188843 4.058243274688721 135 136 151
-0.7186403870582581 -0.9921209216117859 3.974700689315796 54 57 64
-0.9902493357658386 -2.0457615852355957 3.6493186950683594 81 81 88
-0.2458467334508896 0.5545024871826172 4.401008605957031 49 39 39
0.897856593132019 -0.7132660746574402 3.014582395553589 157 147 142
-0.9409428834915161 -0.5742862224578857 3.882662773132324 99 102 110
-1.236376404762268 -0.5491179823875427 3.7266464233398438 38 40 44
-0.19797495007514954 0.6098341941833496 4.488571643829346 62 57 58
0.7453688979148865 -0.658523440361023 2.927028179168701 166 160 152
-1.16526460647583 0.31250807642936707 3.8464856147766113 151 152 158
-0.7114777565002441 -0.4076068699359894 3.9809834957122803 85 87 96
-0.9792826175689697 -1.6175134181976318 3.6692678928375244 36 38 46
-1.2366570234298706 -0.359078586101532 3.7856807708740234 26 26 34
-0.6749851703643799 -0.37876296043395996 4.029857158660889 45 47 56
-0.3141211271286011 0.4556906223297119 4.357646465301514 93 86 92
-0.6698206067085266 -1.6206412315368652 3.777489185333252 86 86 101
-0.40250837802886963 -0.20035122334957123 4.178300857543945 95 98 105
-0.43482843041419983 -0.21395502984523773 4.160439491271973 103 105 114
-0.6838569641113281 0.646083652973175 4.182995796203613 13 11 21
-0.9488484859466553 -0.34648123383522034 3.896334648132324 122 124 134
-0.1775960922241211 0.1963079422712326 4.381008148193359 154 153 166
-0.9699287414550781 -1.437023639678955 3.733691930770874 105 107 112
-0.7030421495437622 -0.9898006916046143 3.8575427532196045 71 74 79
-0.6211072206497192 1.2394342422485352 4.317390441894531 73 69 71
-0.7169348001480103 -1.0095701217651367 3.933778762817383 52 54 61
-1.2185207605361938 -1.1950106620788574 3.5763936042785645 96 100 106
-0.6776125431060791 0.8271700143814087 4.2073140144348145 73 72 79
-0.42582935094833374 0.5818266272544861 4.297929763793945 93 94 106
-1.2232478857040405 -1.1793307065963745 3.619032621383667 74 78 82
-0.6917486190795898 0.45064443349838257 4.153428554534912 131 135 143
-1.1506564617156982 0.7411695718765259 3.939271926879883 70 68 76
-0.9845575094223022 -1.0297468900680542 3.8113203048706055 76 78 85
-0.18031656742095947 -1.4444845914840698 4.135169982910156 44 40 41
0.9488108158111572 0.7368121147155762 3.321195125579834 102 83 74
-0.9294947981834412 -0.1539943963289261 3.947963237762451 96 97 104
-0.2440931349992752 0.4433564841747284 4.3668742179870605 106 96 94
-0.19235675036907196 -1.040179967880249 4.195663928985596 29 30 41
-0.9060801863670349 -1.2480261325836182 3.760187864303589 177 178 191
-0.6794814467430115 -1.237252950668335 3.8951427936553955 48 51 59
-0.44254156947135925 -1.197749137878418 4.027587413787842 35 37 57
1.0554498434066772 0.5960679650306702 3.2349917888641357 177 173 168
-1.1817532777786255 0.7134520411491394 3.9500491619110107 50 50 54
-0.6726905107498169 0.2657437324523926 4.126736164093018 12 14 32
-0.6524820327758789 0.27216672897338867 4.125570297241211 172 177 196
-1.2066786289215088 0.30099397897720337 3.8455209732055664 145 146 153
-1.2012914419174194 0.3028554320335388 3.8683338165283203 15 15 23
-0.9156354069709778 0.6587700843811035 4.0722198486328125 18 19 28
-1.235237956047058 -0.7793326377868652 3.6545636653900146 99 101 108
-0.7265000343322754 -0.8337240815162659 3.9462289810180664 110 112 122
-1.1765015125274658 0.31749066710472107 3.870321750640869 183 184 191
-1.2044451236724854 -0.7608217000961304 3.687152147293091 82 83 90
-0.45027393102645874 -2.0527353286743164 3.9053335189819336 37 35 35
-0.4035303592681885 0.5842920541763306 4.319096565246582 154 152 164
-0.4306519031524658 0.5841496586799622 4.312249183654785 90 91 104
-1.2109540700912476 0.4749400317668915 3.8799643516540527 124 122 130
-0.404366135597229 0.4207288324832916 4.2790751457214355 82 81 90
-0.4045162498950958 0.4207969903945923 4.279534339904785 82 81 90
-1.2283565998077393 -1.8029916286468506 3.5078213214874268 21 21 24
-0.9274267554283142 0.4793260991573334 4.013879776000977 155 156 166
-0.26799869537353516 0.4339663088321686 4.203236103057861 107 99 101
-0.4431037902832031 -1.9331413507461548 3.9302616119384766 128 129 134
-0.9595583081245422 -0.6196811199188232 3.8819658756256104 37 39 47
-0.4363122284412384 -1.8905340433120728 3.924037456512451 110 113 119
-0.684644341468811 -1.8139662742614746 3.78322434425354 88 87 95
-1.424052119255066 1.7503477334976196 3.9317023754119873 94 94 98
-1.5089503526687622 1.5642266273498535 3.8699519634246826 133 129 133
-1.4091140031814575 1.5201998949050903 3.9257917404174805 27 23 28
-1.4091248512268066 1.5202126502990723 3.9258229732513428 27 23 28
-1.3898853063583374 1.4918187856674194 3.9066436290740967 98 95 101
-0.6902608275413513 -0.5814595818519592 3.922248363494873 114 117 126
-0.6829606890678406 -0.5849593877792358 3.9904675483703613 113 115 125
-1.220717430114746 -1.620736002922058 3.5276448726654053 62 61 70
-1.2011607885360718 -0.5329678058624268 3.713775873184204 103 106 110
-0.70302414894104 -0.5731064081192017 3.9941351413726807 10 10 18
-0.1695791333913803 -1.8530503511428833 4.071282863616943 60 59 63
-0.9792665243148804 -1.6174989938735962 3.6692373752593994 36 38 46
-0.9686195254325867 -1.6085151433944702 3.694162130355835 53 56 61
-1.4169427156448364 1.3303897380828857 3.8598580360412598 145 141 148
-0.8725463151931763 1.4372669458389282 4.216887474060059 89 89 95
-1.4086689949035645 1.328918695449829 3.8850014209747314 28 26 32
-0.644370436668396 1.465240716934204 4.338013172149658 87 87 91
-1.147562026977539 1.2770586013793945 4.032102584838867 15 15 19
-0.6983577013015747 -0.4096578359603882 4.029443740844727 46 45 54
-0.6211069822311401 1.2394345998764038 4.317389965057373 73 69 71
-0.6237735152244568 1.2118362188339233 4.300239562988281 115 110 112
-1.1478321552276611 1.1288630962371826 4.011592864990234 64 62 67
-1.425541639328003 0.9415890574455261 3.814199209213257 13 13 16
-0.9529790282249451 -0.34605303406715393 3.9043474197387695 122 124 134
-0.6398616433143616 1.0642976760864258 4.299343585968018 15 12 14
-0.6054588556289673 1.0302679538726807 4.311615467071533 85 90 103
0.8954994678497314 0.7817896604537964 3.3107945919036865 134 126 120
-0.3916555643081665 0.985762894153595 4.35037088394165 89 84 83
-0.9366405010223389 -0.17776191234588623 3.9395570755004883 31 30 39
0.9031439423561096 0.6936513185501099 3.2464797496795654 61 51 53
0.9005745053291321 0.7035367488861084 3.3031654357910156 107 102 108
0.9155953526496887 0.7011678814888 3.295166254043579 102 92 95
-1.2232472896575928 -1.179330587387085 3.6190319061279297 74 78 82
0.9539863467216492 0.6673542857170105 3.2848448753356934 130 113 107
-0.6799735426902771 -1.256687879562378 3.8983991146087646 92 94 104
-0.7098575234413147 0.010074412450194359 4.070188045501709 119 119 132
-0.7096757888793945 0.029743418097496033 4.106978893280029 61 61 74
-0.21166832745075226 -1.2676986455917358 4.130495548248291 25 24 26
-1.2055041790008545 0.04692935571074486 3.8229591846466064 108 110 118
-0.6055816411972046 0.841343104839325 4.223719120025635 156 155 173
-0.17844033241271973 -1.275724172592163 4.186425685882568 28 24 22
-1.1938401460647583 0.052754294127225876 3.825105667114258 123 125 133
-1.2243926525115967 0.07732962816953659 3.823676347732544 80 81 85
