ply
format ascii 1.0
element vertex 728
property float x
property float y
property float z
property uchar red
property uchar green
property uchar blue
end_header
-0.801378071308136 0.963553249835968 5.035608291625977 51 50 63
-0.7985531687736511 1.2882531881332397 5.0131001472473145 43 43 55
-0.7984333038330078 1.1505337953567505 5.0264201164245605 44 43 58
-0.75975102186203 -0.666779100894928 4.835266590118408 41 39 47
-0.7722964286804199 -0.8679418563842773 4.874236106872559 21 20 28
-0.7840938568115234 0.8408398032188416 5.01950740814209 56 54 63
-0.7618919610977173 -0.69342041015625 4.893153667449951 107 105 113
-0.7710614204406738 0.27423641085624695 4.965147018432617 69 75 91
-0.791743814945221 1.5845930576324463 5.10774040222168 46 44 57
-0.791743814945221 1.5845930576324463 5.10774040222168 46 44 57
-0.797024130821228 -0.6945774555206299 5.068817138671875 82 80 88
-0.7570375800132751 -1.3101887702941895 4.915753364562988 103 102 108
-0.7843550443649292 1.8274526596069336 5.0902628898620605 69 65 70
-0.7545768022537231 -1.3114746809005737 4.910560131072998 102 101 108
-0.7536910176277161 -1.123958706855774 4.904128551483154 33 32 37
-0.7865115404129028 2.6792380809783936 5.16480016708374 54 54 62
-0.7328777313232422 -2.0239412784576416 4.828834533691406 64 62 65
-0.7256574034690857 0.5855071544647217 4.912546157836914 15 14 21
-0.7286148071289062 -1.1185269355773926 4.9170098304748535 18 17 22
-0.7286148071289062 -1.1185269355773926 4.9170098304748535 18 17 22
-0.7198983430862427 -1.3828493356704712 4.8802056312561035 71 71 76
-0.7099584937095642 -1.2822647094726562 4.84719705581665 69 67 74
-0.7529229521751404 2.6692512035369873 5.178344249725342 57 54 62
-0.7051051259040833 -0.7859416007995605 4.870797634124756 60 58 71
-0.7052863836288452 -1.4261754751205444 4.881463527679443 61 60 67
-0.6581621170043945 -2.5195436477661133 4.677035808563232 24 22 25
-0.7006092667579651 -1.8215546607971191 4.848770618438721 51 52 57
-0.6999503374099731 -1.1237006187438965 4.877569198608398 79 77 83
-0.7168228626251221 0.41733863949775696 5.0058183670043945 56 54 65
-0.7122048139572144 -0.05670488253235817 5.019885063171387 61 59 74
-0.7014479637145996 -0.18391701579093933 4.951493263244629 58 55 66
-0.7014479637145996 -0.18391701579093933 4.951493263244629 58 55 66
-0.6906630396842957 0.08803310990333557 5.0279364585876465 49 47 57
-0.7039293646812439 2.333120822906494 5.149598121643066 41 38 52
-0.7027570605278015 1.8199803829193115 5.2131829261779785 51 47 55
-0.698276162147522 2.322185754776001 5.203547954559326 44 42 54
-0.6723607778549194 0.4315840005874634 5.057046413421631 90 91 103
-0.6723607778549194 0.4315840005874634 5.057046413421631 90 91 103
-0.6723607778549194 0.4315840005874634 5.057046413421631 90 91 103
-0.6705297827720642 0.659641683101654 5.093853950500488 43 44 64
-0.6705297827720642 0.659641683101654 5.093853950500488 43 44 64
-0.6456436514854431 -1.421095848083496 4.915423393249512 62 64 75
-0.650016188621521 0.0391407236456871 5.058393955230713 50 47 59
-0.6447895169258118 0.06359096616506577 5.0383477210998535 46 44 55
-0.6719127297401428 2.2980055809020996 5.264682769775391 5 3 10
-0.6719127297401428 2.2980055809020996 5.264682769775391 5 3 10
-0.6364352703094482 -1.6115138530731201 4.986133098602295 66 64 72
-0.6277258396148682 -0.9030274152755737 4.976959228515625 74 72 83
-0.6261746287345886 -0.9029760956764221 4.972166061401367 74 72 83
-0.6380012035369873 1.027846336364746 5.155367851257324 54 51 58
-0.6284906268119812 0.41741475462913513 5.093603134155273 50 50 61
-0.6379870176315308 1.4515897035598755 5.1930317878723145 14 13 20
-0.6203905940055847 -0.20047765970230103 5.063941478729248 64 62 72
-0.6380017399787903 2.5475947856903076 5.283703804016113 44 43 54
-0.6248164176940918 1.2850102186203003 5.199240684509277 41 40 54
-0.6192450523376465 0.8145638704299927 5.212144374847412 33 31 37
-0.6227818131446838 1.0645606517791748 5.157322406768799 61 59 66
-0.6236302256584167 1.137076735496521 5.165529251098633 46 45 55
-0.6110467910766602 0.4953177273273468 5.130251407623291 51 48 64
-0.6222192645072937 2.72436785697937 5.299548625946045 69 67 72
-0.6141632199287415 1.5854443311691284 5.2487406730651855 51 48 59
-0.5760806798934937 -1.5109095573425293 4.965606212615967 84 87 98
-0.6147772073745728 2.745710611343384 5.326500415802002 16 14 21
-0.6083431839942932 2.7069010734558105 5.310853958129883 11 7 14
-0.6083431839942932 2.7069010734558105 5.310853958129883 11 7 14
-0.5634678602218628 -2.577674150466919 4.934899806976318 47 48 53
-0.5896618366241455 0.8663471937179565 5.167386531829834 43 41 54
-0.5684478282928467 -1.461126685142517 5.003913879394531 74 77 90
-0.5738707780838013 -1.2396830320358276 5.061110496520996 67 65 76
-0.5879909992218018 0.7117605805397034 5.191648006439209 46 44 53
-0.5672222971916199 -0.9141426682472229 5.066245079040527 63 62 70
-0.5619404315948486 -0.4867304563522339 5.096538066864014 19 16 24
-0.5686215162277222 0.37516435980796814 5.181885242462158 11 9 16
-0.5890395045280457 -0.17634136974811554 5.215963363647461 50 48 56
-0.5494838356971741 -0.4775277376174927 5.104302406311035 112 109 117
-0.5494838356971741 -0.4775277376174927 5.104302406311035 112 109 117
-0.5522447824478149 -0.07894391566514969 5.136752128601074 55 54 60
-0.5711181163787842 2.092533826828003 5.322848796844482 45 43 52
-0.5537488460540771 0.16841016709804535 5.1636457443237305 13 10 17
-0.5543603897094727 -0.45762646198272705 5.129302501678467 13 11 17
-0.5233299732208252 -0.8910310864448547 5.080428600311279 21 19 27
-0.513654351234436 -1.9804110527038574 4.998758316040039 22 21 25
-0.5296156406402588 0.7734253406524658 5.175320625305176 49 46 54
-0.5480251908302307 2.6624057292938232 5.383659839630127 60 58 69
-0.5166693329811096 -0.9975236654281616 5.064626693725586 51 50 58
-0.5470194220542908 2.6612157821655273 5.380817413330078 62 60 72
-0.5032252669334412 -1.5732327699661255 5.0248494148254395 68 67 75
-0.4910458028316498 -1.5219882726669312 5.067654132843018 56 55 62
-0.5037340521812439 0.8281173706054688 5.244212627410889 80 79 87
-0.5053657293319702 1.1607599258422852 5.304959297180176 44 41 52
-0.5080106258392334 2.515307664871216 5.354712009429932 47 46 58
-0.507615864276886 2.592655897140503 5.403040885925293 69 67 80
-0.5155453681945801 1.7349579334259033 5.541866779327393 58 59 66
-0.4789380431175232 -0.02848757430911064 5.15216588973999 51 51 56
-0.5002990961074829 0.5928691625595093 5.240974426269531 5 4 11
-0.5002275109291077 0.5928261876106262 5.240677833557129 5 4 11
-0.4815550148487091 0.22296036779880524 5.230686187744141 88 87 99
-0.47615548968315125 1.4640507698059082 5.357420921325684 54 53 63
-0.45712852478027344 -0.29530125856399536 5.173060417175293 48 46 56
-0.4598968029022217 -0.26677143573760986 5.211690425872803 69 67 76
-0.4580467641353607 -0.2655107378959656 5.203730583190918 62 60 69
-0.46262457966804504 0.11234123259782791 5.265423774719238 44 41 53
-0.4713534116744995 2.492464780807495 5.439733505249023 13 11 18
-0.4629378616809845 0.9883329272270203 5.316873550415039 62 60 70
-0.42755842208862305 -2.5764529705047607 5.018406867980957 18 15 18
-0.45094946026802063 0.4837988615036011 5.294004917144775 47 45 63
-0.46563175320625305 2.5267481803894043 5.436031818389893 26 26 34
-0.4247126281261444 2.2070209980010986 5.317929267883301 78 76 83
-0.4340128004550934 0.6531078219413757 5.391335964202881 45 43 53
-0.4347408413887024 2.229804515838623 5.449103832244873 90 89 96
-0.4320099651813507 1.6494218111038208 5.441289901733398 11 11 16
-0.4298678934574127 2.648627996444702 5.414210796356201 20 17 22
-0.41611573100090027 0.22505247592926025 5.311579704284668 41 38 48
-0.41787680983543396 2.2774574756622314 5.487884044647217 98 95 102
-0.4053765535354614 1.0190224647521973 5.436428546905518 91 89 96
-0.36537063121795654 -2.572943687438965 5.0945210456848145 25 22 25
-0.3904595673084259 -0.212035670876503 5.275066375732422 51 50 61
-0.40535643696784973 0.945548415184021 5.395920276641846 46 44 51
-0.34775397181510925 -2.7412614822387695 5.016683101654053 41 40 45
-0.36748063564300537 0.8240039944648743 5.351490497589111 48 47 54
-0.36099258065223694 -0.26888206601142883 5.29280948638916 55 54 62
-0.3620154857635498 0.6131589412689209 5.364411354064941 45 44 54
-0.36663180589675903 2.4198081493377686 5.571998596191406 38 36 50
-0.36663180589675903 2.4198081493377686 5.571998596191406 38 36 50
-0.3547416925430298 1.2889745235443115 5.447991847991943 42 40 48
-0.34032973647117615 -0.6891008019447327 5.286945819854736 19 16 24
-0.32876795530319214 -0.2793639302253723 5.310150146484375 87 85 93
-0.330047070980072 0.27949434518814087 5.358345031738281 49 46 54
-0.3249383270740509 -0.8495199680328369 5.268566608428955 19 18 26
-0.2952212691307068 -1.8435444831848145 5.0801472663879395 47 46 57
-0.3282206356525421 1.2975668907165527 5.454614639282227 45 43 53
-0.3277744948863983 2.497134208679199 5.532275676727295 49 50 63
-0.32276543974876404 2.6261651515960693 5.53175163269043 44 42 53
-0.30626505613327026 -1.5667212009429932 5.27380895614624 16 14 21
-0.3143383264541626 3.190328359603882 5.641244411468506 62 57 56
-0.2945846617221832 -0.8122497797012329 5.308845043182373 53 51 60
-0.3014073967933655 2.6930441856384277 5.592802047729492 15 13 20
-0.2817261517047882 0.24888531863689423 5.335886478424072 56 54 63
-0.29698407649993896 3.1857550144195557 5.62960147857666 32 26 25
-0.2818918824195862 1.0330990552902222 5.439847469329834 48 49 59
-0.27549928426742554 -0.6996240615844727 5.326594829559326 69 67 76
-0.27907609939575195 1.3543533086776733 5.47776985168457 50 49 60
-0.28381040692329407 2.540130615234375 5.620569705963135 45 44 57
-0.27307894825935364 -2.8090827465057373 5.164979457855225 33 33 38
-0.25473639369010925 1.6936249732971191 5.487586498260498 52 51 62
-0.23920010030269623 -1.377334713935852 5.31355094909668 56 55 64
-0.23597580194473267 2.2577438354492188 5.620450973510742 11 9 15
-0.22224347293376923 1.8419917821884155 5.610984802246094 11 9 15
-0.21546205878257751 0.6157813668251038 5.4533843994140625 51 49 58
-0.22702272236347198 2.808840036392212 5.733889579772949 38 34 41
-0.21328599750995636 -0.29876458644866943 5.414559364318848 50 48 61
-0.23065002262592316 2.521085023880005 5.781371593475342 21 19 25
-0.1984163075685501 0.47170597314834595 5.27696418762207 43 42 54
-0.1984163075685501 0.47170597314834595 5.27696418762207 43 42 54
-0.20545989274978638 1.4237691164016724 5.5731000900268555 8 5 12
-0.2054838091135025 1.4238449335098267 5.573464870452881 8 5 12
-0.18950852751731873 -1.9885716438293457 5.313756942749023 16 14 19
-0.18610061705112457 -0.4551691710948944 5.383901119232178 17 17 25
-0.18885362148284912 -1.9870615005493164 5.31011438369751 16 14 20
-0.1958887279033661 1.8854609727859497 5.632436275482178 58 56 64
-0.19368192553520203 -1.115756869316101 5.414876937866211 54 53 59
-0.17795611917972565 0.7720749974250793 5.43818998336792 49 47 54
-0.16793400049209595 2.3123881816864014 5.644420146942139 46 44 52
-0.1373312920331955 -2.8058273792266846 5.275233268737793 24 21 26
-0.15349902212619781 0.5490761995315552 5.557374477386475 54 53 63
-0.16201664507389069 -0.324611097574234 5.49796724319458 60 58 69
-0.14593851566314697 -0.0485137440264225 5.535536766052246 41 38 46
-0.15041017532348633 0.19830422103405 5.534790992736816 9 7 13
-0.15030261874198914 3.12627911567688 5.753631591796875 71 65 66
-0.14474309980869293 2.6826467514038086 5.748923301696777 14 12 19
-0.14461785554885864 3.080477714538574 5.790141582489014 62 58 63
-0.1305861920118332 0.6822475790977478 5.581655025482178 48 46 55
-0.12795709073543549 2.3609254360198975 5.79470157623291 43 43 51
-0.11902911961078644 -2.859675645828247 5.2940239906311035 42 41 48
-0.11808058619499207 -2.579590082168579 5.286176681518555 17 15 18
-0.11819061636924744 -0.42201006412506104 5.51808500289917 48 46 60
-0.11035377532243729 -0.914330244064331 5.4400434494018555 52 51 57
-0.09285768121480942 -1.0975608825683594 5.447383880615234 30 28 34
-0.07544305920600891 -1.7847247123718262 5.491093158721924 18 16 23
-0.07966052740812302 0.18717528879642487 5.596222877502441 62 60 67
-0.07246486842632294 -0.3767779469490051 5.525827407836914 58 55 69
-0.07833011448383331 2.300750255584717 5.755693435668945 44 44 52
-0.07379544526338577 0.35623225569725037 5.5482497215271 20 18 28
-0.07223238795995712 0.25779610872268677 5.618552207946777 42 39 49
-0.0646769255399704 -2.7409586906433105 5.277305603027344 35 32 38
-0.06579640507698059 -1.0735247135162354 5.460844993591309 44 42 50
-0.06483442336320877 -1.389833688735962 5.444827079772949 65 65 73
-0.0654328241944313 -1.3270533084869385 5.494678974151611 58 58 62
-0.07543732970952988 -1.7846812009811401 5.49090051651001 18 16 23
-0.04731849208474159 -2.559422492980957 5.375669479370117 23 21 24
-0.06377139687538147 3.2233331203460693 5.748234272003174 101 94 93
-0.05321022868156433 -0.12493758648633957 5.558871746063232 39 38 50
-0.04098917543888092 2.4694197177886963 5.825671195983887 13 10 17
-0.04098917543888092 2.4694197177886963 5.825671195983887 13 10 17
-0.0076208231039345264 2.211284875869751 5.7507476806640625 71 70 76
-0.017545150592923164 -0.21059106290340424 5.526799201965332 53 50 60
-0.008738330565392971 1.8614535331726074 5.696342945098877 46 45 55
-0.0017766053788363934 0.03588233143091202 5.710316181182861 40 37 47
0.0034873662516474724 2.679326295852661 5.879660606384277 10 7 13
0.013956021517515182 1.6204760074615479 5.785941123962402 12 10 17
0.0173482745885849 1.8094112873077393 5.79961633682251 58 57 64
0.02061680145561695 2.2748513221740723 5.808645725250244 44 42 50
0.04049745947122574 0.9926760196685791 5.781714916229248 47 45 54
0.04783528670668602 1.394110918045044 5.755866050720215 87 84 92
0.04049171134829521 0.9926833510398865 5.7818193435668945 47 45 54
0.06823664158582687 2.7636077404022217 5.7892656326293945 47 43 52
0.04782476648688316 1.3941153287887573 5.755884170532227 87 84 92
0.0583326481282711 1.8338944911956787 5.6783623695373535 55 54 66
0.05719306692481041 -0.16916564106941223 5.608582019805908 40 39 52
0.056885868310928345 -1.3327116966247559 5.564877033233643 17 14 19
0.08144023269414902 0.14435596764087677 5.5442914962768555 11 9 16
0.06533099710941315 -0.037013743072748184 5.699467182159424 14 11 18
0.07409761101007462 1.2343577146530151 5.760182857513428 42 39 50
0.08188606798648834 -0.26250359416007996 5.83438777923584 19 17 23
0.087824247777462 1.5470103025436401 5.8288679122924805 42 41 56
0.09954367578029633 -1.9991552829742432 5.604506492614746 13 11 16
0.09297259896993637 3.204960823059082 5.778533935546875 53 48 49
0.10933709144592285 -0.6802819967269897 5.694509983062744 17 15 22
0.09430722892284393 -0.3056316077709198 5.698795795440674 101 98 106
0.09998477250337601 0.21591229736804962 5.749303817749023 30 28 36
0.11949097365140915 2.79823637008667 6.077499866485596 38 34 42
0.11949097365140915 2.79823637008667 6.077499866485596 38 34 42
0.11924691498279572 0.2457485944032669 5.734529972076416 41 39 47
0.13140030205249786 -1.1113272905349731 5.673680305480957 32 31 37
0.1484583020210266 3.1912055015563965 5.957276344299316 57 48 47
0.14428699016571045 0.18066810071468353 5.766343116760254 52 50 57
0.15039606392383575 -0.20046095550060272 5.7129902839660645 37 35 46
0.17049041390419006 2.5989458560943604 6.043398857116699 37 35 48
0.16339348256587982 0.9173912405967712 5.768606662750244 36 35 49
0.17519120872020721 2.324720859527588 6.028550148010254 45 43 52
0.17743831872940063 3.1053102016448975 5.964153289794922 33 24 25
0.18464773893356323 3.0179784297943115 6.11561393737793 48 45 51
0.184761181473732 1.9760398864746094 5.960905075073242 56 54 64
0.18852339684963226 0.7223634719848633 5.871116638183594 56 55 65
0.1650063842535019 -0.45515328645706177 5.733693599700928 47 47 54
0.18979153037071228 0.6428995132446289 5.868886947631836 42 41 51
0.18979153037071228 0.6428995132446289 5.868886947631836 42 41 51
0.20898133516311646 1.8221980333328247 6.004583358764648 11 9 16
0.20551425218582153 0.0041750832460820675 5.787185192108154 42 40 47
0.20625878870487213 0.00734168104827404 5.778905391693115 41 39 46
0.21702353656291962 0.23252397775650024 5.860864639282227 42 42 53
0.23390448093414307 1.1783086061477661 5.935705661773682 13 12 19
0.23994864523410797 1.4675928354263306 5.996861457824707 55 55 64
0.24359016120433807 1.8410049676895142 6.020792484283447 49 47 53
0.2375865876674652 0.5699398517608643 5.898308277130127 25 23 30
0.27679187059402466 1.867555856704712 5.9846062660217285 46 44 52
0.26856541633605957 3.225651502609253 6.029530048370361 58 53 52
0.29053229093551636 -0.01692507602274418 5.881059169769287 36 34 41
0.2743854224681854 -2.7002060413360596 5.900887489318848 19 16 22
0.2743854224681854 -2.7002060413360596 5.900887489318848 19 16 22
0.2939668893814087 -2.093872308731079 5.716940879821777 38 36 47
0.32932794094085693 2.538749933242798 6.237886428833008 42 40 53
0.3256707191467285 2.362464427947998 6.112737655639648 36 35 49
0.32683706283569336 3.348525285720825 6.541812419891357 44 37 37
0.32584813237190247 -0.21977610886096954 5.8599019050598145 45 43 50
0.3298587501049042 -0.9059153199195862 5.950952053070068 27 27 31
0.35263630747795105 1.359195351600647 6.222234725952148 38 37 48
0.34560734033584595 3.171566963195801 6.062538146972656 48 42 41
0.3469576835632324 1.0941697359085083 5.984637260437012 39 37 49
0.3488926589488983 3.187220811843872 6.008609771728516 46 42 41
0.3767293095588684 2.460064649581909 6.2219624519348145 6 5 14
0.35147005319595337 -1.1353615522384644 5.8248066902160645 57 57 63
0.38172248005867004 2.7510290145874023 6.30281400680542 35 31 38
0.3551414906978607 -1.3300557136535645 5.807648658752441 14 11 19
0.3874443471431732 0.2715874910354614 5.975053310394287 41 38 48
0.408425897359848 2.456514358520508 6.212870121002197 41 39 51
0.3868161737918854 -2.0117909908294678 5.814445495605469 37 35 41
0.4073587954044342 -0.5872476100921631 5.966026782989502 41 39 48
0.4073587954044342 -0.5872476100921631 5.966026782989502 41 39 48
0.42468053102493286 2.2417471408843994 6.274667739868164 92 89 97
0.42469149827957153 2.2417969703674316 6.274796962738037 92 89 97
0.41825440526008606 -0.5097398161888123 5.960606098175049 51 50 61
0.41273584961891174 -1.3557173013687134 5.863353729248047 43 42 49
0.4390684962272644 3.1924703121185303 6.0152153968811035 59 56 57
0.44530725479125977 0.3844108581542969 6.066986083984375 45 43 52
0.45171865820884705 0.24752649664878845 6.154038906097412 42 40 49
0.45403897762298584 -0.5925119519233704 6.040144443511963 38 37 48
0.48467275500297546 2.853646755218506 6.284114360809326 60 56 60
0.46664512157440186 3.1949985027313232 6.048535346984863 55 51 50
0.4653666615486145 -0.803234338760376 5.965710163116455 38 36 48
0.46989360451698303 0.964771032333374 6.1181416511535645 18 16 23
0.49209466576576233 1.6619564294815063 6.218853950500488 39 39 51
0.49209466576576233 1.6619564294815063 6.218853950500488 39 39 51
0.5028454661369324 0.5551294088363647 6.144196510314941 8 7 14
0.4966055452823639 0.34665393829345703 6.127406597137451 9 7 14
0.5040828585624695 0.14124707877635956 6.115082740783691 36 35 43
0.4980631470680237 -0.06622324883937836 5.919437408447266 11 8 16
0.5093732476234436 1.585999608039856 6.215869903564453 15 13 21
0.5108271241188049 2.3423306941986084 6.234543800354004 32 30 44
0.508648693561554 -0.5434779524803162 6.060211181640625 52 51 63
0.508648693561554 -0.5434779524803162 6.060211181640625 52 51 63
0.5204651355743408 0.813746988773346 6.156494140625 42 38 49
0.5492009520530701 2.7451653480529785 6.473214626312256 34 30 37
0.5234872102737427 0.5301694273948669 6.1388444900512695 40 41 48
0.5339561104774475 -0.6917083263397217 6.0625200271606445 22 21 27
0.536198616027832 -0.6521126627922058 6.119065761566162 52 52 60
0.53360515832901 -0.6323080062866211 6.080813884735107 66 66 74
0.5346044898033142 0.043913960456848145 6.08792781829834 37 35 47
0.544486403465271 0.5806678533554077 6.144845008850098 59 60 73
0.5243158936500549 3.191809892654419 5.879199028015137 59 55 56
0.5750609040260315 2.7320563793182373 6.387147426605225 40 36 43
0.6061280965805054 3.1600501537323 6.46408748626709 45 36 35
0.5564708709716797 -0.7248820066452026 6.3101582527160645 23 22 29
0.5551334619522095 -0.0008253399282693863 6.029266357421875 38 36 49
0.5959835052490234 2.4446818828582764 6.342010974884033 33 31 45
0.5491868853569031 3.224074602127075 5.818205833435059 76 69 69
0.5491868853569031 3.224074602127075 5.818205833435059 76 69 69
0.5955268740653992 -0.5406728982925415 6.273534297943115 47 46 54
0.5948475003242493 0.6282899975776672 6.204463481903076 38 37 51
0.5939887762069702 -0.5712432861328125 6.160781383514404 37 35 43
0.6116229891777039 3.00563645362854 6.433320999145508 30 25 27
0.5731328725814819 3.2163760662078857 5.7787275314331055 59 54 54
0.6183788776397705 0.25063809752464294 6.20562219619751 39 37 48
0.6484180092811584 1.8277301788330078 6.490022659301758 31 31 38
0.627271831035614 3.1946046352386475 6.171638488769531 62 57 58
0.6486773490905762 0.003192122094333172 6.174166679382324 36 34 47
0.6284907460212708 -2.5054514408111572 5.969541549682617 37 37 45
0.6805334687232971 2.734846830368042 6.380503177642822 34 31 37
0.6502203941345215 3.2337892055511475 6.117905139923096 109 106 107
0.6463328003883362 3.1693859100341797 6.029656887054443 89 86 87
0.707696259021759 3.132042407989502 6.5734734535217285 49 41 41
0.6686543822288513 -0.18545569479465485 6.210412979125977 61 60 72
0.6915640234947205 2.2324163913726807 6.319903373718262 37 35 49
0.7014261484146118 1.9123133420944214 6.32604455947876 47 45 53
0.6898505091667175 0.34011179208755493 6.152446746826172 3 2 8
0.7332763671875 3.10233211517334 6.491689682006836 35 27 26
0.6792659163475037 -1.623090147972107 5.987250804901123 32 31 41
0.7139186859130859 -1.822733998298645 6.228106498718262 37 34 42
0.7460073232650757 2.4617760181427 6.359775543212891 46 45 61
0.7720721364021301 2.649048328399658 6.603009223937988 12 11 19
0.7720721364021301 2.649048328399658 6.603009223937988 12 11 19
0.7563660144805908 0.9233052134513855 6.384914875030518 41 40 50
0.7542617321014404 0.6370094418525696 6.344395160675049 37 35 47
0.7733335494995117 -0.9133713245391846 6.278727054595947 9 7 13
0.7792572975158691 1.239518642425537 6.40028715133667 41 39 52
0.7958508133888245 2.725719928741455 6.2710700035095215 52 47 53
0.7725585699081421 -0.7326498031616211 6.27879524230957 53 53 63
0.7728201746940613 -0.7341365814208984 6.2817702293396 53 53 63
0.8036307692527771 2.985934257507324 6.5163493156433105 51 45 49
0.8119908571243286 2.4130520820617676 6.555279731750488 65 63 72
0.7799332141876221 -1.1265883445739746 6.302616596221924 51 49 55
0.8002888560295105 1.629125952720642 6.4522705078125 42 41 51
0.8243811726570129 2.560157299041748 6.571958541870117 37 36 45
0.811969518661499 2.4126312732696533 6.554200172424316 65 63 72
0.8381398320198059 2.144937038421631 6.530822277069092 51 50 58
0.7588670253753662 3.237187385559082 5.8379974365234375 61 56 55
0.7934650182723999 -1.738306999206543 6.080079078674316 17 15 22
0.8469119071960449 0.41515710949897766 6.455896854400635 34 32 44
0.8722960352897644 3.170687198638916 6.548969268798828 52 45 44
0.8741779923439026 1.1647433042526245 6.50757360458374 8 6 16
0.889045774936676 0.7479900121688843 6.469587802886963 30 28 36
0.8403491377830505 3.371434450149536 6.1883225440979 117 111 111
0.900322675704956 0.3403978943824768 6.478993892669678 11 10 18
0.9046022295951843 0.5319229960441589 6.45504903793335 12 12 20
0.9504344463348389 2.8039369583129883 6.85305118560791 40 37 45
0.9504344463348389 2.8039369583129883 6.85305118560791 40 37 45
0.9067263603210449 -0.14205168187618256 6.35435152053833 47 43 55
0.959377646446228 1.5335228443145752 6.730453968048096 38 34 44
0.9713689684867859 2.953766345977783 6.746222019195557 36 31 35
0.9014418721199036 -1.6366479396820068 6.235213756561279 30 29 38
0.9490664005279541 1.6824160814285278 6.531404972076416 44 41 55
0.9490664005279541 1.6824160814285278 6.531404972076416 44 41 55
0.9359128475189209 3.108736991882324 6.45869255065918 84 78 77
0.9824174642562866 2.5471203327178955 6.739212512969971 49 47 61
0.8928521275520325 -1.470597267150879 6.117312908172607 42 42 50
0.9742510318756104 3.147196054458618 6.584344387054443 51 45 44
0.9756680130958557 0.45139065384864807 6.566577911376953 37 37 45
1.0045419931411743 3.044879913330078 6.739015102386475 37 32 33
1.0040171146392822 1.1171767711639404 6.650481224060059 45 43 55
0.9017010927200317 3.213181734085083 5.940646171569824 66 60 61
0.9353455901145935 -2.413515090942383 6.042275905609131 32 29 36
1.0285288095474243 1.183760643005371 6.662250518798828 42 41 53
1.0934696197509766 2.7290828227996826 7.014126777648926 32 30 37
1.0065009593963623 -1.0885331630706787 6.407124996185303 40 40 47
1.0421046018600464 2.2797939777374268 6.765616416931152 27 24 35
1.0378600358963013 -0.13757774233818054 6.468382358551025 32 30 38
1.0587626695632935 -2.0299808979034424 6.541817665100098 22 20 25
1.0682053565979004 3.1214661598205566 6.547686576843262 52 47 48
1.0682053565979004 3.1214661598205566 6.547686576843262 52 47 48
1.0660918951034546 -0.6033225059509277 6.533405780792236 31 28 38
1.1047357320785522 1.2034395933151245 6.668903827667236 54 56 71
1.017393946647644 3.182067632675171 6.082494258880615 77 72 73
1.147788166999817 2.2713162899017334 6.848085403442383 34 32 45
1.059181809425354 3.052870750427246 6.133670806884766 75 68 71
1.1586930751800537 2.8938376903533936 6.684820652008057 40 36 40
1.008833885192871 3.207257032394409 5.915970802307129 85 79 81
1.2066653966903687 3.0657145977020264 6.969448089599609 22 15 16
1.0236202478408813 3.238536834716797 5.888589382171631 97 91 94
1.1745936870574951 0.8670807480812073 6.676191329956055 51 51 62
1.2138924598693848 1.9375792741775513 6.873940944671631 42 41 51
1.2256255149841309 0.8665252327919006 6.990037441253662 46 48 59
1.2246111631393433 1.7063508033752441 6.859877586364746 63 61 70
1.117936372756958 3.197864294052124 6.239971160888672 91 85 87
1.0895546674728394 3.157517433166504 5.9618659019470215 92 87 90
1.0895546674728394 3.157517433166504 5.9618659019470215 92 87 90
1.2534842491149902 3.0471291542053223 6.991261005401611 37 30 31
1.210988163948059 0.755994439125061 6.719784736633301 69 69 79
1.188414454460144 -2.032559633255005 6.635447978973389 15 12 17
1.2376391887664795 0.01853632554411888 6.75021505355835 34 30 42
1.3046700954437256 2.1785342693328857 7.233482837677002 46 47 59
1.247475028038025 0.6957493424415588 6.758865833282471 63 62 72
1.1454384326934814 3.200902223587036 6.180902481079102 51 46 48
1.2919329404830933 2.1845452785491943 6.927303791046143 38 37 47
1.1888705492019653 3.1428608894348145 6.3307695388793945 85 79 80
1.2448898553848267 -0.9451746344566345 6.563060283660889 42 39 47
1.1979340314865112 3.174372673034668 6.193532943725586 74 69 70
1.2195930480957031 3.2141387462615967 6.325443744659424 108 102 104
1.3726491928100586 3.0909981727600098 7.002420425415039 77 70 68
1.2049965858459473 3.1495907306671143 6.079444885253906 82 78 79
1.394728660583496 1.2303968667984009 7.034041881561279 31 30 41
1.354994297027588 -0.009211679920554161 6.885814666748047 19 17 25
1.313741683959961 -2.5520451068878174 6.531955718994141 18 15 20
1.1759517192840576 3.2296323776245117 5.884198188781738 93 90 92
1.370173454284668 2.9651031494140625 6.7184062004089355 104 97 96
1.366651177406311 -1.3927651643753052 6.75080680847168 41 41 55
1.4486922025680542 3.029534339904785 7.0837225914001465 42 32 33
1.4302237033843994 -2.788921594619751 6.945314407348633 31 30 39
1.3276586532592773 -1.3972959518432617 6.44803524017334 39 40 55
1.3276586532592773 -1.3972959518432617 6.44803524017334 39 40 55
1.284228801727295 3.192229986190796 6.234923839569092 91 85 88
1.3785415887832642 3.14784836769104 6.646516799926758 55 50 50
1.4694186449050903 1.3517992496490479 7.085475921630859 40 38 45
1.4168884754180908 1.470740556716919 6.775259971618652 29 27 34
1.4451782703399658 -0.08980094641447067 6.931188106536865 5 3 10
1.5167979001998901 2.9673004150390625 7.238222122192383 32 27 31
1.493965983390808 0.06631871312856674 7.041297435760498 30 29 39
1.493965983390808 0.06631871312856674 7.041297435760498 30 29 39
1.478106141090393 -0.2210082709789276 6.7848801612854 33 30 38
1.5388314723968506 2.800631046295166 7.0516767501831055 48 44 48
1.529590129852295 -0.20361170172691345 6.978589057922363 34 31 39
1.5938974618911743 3.03609037399292 7.252418041229248 34 26 27
1.6050337553024292 0.9772593379020691 7.127053737640381 54 55 69
1.6534510850906372 3.046006679534912 7.341197967529297 33 26 27
1.4910379648208618 3.1790730953216553 6.542558193206787 118 111 112
1.6605411767959595 3.0921471118927 7.32190465927124 60 51 51
1.6412395238876343 1.5337986946105957 7.210870265960693 7 5 13
1.6412395238876343 1.5337986946105957 7.210870265960693 7 5 13
1.5551530122756958 3.1507649421691895 6.785361289978027 83 77 80
1.6893500089645386 2.786682367324829 7.345803260803223 49 45 52
1.5059576034545898 3.223573923110962 6.538815975189209 62 57 59
1.6657897233963013 2.6695470809936523 7.3277974128723145 26 24 32
1.6580111980438232 0.96942138671875 7.111588478088379 36 34 47
1.633599042892456 -1.986208438873291 6.990893840789795 29 27 30
1.7073402404785156 0.724125862121582 7.201913833618164 12 10 17
1.5465246438980103 3.136244297027588 6.528937339782715 93 87 90
1.7453745603561401 -4.057032108306885 7.2707014083862305 36 39 43
1.7654235363006592 2.659245729446411 7.439164638519287 33 29 37
1.7654235363006592 2.659245729446411 7.439164638519287 33 29 37
1.7070343494415283 1.8476892709732056 7.176739692687988 50 49 60
1.7681922912597656 2.7918624877929688 7.4237799644470215 40 36 41
1.7367768287658691 1.0543227195739746 7.1948018074035645 33 30 44
1.6947133541107178 -1.2590185403823853 7.0110321044921875 42 40 49
1.7656892538070679 2.784463882446289 7.2740092277526855 29 25 29
1.8343557119369507 2.398977041244507 7.4177093505859375 31 30 43
1.8270560503005981 2.1110212802886963 7.367658615112305 21 20 29
1.8175305128097534 -4.124226093292236 7.314516067504883 43 45 46
1.835364580154419 2.1733760833740234 7.348073959350586 33 32 45
1.8038493394851685 -0.3380674719810486 7.192051887512207 43 42 50
1.577693223953247 3.201814889907837 6.275911808013916 91 85 88
1.7083312273025513 -2.914496421813965 6.738209247589111 14 13 16
1.8826103210449219 -0.19752216339111328 7.4110822677612305 44 42 49
1.7785230875015259 3.3307762145996094 7.0770440101623535 88 82 83
1.5370935201644897 3.232767343521118 5.987808704376221 101 95 98
1.9456778764724731 2.5447683334350586 7.609786033630371 32 30 38
1.9087144136428833 2.214890480041504 7.370538711547852 61 63 76
1.75236177444458 3.102597951889038 6.681151866912842 100 93 94
1.7718902826309204 -1.3995000123977661 6.822769641876221 35 35 43
2.002472400665283 3.0437779426574707 7.686671733856201 36 29 30
1.7183940410614014 3.1994659900665283 6.562949180603027 68 65 68
1.8105565309524536 -2.0779953002929688 6.857408046722412 29 28 37
1.967017650604248 2.2699270248413086 7.4352803230285645 11 11 21
2.023008346557617 2.9294750690460205 7.621808052062988 57 52 55
2.0609450340270996 2.520812749862671 7.694489479064941 9 8 14
2.0441746711730957 2.417304039001465 7.5720648765563965 33 32 43
2.086632490158081 2.5046253204345703 7.659604549407959 14 12 18
1.831385850906372 3.0576155185699463 6.694026947021484 101 93 95
1.9819220304489136 -0.5144206285476685 7.245589256286621 37 35 42
2.138669729232788 2.9917266368865967 7.7381086349487305 32 25 26
2.1273605823516846 2.9700255393981934 7.688464641571045 31 25 26
2.0318570137023926 0.5830647945404053 7.33155632019043 66 65 76
1.7598564624786377 3.171988010406494 6.348127841949463 67 63 66
2.154148817062378 2.795644521713257 7.731723785400391 54 51 58
2.179417610168457 -1.4709315299987793 7.885493755340576 16 14 20
1.9542182683944702 3.1269242763519287 6.970981121063232 80 73 75
1.9605134725570679 0.5204684138298035 6.986708164215088 46 45 55
2.1123108863830566 0.2571304142475128 7.402469158172607 34 33 43
2.2581558227539062 1.6760973930358887 7.9133453369140625 49 48 59
2.130354166030884 3.0743672847747803 7.3988752365112305 86 81 83
2.2100610733032227 2.074631690979004 7.674459934234619 17 15 27
2.077742099761963 3.110006332397461 7.1353325843811035 66 61 63
2.1447818279266357 0.021273039281368256 7.362644672393799 50 48 57
2.1856062412261963 0.5272396802902222 7.473642349243164 39 36 45
2.1912269592285156 1.2500240802764893 7.486610412597656 10 9 17
2.1835169792175293 -0.8652960658073425 7.4103288650512695 23 20 28
2.3365375995635986 2.4067838191986084 7.87967586517334 42 40 53
2.21350359916687 -0.6873722672462463 7.435465335845947 48 45 54
2.170017957687378 3.1472971439361572 7.230138301849365 79 73 74
1.9980299472808838 3.1675426959991455 6.603583335876465 60 56 60
2.3126916885375977 1.1220057010650635 7.5814900398254395 38 38 50
1.85988450050354 3.219149351119995 6.07256555557251 86 81 84
2.330930471420288 -0.6770889759063721 7.577634811401367 59 56 67
2.1094393730163574 3.138460397720337 6.853198528289795 60 57 60
2.24006724357605 3.180138349533081 7.279813289642334 99 92 94
2.0273594856262207 3.180818557739258 6.503809928894043 58 53 57
2.37355375289917 -0.9504492282867432 7.589958190917969 41 42 48
2.0490942001342773 3.090559959411621 6.492037296295166 55 52 55
1.9086750745773315 3.219370126724243 6.065696716308594 63 56 60
2.014678478240967 3.0339362621307373 6.363003730773926 69 66 69
2.4118759632110596 0.4635470509529114 7.625741958618164 66 64 75
2.365473985671997 -2.525986909866333 7.434787273406982 22 19 25
1.9993858337402344 3.1716346740722656 6.271785736083984 90 84 87
1.9993858337402344 3.1716346740722656 6.271785736083984 90 84 87
2.4442200660705566 0.801368236541748 7.6376118659973145 46 45 56
2.431609869003296 2.830796003341675 7.560863494873047 78 71 70
2.5207741260528564 1.3189711570739746 7.815427303314209 41 40 50
2.334589719772339 3.1149120330810547 7.1712327003479 85 80 83
2.4518868923187256 -0.5119784474372864 7.572903156280518 20 18 26
2.478759527206421 0.4585951566696167 7.597196578979492 10 9 18
2.5112905502319336 -0.6739456653594971 7.679001808166504 58 60 70
2.5743885040283203 -0.5654634833335876 7.809411525726318 38 38 50
2.553595542907715 1.1666178703308105 7.731686115264893 40 38 48
2.556705951690674 -1.2529102563858032 7.740372657775879 42 40 48
2.048879861831665 3.205031156539917 6.187681674957275 66 61 63
2.5871636867523193 0.5942810773849487 7.790389060974121 36 35 46
2.6425814628601074 -0.0171508826315403 7.798230171203613 60 58 72
2.675431251525879 0.7746623158454895 7.854910850524902 41 41 54
2.670419931411743 0.7194966673851013 7.759914875030518 42 41 52
2.7672574520111084 0.9554341435432434 8.038612365722656 35 34 49
2.788529872894287 0.7161749005317688 8.070865631103516 41 39 51
2.615511178970337 3.067692995071411 7.5266218185424805 61 54 57
2.21262788772583 3.2004497051239014 6.317656993865967 82 77 80
2.622624635696411 3.0722172260284424 7.472578048706055 79 73 76
2.639822244644165 3.0871381759643555 7.478105545043945 97 92 95
2.290996551513672 3.071964979171753 6.438460826873779 72 68 71
2.7649290561676025 -1.3090226650238037 7.751917839050293 21 20 27
2.286659002304077 3.149589776992798 6.3936567306518555 93 88 91
2.286659002304077 3.149589776992798 6.3936567306518555 93 88 91
2.636507987976074 2.966933488845825 7.366638660430908 98 93 96
2.4517886638641357 3.099541187286377 6.797521591186523 89 84 87
2.8975493907928467 1.09499192237854 7.891788482666016 40 38 53
2.6163251399993896 3.264705181121826 7.094366550445557 76 73 75
2.2381606101989746 3.227388381958008 6.067073822021484 54 49 50
2.7918336391448975 3.0486998558044434 7.495119571685791 82 79 82
2.7592599391937256 3.0911455154418945 7.291460990905762 71 66 70
2.641854763031006 2.9903931617736816 6.88697624206543 94 90 94
2.3761425018310547 3.2608754634857178 6.040529727935791 82 76 77
-0.772297203540802 -0.8679431676864624 4.874240875244141 21 20 28
-1.3790627717971802 0.19691723585128784 4.4408650398254395 7 6 13
-0.6637227535247803 1.8782672882080078 5.242835998535156 11 10 15
1.8325039148330688 3.1415464878082275 6.840375900268555 76 69 70
1.3500221967697144 3.138972043991089 6.348752021789551 96 90 91
-0.21300171315670013 1.4708425998687744 5.76289176940918 78 76 85
-0.1773509979248047 0.7606109976768494 5.549786567687988 95 94 101
-0.5820324420928955 0.18307946622371674 5.160788059234619 21 19 25
-0.8117215633392334 0.40359070897102356 4.937476634979248 20 18 26
0.6377164125442505 1.3852479457855225 6.317259788513184 5 3 11
-0.7961251139640808 0.3925628662109375 4.840114593505859 66 65 74
-0.4713010787963867 2.4923322200775146 5.439479827880859 13 11 18
-0.8820579648017883 2.293038845062256 5.080799102783203 67 65 70
-0.3424767851829529 -0.44867679476737976 5.311484336853027 7 6 14
-0.32009440660476685 -0.8453859090805054 5.244755268096924 17 16 23
-1.2932177782058716 1.0506302118301392 4.638329982757568 82 79 87
-0.6379940509796143 1.45159113407135 5.193051815032959 14 13 20
-0.3423161208629608 0.39892256259918213 5.347681045532227 33 32 40
-0.821395754814148 0.802137553691864 4.856070041656494 70 68 75
-0.6415877342224121 1.6256414651870728 5.2294602394104 96 95 102
0.4658988118171692 0.7721969485282898 6.121804237365723 9 7 15
-0.4463353455066681 2.0757901668548584 5.464165687561035 7 6 13
-1.1615092754364014 0.23645001649856567 4.621641635894775 93 92 100
-1.2437635660171509 -0.4424552619457245 4.544203281402588 117 114 122
-1.2637323141098022 0.022960608825087547 4.531230449676514 82 80 88
-0.8696528077125549 1.847716212272644 5.056758403778076 84 82 86
-0.8646295070648193 1.8745386600494385 5.06990909576416 8 5 8
-1.0300793647766113 0.6123303174972534 4.665646076202393 87 85 91
1.0133020877838135 3.1898887157440186 6.136749267578125 119 114 115
-0.43241292238235474 1.650230884552002 5.443266868591309 11 11 16
-0.8654313683509827 2.256422758102417 4.993643760681152 50 48 55
-1.078057885169983 1.4662537574768066 4.818455219268799 19 17 24
-1.2918404340744019 1.2645679712295532 4.615392208099365 16 14 20
0.3767383098602295 2.4600608348846436 6.221936225891113 6 5 14
-1.078078031539917 1.46628737449646 4.818511009216309 19 17 24
-1.2718594074249268 0.012277785688638687 4.547605037689209 16 15 23
0.7099012732505798 -0.07874979078769684 6.2741498947143555 13 12 20
-1.1968947649002075 0.23880885541439056 4.760838985443115 56 54 63
-0.1505127102136612 0.3687005341053009 5.552304744720459 14 13 20
-1.0192798376083374 -0.04484102502465248 4.693336486816406 56 54 61
-0.5775836110115051 -0.036299534142017365 5.1269989013671875 14 13 20
-0.8544274568557739 1.2554948329925537 5.01220178604126 32 31 40
-0.9060729742050171 -1.572713017463684 5.076995372772217 60 58 67
0.029327943921089172 1.2102396488189697 5.766047477722168 10 8 16
-0.43199726939201355 1.6493842601776123 5.441187858581543 11 11 16
-1.466210961341858 -0.031893953680992126 4.304568290710449 61 59 65
-0.22700387239456177 2.4988365173339844 5.725193977355957 17 15 20
-0.6562174558639526 2.0786116123199463 5.269567966461182 96 94 101
-0.6718957424163818 2.297950029373169 5.26455020904541 5 3 10
0.02932431735098362 1.2102043628692627 5.765911102294922 10 8 16
-1.33049738407135 2.335014820098877 4.692556858062744 77 76 79
0.27230405807495117 0.348344087600708 5.900637626647949 10 8 16
-0.803043007850647 -0.015415705740451813 4.926124095916748 3 1 8
-1.506908655166626 1.0690888166427612 4.389740943908691 51 50 58
-1.028173565864563 0.2606363296508789 4.734738826751709 112 111 121
-0.5573604106903076 -0.4791261553764343 5.131077766418457 110 108 115
-1.3834413290023804 -0.1987198144197464 4.4492926597595215 74 73 82
-1.5030616521835327 0.7955487370491028 4.3900465965271 18 15 23
-1.1951091289520264 0.2391628623008728 4.753927230834961 56 54 63
0.05047198757529259 0.5752500295639038 5.8008880615234375 49 47 54
-0.4463295340538025 2.0757625102996826 5.464095115661621 7 6 13
-1.0503969192504883 0.6246259808540344 4.757827281951904 40 37 44
-1.024640440940857 0.23662354052066803 4.754640102386475 50 48 57
-0.18652670085430145 0.5890042781829834 5.515097141265869 78 76 84
-1.075577974319458 1.0686217546463013 4.797514915466309 7 4 11
-0.47135859727859497 2.4924774169921875 5.43976354598999 13 11 18
-0.6637336015701294 1.8782795667648315 5.242870330810547 11 10 15
0.013955577276647091 1.620478630065918 5.785995960235596 12 10 17
-1.4432355165481567 -0.91779625415802 4.306654453277588 39 37 45
0.3107862174510956 2.668417453765869 6.184206962585449 19 17 23
0.035397253930568695 0.7857171297073364 5.727579593658447 24 22 30
-1.5125691890716553 -1.397220492362976 5.419830799102783 5 3 7
-1.1212900876998901 2.332935333251953 4.86588191986084 17 16 21
0.21968603134155273 1.4037017822265625 5.950815200805664 12 9 16
0.31081700325012207 2.6683976650238037 6.184169769287109 19 17 23
-1.4916490316390991 0.645719587802887 4.368247032165527 8 7 16
0.06532503664493561 -0.03692129626870155 5.699534893035889 14 11 18
-0.8505051732063293 1.4520671367645264 5.050400257110596 74 72 80
-0.4056462347507477 1.2273569107055664 5.379631996154785 76 72 79
-0.19563016295433044 0.6149599552154541 5.7751970291137695 53 50 58
-0.17793884873390198 0.7720662355422974 5.4380621910095215 49 47 54
-0.8786044120788574 1.680396556854248 5.052919864654541 12 11 16
-0.6379902958869934 1.451599359512329 5.193049430847168 14 13 20
-1.4910790920257568 1.4556212425231934 4.341798305511475 64 61 66
-1.4810210466384888 0.40821513533592224 4.3868536949157715 73 71 79
-1.3028050661087036 1.889739990234375 4.660624980926514 95 94 98
0.07257714122533798 0.35784095525741577 5.700567245483398 10 8 17
-0.1222311407327652 -0.6652323007583618 5.489433288574219 33 33 40
0.19432039558887482 2.2402453422546387 6.02187442779541 11 10 18
-0.8352426290512085 1.2608150243759155 5.0219902992248535 52 51 61
0.6527356505393982 3.1606407165527344 6.077491283416748 109 105 106
0.8534148931503296 1.3446394205093384 6.412346839904785 66 63 71
0.4246809482574463 2.2417309284210205 6.274625301361084 92 89 97
-1.501590609550476 0.8449432253837585 4.422933578491211 60 58 65
-0.5486990213394165 -0.8886635899543762 5.079073429107666 106 105 112
0.8517634868621826 1.5655525922775269 6.512040138244629 7 6 13
-1.1962355375289917 -1.9991382360458374 4.404258728027344 26 23 31
-0.6083889603614807 2.7071359157562256 5.311142444610596 11 7 14
-1.2868911027908325 -0.37985318899154663 4.469486236572266 47 47 56
-0.714094877243042 -2.0009865760803223 4.856590747833252 35 32 36
0.44888272881507874 0.7433290481567383 5.902327060699463 61 59 67
-0.3831852376461029 0.15021830797195435 5.331538677215576 73 72 79
2.252067804336548 1.6844158172607422 7.715394020080566 39 39 47
0.7535220980644226 3.173154354095459 6.371331691741943 122 117 117
0.4612303674221039 1.368475317955017 6.104954719543457 51 49 56
0.8939071893692017 3.184840202331543 6.479450702667236 86 81 80
-0.7778274416923523 -0.6777682900428772 4.946634292602539 95 93 101
0.669877290725708 3.21148681640625 6.1614089012146 77 74 74
-0.5579948425292969 -0.6579228043556213 5.091154098510742 36 32 39
0.8533768653869629 3.215625286102295 5.99937105178833 101 94 95
0.9998055696487427 3.109630584716797 6.462929725646973 84 79 79
-0.29808735847473145 2.633566379547119 5.478081226348877 39 37 44
1.8213096857070923 1.7036033868789673 7.323795318603516 38 37 45
-1.4838258028030396 -0.2114899754524231 4.313248634338379 98 97 105
-0.7827979922294617 -0.24741677939891815 4.932479381561279 23 23 28
-1.560618281364441 2.362821102142334 4.47813081741333 49 45 51
-0.2184893935918808 0.8012653589248657 5.497669696807861 101 99 108
-0.16636182367801666 0.5881391167640686 5.583870887756348 40 38 44
-0.33063164353370667 -0.2439032644033432 5.342920780181885 16 15 22
-0.3020172119140625 -1.1393917798995972 5.2727155685424805 32 30 37
-0.4392238259315491 1.8206148147583008 5.406555652618408 67 64 70
0.5272036194801331 3.2078676223754883 6.0926923751831055 58 54 54
0.28131890296936035 0.1688113808631897 5.897800445556641 5 4 12
1.0459816455841064 1.5399448871612549 6.644532680511475 24 22 30
1.463171362876892 1.1079566478729248 6.893946647644043 30 29 38
-0.5075881481170654 -1.767319917678833 5.008706569671631 42 40 47
-0.7017567753791809 -1.0872693061828613 4.877622604370117 91 89 97
-0.7460575699806213 -1.1224853992462158 5.01673698425293 76 74 82
-0.7004289627075195 2.0785436630249023 5.204599380493164 89 87 94
-0.7278622388839722 -1.1323699951171875 4.901648044586182 10 8 13
0.21608316898345947 1.4682505130767822 5.954873561859131 10 11 19
-1.374259114265442 -0.17933689057826996 4.350467681884766 100 100 109
-1.2590594291687012 -0.23992152512073517 4.5986247062683105 88 87 95
2.9133429527282715 -0.12361011654138565 8.093794822692871 14 12 19
0.3108108639717102 2.6682791709899902 6.183907508850098 19 17 23
-0.7598139643669128 -1.34470534324646 4.908538341522217 39 36 43
-1.5072141885757446 -0.030548883602023125 4.374692440032959 37 35 42
-0.2949260175228119 -1.3287198543548584 5.286861419677734 75 74 81
0.38239046931266785 3.20871639251709 5.930314540863037 123 120 121
-0.8234333395957947 -0.20316720008850098 4.861841678619385 67 67 74
-0.899957001209259 -1.3509501218795776 5.092639446258545 48 47 55
-1.077907919883728 1.8758525848388672 4.830731391906738 85 82 90
-0.5235463976860046 -1.3597935438156128 5.093228340148926 13 11 17
0.6692083477973938 0.5557446479797363 6.266644477844238 34 32 38
0.35108959674835205 3.202462673187256 5.983057498931885 118 114 115
0.7098842859268188 -0.07874854654073715 6.2738471031188965 13 12 20
-0.1416962593793869 -0.05268983542919159 5.37015962600708 39 38 45
0.7099159955978394 -0.07875534892082214 6.274214267730713 13 12 20
1.0658514499664307 1.3687024116516113 6.738849639892578 16 14 22
-0.6300093531608582 1.183227777481079 5.182409286499023 20 18 26
1.2234363555908203 1.957456350326538 6.8433918952941895 36 35 44
0.6011545658111572 3.1747796535491943 6.207769393920898 120 115 114
-0.5613558888435364 -0.04093668982386589 4.981602668762207 42 42 49
0.8646945953369141 3.178712844848633 6.276576995849609 42 39 40
-0.09285743534564972 -1.097568154335022 5.447404861450195 30 28 34
-0.5726181864738464 0.3543038070201874 5.2338433265686035 28 26 36
1.872729778289795 3.1318717002868652 6.947134971618652 120 115 116
-0.7509028911590576 -0.4277605712413788 4.90326452255249 96 95 104
-1.2074885368347168 -0.681721031665802 4.505527496337891 121 120 128
-0.9652525186538696 0.4065459072589874 4.858869552612305 117 115 123
0.874182403087616 1.1647570133209229 6.507590293884277 8 6 16
-1.4490737915039062 -0.43706756830215454 4.321895122528076 115 114 121
-1.5161000490188599 1.1069796085357666 4.381614685058594 69 69 79
-0.5820484757423401 0.1830834150314331 5.160868167877197 21 19 25
0.5339521765708923 -0.6917314529418945 6.062479496002197 22 21 27
-1.018385887145996 -0.47784605622291565 4.705862998962402 75 75 82
-1.3051127195358276 0.8888047933578491 4.589138507843018 24 22 30
-1.3742570877075195 -0.17933745682239532 4.350466728210449 100 100 109
1.1899864673614502 3.1618573665618896 6.309686660766602 107 101 102
0.4964762330055237 0.34655290842056274 6.1253886222839355 9 7 14
-0.5736110806465149 -0.19934873282909393 5.0917463302612305 95 93 101
-1.076915979385376 1.8713535070419312 4.809504508972168 75 73 80
-1.3302686214447021 -0.029350146651268005 4.411365032196045 74 72 82
2.02449107170105 1.9013702869415283 7.545278072357178 16 13 21
0.9931357502937317 3.1775169372558594 6.264567852020264 88 82 83
1.8271547555923462 2.111135721206665 7.368002891540527 21 20 29
0.5213214755058289 3.233628511428833 6.034621715545654 44 41 41
0.9571825861930847 3.1957380771636963 6.096484184265137 36 31 32
-1.1343657970428467 1.0229449272155762 4.729104042053223 95 95 106
0.5954991579055786 3.1508288383483887 6.163393497467041 99 94 93
1.0571008920669556 3.1246836185455322 6.458145618438721 54 49 51
-0.9411191344261169 1.90415358543396 4.960546970367432 97 94 103
