ply
format ascii 1.0
element vertex 720
property float x
property float y
property float z
property uchar red
property uchar green
property uchar blue
end_header
-1.4300190210342407 -0.8051056265830994 5.708105564117432 64 59 60
3.7021424770355225 -0.2671903073787689 14.51187801361084 106 101 99
2.4202492237091064 0.4591943323612213 12.273338317871094 51 45 50
-1.3959815502166748 -0.8014429211616516 5.742008209228516 12 6 8
3.450563430786133 -1.907121181488037 13.840271949768066 15 10 11
4.840826034545898 0.5767724514007568 16.947553634643555 96 88 76
-1.1045308113098145 -0.11437393724918365 6.269331455230713 42 37 38
-1.5373711585998535 2.8160274028778076 5.793503761291504 105 100 101
-1.5374165773391724 2.8160269260406494 5.793574810028076 105 100 101
3.8563060760498047 -1.955064296722412 14.70498275756836 66 62 62
5.350512504577637 -2.2863152027130127 17.252798080444336 70 66 72
5.350245952606201 -2.2862019538879395 17.251983642578125 70 66 72
-1.6308529376983643 0.12801380455493927 5.474372863769531 33 27 29
-1.5084747076034546 1.9109904766082764 5.806586742401123 146 140 142
-1.0876612663269043 -0.8087136149406433 6.331550598144531 40 34 35
4.561931610107422 0.3340073823928833 14.905255317687988 69 68 78
5.41921854019165 0.3878006935119629 17.620729446411133 42 42 51
-1.8425366878509521 2.1531715393066406 5.221489906311035 30 24 25
3.469545364379883 -1.684675693511963 13.988858222961426 10 5 8
3.46964955329895 -1.6847361326217651 13.98929214477539 10 5 8
4.907434940338135 0.36314862966537476 17.057016372680664 100 92 82
-1.2664587497711182 0.11408417671918869 5.967912673950195 16 11 13
-1.3540512323379517 -0.07952167838811874 5.815791606903076 44 39 40
2.3882274627685547 0.20515072345733643 11.33892822265625 99 92 100
5.5054826736450195 -2.0875344276428223 17.7188663482666 11 10 17
5.503129959106445 -2.0866222381591797 17.711257934570312 11 10 17
3.7807016372680664 -1.6891976594924927 14.488174438476562 33 31 33
4.827942848205566 -1.9564597606658936 17.077495574951172 150 140 124
-1.0457981824874878 2.804021120071411 6.569204330444336 17 11 12
-0.2647237777709961 0.09576595574617386 7.641271591186523 73 68 70
-1.1718711853027344 2.753589391708374 6.294723987579346 52 46 47
-1.6734765768051147 1.9336520433425903 5.498887062072754 22 17 17
3.453230142593384 -1.4509546756744385 13.991416931152344 16 10 12
5.122010707855225 -1.6837704181671143 16.40098762512207 40 40 46
5.122417449951172 -1.6838743686676025 16.402263641357422 40 40 46
4.959007740020752 0.12646706402301788 17.258068084716797 88 80 69
3.7902796268463135 -1.4716529846191406 14.597268104553223 20 15 16
5.079050064086914 -1.7999751567840576 17.43857192993164 178 169 152
5.427128791809082 -1.7340514659881592 17.142940521240234 1 1 8
3.787604570388794 -1.4704499244689941 14.587176322937012 20 15 16
5.155758857727051 -1.5974295139312744 16.0241756439209 7 6 15
-1.8816078901290894 2.3963656425476074 5.253634452819824 82 77 76
2.555194854736328 -1.1727983951568604 12.234999656677246 113 106 112
4.965378284454346 2.399183988571167 16.630569458007812 91 87 93
-0.4977409243583679 2.0740036964416504 7.320463180541992 51 44 44
-1.0444514751434326 3.0050315856933594 6.589127063751221 75 70 70
5.416098117828369 -1.5616440773010254 17.488508224487305 10 9 15
5.058900356292725 -1.0878123044967651 17.47001838684082 164 155 144
3.4456231594085693 -1.204298973083496 13.968417167663574 27 21 24
5.05487585067749 -1.5603408813476562 17.384824752807617 145 135 121
5.397266387939453 -1.5562716722488403 17.426925659179688 10 9 15
3.7799954414367676 -2.855548858642578 14.488791465759277 17 9 15
-1.5148613452911377 0.8265244364738464 5.916475296020508 23 17 19
3.445601463317871 -1.2042948007583618 13.968328475952148 27 21 24
-0.6298926472663879 0.9809869527816772 7.060499668121338 34 27 29
5.504931926727295 -2.087329387664795 17.71708869934082 11 10 17
-0.7424455285072327 -0.5679270029067993 6.826774597167969 22 16 16
5.004230499267578 -0.8300034999847412 17.323102951049805 161 155 140
3.3367836475372314 -0.7799943685531616 14.650110244750977 83 76 81
5.503289699554443 -2.086699962615967 17.711685180664062 11 10 17
-0.25815045833587646 3.5659847259521484 6.80499792098999 99 90 83
0.3036331832408905 3.5574557781219482 7.586057662963867 130 120 113
0.9236375093460083 3.5225539207458496 8.685279846191406 131 119 114
-1.8007022142410278 1.0398746728897095 5.237555503845215 129 123 123
3.1131389141082764 0.2134076952934265 13.30560302734375 32 25 33
4.770553112030029 2.7504172325134277 17.685813903808594 172 171 171
-0.01904035173356533 3.5651133060455322 7.142161846160889 142 130 124
-0.5437821745872498 3.591484308242798 7.12119722366333 99 91 85
2.823840379714966 0.46318918466567993 13.202680587768555 39 33 40
-0.5144594311714172 3.5992703437805176 7.171651363372803 72 64 59
0.17918889224529266 3.514314889907837 7.14876127243042 73 63 56
-0.4960898160934448 1.8648529052734375 7.403534412384033 60 54 55
-0.458170622587204 2.997556447982788 7.553255081176758 29 22 25
-0.435242235660553 3.593862771987915 7.053665637969971 113 105 99
-1.5682454109191895 -1.6731741428375244 5.401730537414551 61 55 55
3.2563610076904297 0.9035071134567261 13.787704467773438 92 87 97
-1.3739453554153442 0.39335885643959045 5.823500156402588 106 99 102
5.48872184753418 -1.998586893081665 17.368284225463867 28 28 37
4.632584095001221 3.4198451042175293 16.044660568237305 57 49 44
0.8155773282051086 3.509911298751831 8.491761207580566 102 91 84
-1.3690680265426636 0.3924124836921692 5.8110504150390625 106 99 102
-1.3536961078643799 2.5452635288238525 6.0524163246154785 27 21 21
-0.44214338064193726 0.745970606803894 7.244421005249023 80 73 75
-1.1174644231796265 -1.5319726467132568 6.754871368408203 69 62 64
3.0837864875793457 2.410489797592163 13.313307762145996 30 25 31
0.087693952023983 3.5377047061920166 7.441892623901367 130 121 115
2.316182851791382 1.3461449146270752 12.033714294433594 29 22 28
3.602656364440918 0.10410349816083908 14.169586181640625 158 151 152
3.463658332824707 2.413254499435425 13.986993789672852 64 59 57
3.7633094787597656 -2.7720143795013428 14.18720531463623 22 15 20
2.696737766265869 -1.9631437063217163 10.094557762145996 31 24 30
3.38777494430542 1.7537643909454346 13.84095573425293 18 11 14
-1.8268729448318481 1.2853716611862183 5.2260637283325195 124 117 118
-1.380963921546936 2.8278286457061768 6.051250457763672 23 18 17
0.008089878596365452 2.983633279800415 8.315996170043945 17 11 13
-0.6989537477493286 -1.2979340553283691 6.8212127685546875 99 92 94
-0.7431221604347229 3.587765693664551 6.690637588500977 95 87 80
2.477957248687744 2.0219955444335938 12.402201652526855 26 20 22
-1.6516250371932983 0.8106892108917236 5.512631416320801 169 161 163
4.718981742858887 -2.9263553619384766 16.13514518737793 40 36 46
-1.062745213508606 -0.5604860186576843 6.25059175491333 156 151 153
-0.8688532114028931 -1.0629647970199585 6.602901458740234 38 31 31
1.9284570217132568 2.2308218479156494 11.393245697021484 31 26 31
-1.7216655015945435 -0.31158292293548584 5.09696626663208 74 69 70
-1.6488583087921143 1.514151930809021 5.50460958480835 83 77 79
2.6993167400360107 -1.1188501119613647 12.70100212097168 47 39 44
-0.7158805727958679 -0.833233118057251 6.796903133392334 107 100 102
-0.4382677972316742 0.3476121425628662 7.381502628326416 26 19 23
1.471591830253601 1.581613540649414 10.651291847229004 17 12 15
0.08849462121725082 3.643230438232422 7.240237712860107 78 68 63
-1.6628366708755493 1.6840713024139404 5.509722709655762 103 96 96
-1.3434062004089355 0.41906532645225525 5.864852428436279 124 118 123
1.221667766571045 2.6705734729766846 10.191076278686523 10 6 9
-1.1600226163864136 2.3235905170440674 6.360973834991455 36 29 29
2.5912418365478516 2.8421308994293213 12.480295181274414 20 15 17
3.34908390045166 0.3323456048965454 13.97002124786377 41 36 44
0.04219042509794235 2.8050639629364014 7.867926597595215 73 67 69
-0.7844799757003784 3.538994789123535 6.678518772125244 99 87 80
3.629626989364624 0.43514713644981384 14.40090560913086 87 80 84
-1.8243858814239502 1.6955640316009521 5.199962615966797 29 22 23
-1.634520173072815 1.8907419443130493 5.450981616973877 88 82 83
-1.74961519241333 -1.9665415287017822 5.184412002563477 101 96 94
-1.5084675550460815 1.9109795093536377 5.806558132171631 146 140 142
-1.6148123741149902 -1.9848287105560303 5.368971347808838 115 110 108
-1.6009819507598877 -1.9710570573806763 5.382570266723633 39 34 32
-1.8781828880310059 2.6480648517608643 5.323074817657471 112 106 105
-0.23638921976089478 3.595487117767334 7.211982727050781 125 117 111
-1.7003718614578247 -1.6988165378570557 5.052651882171631 90 84 85
5.11515474319458 -0.08766980469226837 16.682674407958984 9 9 17
-1.6343470811843872 1.2132811546325684 5.470975875854492 85 79 81
-1.5880416631698608 -1.7570788860321045 5.459746837615967 96 88 88
-1.5666815042495728 -1.7023488283157349 5.414766788482666 25 18 17
-0.4294021725654602 0.05473832041025162 7.419834136962891 100 93 95
-1.7424514293670654 -1.272265076637268 5.155188083648682 23 18 20
-1.7040318250656128 -1.2286096811294556 5.074634552001953 106 101 103
-1.3730381727218628 3.0233638286590576 6.0500874519348145 20 14 16
-0.9520674347877502 0.10849335789680481 6.597643852233887 17 10 12
0.3155776560306549 3.567775249481201 7.665862560272217 60 50 44
3.5101242065429688 0.2071402668952942 14.149941444396973 34 28 34
-1.0444517135620117 3.0050296783447266 6.58912467956543 75 70 70
-0.6352167129516602 1.2053241729736328 7.095881462097168 124 118 120
-1.6073102951049805 -1.0435467958450317 5.462287425994873 96 90 91
5.299501419067383 -1.380191683769226 16.20732879638672 43 41 53
-0.6747192144393921 2.53202223777771 7.117553234100342 131 126 127
-1.5374139547348022 2.816026210784912 5.793570518493652 105 100 101
4.323675632476807 -2.7514705657958984 15.003207206726074 25 21 29
-1.526229739189148 2.5998034477233887 5.765816688537598 61 54 55
4.690113544464111 -2.984891414642334 16.274259567260742 26 22 31
2.590214490890503 -0.603137195110321 11.374013900756836 85 78 83
4.717827796936035 -2.8446905612945557 15.897886276245117 37 34 43
-0.2651461958885193 0.5211906433105469 7.67821741104126 9 5 10
4.566414833068848 2.567276954650879 16.01032829284668 142 136 131
3.1504721641540527 -2.1837642192840576 13.412271499633789 37 31 33
-0.7567347884178162 0.09783022105693817 6.852394104003906 18 12 14
-0.8761129975318909 -1.0292178392410278 6.572883129119873 20 14 14
-1.5872745513916016 -0.09130053967237473 5.392951011657715 15 10 11
5.115156650543213 -0.08767105638980865 16.682682037353516 9 9 17
3.8707919120788574 -2.2130894660949707 14.75528335571289 57 54 59
-0.8106358647346497 2.9979300498962402 6.934789657592773 24 18 18
3.3877413272857666 1.539733648300171 13.869483947753906 45 39 43
4.001180648803711 -2.19563889503479 14.830427169799805 128 125 132
2.710947275161743 -1.8720005750656128 12.551481246948242 28 23 25
-1.7006624937057495 2.391923189163208 5.525969982147217 31 25 26
-1.4266222715377808 -0.8277338743209839 5.754788398742676 44 39 40
4.081404685974121 -2.0639498233795166 14.447942733764648 103 99 104
-0.6302006840705872 1.6495935916900635 7.134713649749756 35 28 30
-1.757588505744934 -0.33561721444129944 5.199981212615967 104 98 101
3.4521567821502686 -1.9080960750579834 13.847423553466797 15 10 11
-1.7371065616607666 2.4422428607940674 5.64384651184082 67 61 62
2.719973564147949 -1.708400011062622 12.679341316223145 72 66 69
3.565521001815796 -1.9125831127166748 14.292098999023438 130 125 127
5.350331783294678 -2.2862377166748047 17.252262115478516 70 66 72
5.35023307800293 -2.2861855030059814 17.251935958862305 70 66 72
-0.7123144268989563 2.786093235015869 7.127468109130859 28 22 24
-1.224111557006836 1.264174222946167 6.422102451324463 18 12 14
3.8562047481536865 -1.9550037384033203 14.704574584960938 66 62 62
3.4697558879852295 -1.6848018169403076 13.98973560333252 10 5 8
-1.6854915618896484 1.2583435773849487 5.519463539123535 22 16 17
-1.492148756980896 1.2620878219604492 5.776866436004639 36 31 34
-1.277060866355896 1.1960930824279785 5.8470377922058105 70 63 65
3.713825225830078 -1.7202277183532715 14.187017440795898 148 144 145
3.4696216583251953 -1.6847143173217773 13.98920726776123 10 5 8
4.622262954711914 2.6641879081726074 17.12924575805664 139 138 137
5.504522800445557 -2.0871639251708984 17.715721130371094 11 10 17
3.4697961807250977 -1.6848255395889282 13.989903450012207 10 5 8
5.503696918487549 -2.0868489742279053 17.713077545166016 11 10 17
-0.6298781037330627 0.9809755086898804 7.060423374176025 34 27 29
-0.6221016049385071 0.973613440990448 7.019953727722168 34 27 29
2.709458351135254 -1.4159835577011108 12.680294036865234 43 37 41
-1.8222335577011108 1.0280766487121582 5.237268924713135 34 29 29
3.4525535106658936 -1.4507626295089722 13.988632202148438 16 10 12
-1.328447937965393 1.6811585426330566 6.07961368560791 65 58 59
-1.810146450996399 2.1115787029266357 5.127080917358398 57 52 52
-1.1519126892089844 0.7924328446388245 6.263912200927734 146 140 142
-1.7780464887619019 -0.5292669534683228 5.192365646362305 87 81 85
-1.1447640657424927 0.8010833859443665 6.389475345611572 151 144 147
-1.7780611515045166 -0.5292563438415527 5.192386150360107 87 81 85
5.078999042510986 -1.799925446510315 17.438396453857422 178 169 152
-1.6516269445419312 0.8106903433799744 5.512643814086914 169 161 163
3.6199140548706055 -1.4609121084213257 14.2779541015625 23 19 21
5.347888946533203 -1.701722502708435 16.878808975219727 1 1 8
3.4428927898406982 -1.3815312385559082 13.872984886169434 116 110 113
5.155755519866943 -1.5974280834197998 16.0241641998291 7 6 15
3.6915903091430664 2.213685989379883 14.479829788208008 97 88 77
-1.2573180198669434 -0.5748124122619629 6.006912708282471 59 54 55
-1.4525713920593262 1.4255247116088867 5.630996227264404 87 80 80
-1.8092222213745117 1.4818646907806396 5.233692169189453 98 93 93
-1.4259653091430664 -0.5660529136657715 5.753848552703857 22 17 20
-1.8300690650939941 1.4770835638046265 5.2344841957092285 118 113 113
-1.4971123933792114 1.470847249031067 5.804787635803223 109 102 103
-1.5052103996276855 2.353029251098633 5.779158592224121 97 91 92
-0.9807519316673279 1.4502573013305664 6.556733131408691 62 56 60
-1.5051904916763306 2.3529982566833496 5.77908992767334 97 91 92
-1.015123724937439 1.9078068733215332 6.604528903961182 31 26 26
4.769874572753906 2.7500736713409424 17.682958602905273 172 171 171
-0.8090537786483765 1.4346455335617065 6.842434406280518 94 88 92
3.5021350383758545 2.017085313796997 12.980062484741211 140 142 144
5.1221442222595215 -1.1978548765182495 16.210554122924805 7 6 15
3.658342123031616 -1.0419734716415405 14.418815612792969 147 143 150
-1.6453174352645874 0.5846788883209229 5.491208553314209 15 8 10
4.432511806488037 2.437695026397705 15.681297302246094 188 183 182
4.915603160858154 2.7175981998443604 17.373716354370117 182 177 176
3.7918126583099365 -1.006841778755188 14.702129364013672 76 70 69
-1.8006294965744019 1.0398057699203491 5.237305641174316 129 123 123
-0.44214048981666565 0.7459710240364075 7.244403839111328 80 73 75
-0.712367594242096 2.786248207092285 7.1278228759765625 28 22 24
-1.8285924196243286 -0.33007141947746277 5.333127498626709 80 74 77
4.633493900299072 2.522681713104248 15.941512107849121 185 179 174
-1.0199564695358276 2.5581634044647217 6.607898235321045 119 114 114
-1.6494110822677612 -0.3235431909561157 5.582970142364502 104 99 102
5.183960914611816 -1.023152232170105 16.777099609375 7 6 12
4.701549530029297 2.6766958236694336 16.411033630371094 49 42 33
-1.2495518922805786 -0.33753323554992676 6.023300647735596 96 91 92
4.927284240722656 1.4828715324401855 16.35991096496582 24 21 27
-0.8468261957168579 1.6691734790802002 6.816091537475586 138 132 134
-0.9453819990158081 0.5565890073776245 6.575235843658447 37 30 32
4.014358997344971 2.569697141647339 15.338733673095703 129 123 114
-0.9468224048614502 -0.3477932810783386 6.500439167022705 25 19 23
3.8093836307525635 -0.7675219178199768 14.878202438354492 60 54 56
-1.311863899230957 1.015022873878479 6.003248691558838 25 17 18
-1.311968207359314 1.015110731124878 6.0037150382995605 25 17 18
-0.8161537647247314 1.6627535820007324 6.82277250289917 61 55 57
-0.9806995391845703 1.4503024816513062 6.55679988861084 62 56 60
-1.8222382068634033 1.0280789136886597 5.237283229827881 34 29 29
-1.6628422737121582 1.684077501296997 5.509741306304932 103 96 96
-1.4756780862808228 0.9750711917877197 5.759438514709473 57 50 50
3.4639759063720703 2.4134421348571777 13.988066673278809 64 59 57
-1.477084994316101 1.0216635465621948 5.775549411773682 119 113 113
3.0564119815826416 -0.48985621333122253 13.459622383117676 21 13 21
-1.506316900253296 2.1387991905212402 5.773458957672119 36 31 32
-0.966253399848938 1.2196266651153564 6.575761318206787 27 21 23
-1.294749140739441 0.33580029010772705 6.048171520233154 34 29 30
-1.1056259870529175 0.33196231722831726 6.280014991760254 22 15 17
-1.6523667573928833 1.0441315174102783 5.497938632965088 17 10 11
-0.9154477119445801 -0.1555812954902649 6.538227558135986 41 34 36
-1.6523973941802979 1.0441397428512573 5.4980058670043945 17 10 11
4.8145060539245605 0.7994745373725891 16.89816665649414 61 53 42
-0.767812192440033 0.3225952982902527 6.836036205291748 24 18 20
-0.6960192322731018 2.6167829036712646 7.350255489349365 130 125 126
-1.5869783163070679 -0.09130480140447617 5.392448425292969 15 10 11
-1.2853623628616333 -0.1193719431757927 6.068236827850342 50 45 47
-0.674637496471405 2.531916856765747 7.11727237701416 131 126 127
-1.5373796224594116 2.8160219192504883 5.79351282119751 105 100 101
-0.44720515608787537 0.3496462404727936 7.438324928283691 40 33 36
-0.7654775977134705 0.3212844431400299 6.82568883895874 24 18 20
-1.1045398712158203 -0.11437920480966568 6.269351959228516 42 37 38
-0.6709893345832825 3.589810609817505 6.676212310791016 59 52 46
-1.5052685737609863 2.768984794616699 5.6834940910339355 112 106 108
2.5350875854492188 -0.2264004349708557 12.277291297912598 23 17 20
-1.6734791994094849 1.933653473854065 5.498892307281494 22 17 17
-1.8128137588500977 1.6932556629180908 5.222292900085449 78 71 72
-0.9477501511573792 3.0185110569000244 6.739924430847168 61 55 55
-0.3459377586841583 3.0018787384033203 7.7497758865356445 24 18 19
-0.36860543489456177 2.743730306625366 7.600666046142578 23 17 19
-0.5701747536659241 -0.1672958880662918 7.097908020019531 103 97 99
4.779649257659912 1.4966180324554443 16.8720703125 70 65 56
-1.1104456186294556 -2.0018861293792725 6.1866021156311035 56 51 52
-1.1104736328125 -2.0019240379333496 6.186694145202637 56 51 52
-1.1174339056015015 -1.5319548845291138 6.7547712326049805 69 62 64
4.657016277313232 2.772189140319824 16.003793716430664 73 64 53
2.661180019378662 -1.6144863367080688 12.376148223876953 17 12 13
-0.3879673182964325 2.875973701477051 7.975121974945068 49 44 45
-1.3693636655807495 0.392439067363739 5.811798572540283 106 99 102
-0.4403355121612549 0.08608203381299973 7.433492183685303 51 44 46
-0.5857148766517639 3.0109450817108154 7.365328788757324 18 13 13
-0.7635720372200012 3.620999813079834 6.818979740142822 88 78 71
3.177290439605713 0.37824422121047974 12.60628890991211 65 60 64
3.1091248989105225 0.4004615247249603 12.643769264221191 112 106 113
-0.27094539999961853 0.7092989087104797 7.654138088226318 89 84 86
-0.7424219250679016 -0.5679070949554443 6.826622486114502 22 16 16
3.386305809020996 1.7528032064437866 13.83359146118164 18 11 14
3.526367664337158 -0.9629135727882385 14.085838317871094 20 16 21
0.6421401500701904 3.5857796669006348 7.347365379333496 65 55 49
-0.6621959805488586 3.5414576530456543 6.580934524536133 90 83 77
3.3490889072418213 0.3323458433151245 13.970027923583984 41 36 44
-1.360056757926941 -2.000778913497925 5.79782247543335 94 88 90
-0.7786564230918884 0.5434591174125671 6.8371734619140625 22 16 18
-1.1228095293045044 -1.1664178371429443 6.762588024139404 44 38 40
-0.5631797909736633 -0.8264328837394714 7.323497772216797 84 76 78
-1.53330397605896 2.148944616317749 5.785062313079834 103 97 98
-1.3732408285140991 0.39316099882125854 5.821681022644043 106 99 102
-1.1376941204071045 1.2339048385620117 6.260822772979736 92 86 87
4.31358003616333 2.696774959564209 14.709578514099121 24 17 14
-0.4957561790943146 0.9807642698287964 7.412693500518799 11 5 7
-0.6436960101127625 -1.050181269645691 6.998818874359131 16 10 14
-1.663845181465149 1.9846975803375244 5.537930011749268 122 118 118
-2.0592617988586426 -0.9815175533294678 18.04376220703125 64 58 60
3.116966485977173 -0.4783845841884613 13.372177124023438 5 0 6
3.0836563110351562 2.410386800765991 13.312748908996582 30 25 31
2.7411887645721436 -1.1311229467391968 12.91490650177002 36 28 33
3.199842929840088 0.2078225016593933 13.269434928894043 19 14 21
4.900518417358398 2.6347930431365967 16.600889205932617 29 22 21
-0.13699018955230713 0.7429778575897217 7.878100395202637 81 75 79
-0.8441308736801147 1.893081784248352 6.900402069091797 43 37 36
-0.5575501322746277 2.8694515228271484 7.016808986663818 64 58 59
3.0919342041015625 -0.8830974698066711 12.654034614562988 13 7 13
0.1613537222146988 3.5447800159454346 7.352290153503418 56 44 37
-0.9175874590873718 -1.5196129083633423 6.620580673217773 43 36 36
-1.4921541213989258 1.2620909214019775 5.776878833770752 36 31 34
-1.7435457706451416 -1.956091284751892 5.163576602935791 97 92 91
3.9390604496002197 2.9164252281188965 13.625570297241211 53 45 40
-1.6779465675354004 -1.670146107673645 4.98127555847168 86 81 81
-1.7195876836776733 -1.7265210151672363 5.168697834014893 38 33 33
-1.2654064893722534 0.7940824627876282 6.012934684753418 183 176 177
-1.1107558012008667 -2.0022990703582764 6.187609672546387 56 51 52
4.542314529418945 3.2707552909851074 15.676905632019043 70 62 58
-1.5682827234268188 -1.5069248676300049 5.395737171173096 121 113 114
-1.5148646831512451 0.8265256881713867 5.916483402252197 23 17 19
-1.8222386837005615 1.0280787944793701 5.237284183502197 34 29 29
-1.8222380876541138 1.0280781984329224 5.237278461456299 34 29 29
4.965458393096924 2.3991990089416504 16.63091278076172 91 87 93
-1.7737911939620972 -1.2503423690795898 5.163949966430664 40 36 37
-1.588784098625183 -1.2858442068099976 5.435866832733154 118 110 110
-1.7675113677978516 0.976872980594635 5.12631893157959 84 78 78
3.2418580055236816 1.9032509326934814 12.484977722167969 127 120 111
-0.4713498055934906 1.3784878253936768 7.373899936676025 90 83 85
4.397054195404053 2.754359006881714 15.025200843811035 20 13 10
-1.5900682210922241 -1.075156331062317 5.436817169189453 61 59 65
3.7822768688201904 -2.8572866916656494 14.497529029846191 17 9 15
-1.7604832649230957 -0.9975464344024658 5.175772666931152 35 30 33
-0.9104206562042236 -1.2936948537826538 6.614812850952148 43 36 37
-1.7412481307983398 -0.9891564249992371 5.191019535064697 147 142 145
-0.9662594795227051 1.2196338176727295 6.57580041885376 27 21 23
-1.1350799798965454 0.9761133193969727 6.306109428405762 107 99 100
-1.1693609952926636 -1.238416314125061 6.750751972198486 128 122 119
-0.8106419444084167 1.2111527919769287 6.762421131134033 34 27 29
-0.8105088472366333 1.2109843492507935 6.761515140533447 34 27 29
-1.1228052377700806 -1.1664105653762817 6.762571334838867 44 38 40
4.610352516174316 2.6539947986602783 17.08380889892578 139 138 137
-0.8650498390197754 -1.0606689453125 6.5779571533203125 58 51 52
4.9157819747924805 2.7177114486694336 17.374399185180664 182 177 176
-1.8446053266525269 0.8406075835227966 5.313144207000732 76 70 72
4.619402885437012 2.662409543991089 17.117708206176758 139 138 137
-1.7880440950393677 -0.8087369203567505 5.227322578430176 34 28 30
3.450021505355835 -2.0766384601593018 13.763479232788086 136 130 132
-1.7691282033920288 -0.7816371321678162 5.214151859283447 37 31 33
3.870685577392578 -2.2130444049835205 14.754843711853027 57 54 59
4.000829219818115 -2.1954166889190674 14.829012870788574 128 125 132
4.7997002601623535 2.7597901821136475 15.819249153137207 69 62 59
-1.4980376958847046 -0.8187697529792786 5.866238117218018 35 29 31
3.4630985260009766 2.412813425064087 13.98439884185791 64 59 57
3.7111966609954834 -1.974714994430542 14.555036544799805 15 10 14
3.748649835586548 -1.9500046968460083 14.18994140625 53 49 49
2.698171377182007 -1.7118573188781738 12.599174499511719 78 73 75
3.7113897800445557 -1.9748355150222778 14.555893898010254 15 10 14
-1.3674144744873047 0.4036792814731598 5.910882472991943 47 41 44
5.350308418273926 -2.286221981048584 17.252178192138672 70 66 72
-1.4756815433502197 0.9750761985778809 5.759448051452637 57 50 50
3.939573287963867 -1.830291748046875 14.999725341796875 28 24 21
4.189951419830322 2.379856824874878 14.873246192932129 55 54 56
-1.3118937015533447 1.0150407552719116 6.003358364105225 25 17 18
3.7944657802581787 -1.6967028379440308 14.54704475402832 33 31 33
-1.363767385482788 1.0536086559295654 6.239837169647217 81 74 74
5.4889445304870605 -1.998679280281067 17.369070053100586 28 28 37
2.7093660831451416 -1.4159088134765625 12.679795265197754 43 37 41
4.746652603149414 -1.8480892181396484 16.77306365966797 202 191 172
4.172183036804199 2.5446085929870605 15.456491470336914 158 155 148
4.379307746887207 2.4748027324676514 15.26132583618164 93 87 79
4.470808506011963 2.4221720695495605 14.949448585510254 157 148 143
3.354222059249878 -1.4552668333053589 13.529699325561523 119 114 117
5.043693542480469 -1.8540449142456055 17.1568603515625 155 146 137
5.111667633056641 -1.7970889806747437 17.312700271606445 11 6 4
5.055558204650879 -1.7105909585952759 16.441713333129883 83 83 88
5.363402366638184 -1.7584208250045776 17.1514892578125 31 31 38
3.7905476093292236 -1.471763014793396 14.598329544067383 20 15 16
5.079453468322754 -1.800086498260498 17.440011978149414 178 169 152
-1.0749486684799194 -0.5647999048233032 6.299529552459717 136 131 133
3.3509609699249268 -1.1021173000335693 13.006119728088379 44 39 39
5.009650707244873 -1.295629620552063 17.267974853515625 151 143 131
2.7550830841064453 -0.9641465544700623 12.975504875183105 22 14 19
4.013487339019775 -1.0094544887542725 13.542320251464844 62 58 56
4.645043849945068 -1.1178206205368042 14.984657287597656 11 10 17
-1.4366103410720825 -0.3610425591468811 5.7261857986450195 73 67 69
-1.507771611213684 -0.37220290303230286 5.898123264312744 78 71 74
-1.4365897178649902 -0.3610505163669586 5.726142406463623 73 67 69
-1.2177425622940063 -0.32818102836608887 5.880363941192627 72 66 68
-1.203912615776062 -0.3384735882282257 5.973601341247559 21 16 17
5.29826545715332 -0.7988859415054321 17.11290740966797 39 38 44
-0.6709716320037842 3.589812755584717 6.676191806793213 59 52 46
-1.671241044998169 2.777498722076416 5.383424758911133 53 47 48
-1.4363689422607422 3.0557754039764404 5.944589614868164 24 18 22
-1.3728053569793701 3.023059606552124 6.049503803253174 20 14 16
4.928343772888184 -0.5755563974380493 17.067659378051758 108 100 91
5.461270809173584 -0.5953325033187866 17.760221481323242 28 28 35
-1.2394883632659912 -0.1491047739982605 5.94749641418457 111 106 107
-1.860554814338684 2.6287455558776855 5.290521621704102 108 101 101
0.11623532325029373 3.5568695068359375 7.4146928787231445 72 62 55
-1.1045130491256714 -0.11437259614467621 6.269127368927002 42 37 38
2.5351991653442383 -0.22640827298164368 12.277725219726562 23 17 20
3.466895818710327 -0.026501836255192757 14.087950706481934 11 6 11
5.115968704223633 -0.08767812699079514 16.685327529907227 9 9 17
3.0709996223449707 -0.021735597401857376 12.255948066711426 53 48 52
-1.8380097150802612 2.354128837585449 5.205951690673828 95 91 90
4.959130764007568 0.12635932862758636 17.258516311645508 88 80 69
4.83016300201416 0.12673062086105347 15.910205841064453 19 18 28
-1.116317629814148 0.07963816821575165 6.342780590057373 109 103 105
-1.6540318727493286 2.330625295639038 5.377928256988525 62 57 58
-0.8105997443199158 2.997748374938965 6.934403419494629 24 18 18
3.508348226547241 0.20699235796928406 14.142871856689453 34 28 34
-1.0070433616638184 2.7058017253875732 6.333035945892334 60 53 55
-1.3595712184906006 2.5877394676208496 6.070788860321045 105 100 100
-1.1636948585510254 2.5079400539398193 6.1180524826049805 69 64 64
-1.5053534507751465 2.353285074234009 5.779745101928711 97 91 92
-1.242423415184021 2.6674306392669678 6.520377159118652 68 63 63
3.2233822345733643 0.37860018014907837 13.002801895141602 90 85 92
4.8408074378967285 0.5767680406570435 16.94748306274414 96 88 76
2.8125123977661133 0.39727529883384705 11.998723030090332 78 73 83
5.0411481857299805 0.5929093956947327 16.633251190185547 73 72 81
3.3812739849090576 0.6502680778503418 13.756279945373535 23 19 25
-1.5061737298965454 2.1386594772338867 5.773122787475586 36 31 32
-1.5063502788543701 2.138834238052368 5.77354097366333 36 31 32
4.8147053718566895 0.7995049953460693 16.898923873901367 61 53 42
2.9583847522735596 0.6802151799201965 13.286620140075684 20 15 25
-1.1056280136108398 0.33196327090263367 6.280021667480469 22 15 17
-0.6747269630432129 2.532036304473877 7.117582321166992 131 126 127
-1.6934483051300049 1.9370596408843994 5.4920783042907715 129 125 125
3.612114429473877 0.9055357575416565 14.60036849975586 8 2 6
-1.3456721305847168 2.0886149406433105 6.059885501861572 33 26 26
-1.5084598064422607 1.9109746217727661 5.806540489196777 146 140 142
4.60337495803833 1.166395664215088 15.203451156616211 89 86 93
-1.86971914768219 1.7334275245666504 5.327036380767822 40 33 34
-1.029713749885559 2.1073966026306152 6.5522780418396 16 10 10
4.779290676116943 1.4964890480041504 16.870792388916016 70 65 56
4.7335734367370605 1.343527913093567 15.678303718566895 105 102 108
4.779311180114746 1.49651300907135 16.87088966369629 70 65 56
-1.4970459938049316 1.6936615705490112 5.780244827270508 27 20 21
-0.9460937976837158 1.8228145837783813 6.352626323699951 91 84 84
-1.8300931453704834 1.4770952463150024 5.234529972076416 118 113 113
4.985214710235596 1.7085745334625244 16.523324966430664 31 28 31
-1.8093098402023315 1.4819087982177734 5.233850479125977 98 93 93
-1.6153991222381592 0.582879900932312 5.48040771484375 77 71 75
-1.3649659156799316 1.730134129524231 6.249246597290039 69 62 63
-1.657855749130249 1.4827489852905273 5.499292373657227 55 49 51
-1.8268895149230957 1.28537118434906 5.226081371307373 124 117 118
-0.16124074161052704 1.8402540683746338 7.9157395362854 15 10 12
-1.6307957172393799 1.2390804290771484 5.44693660736084 158 150 151
-1.6366442441940308 1.2530360221862793 5.509709358215332 123 116 116
-1.636607050895691 1.2130658626556396 5.475217819213867 86 80 82
-0.9593020081520081 1.451277256011963 6.618844509124756 163 156 161
-0.9644444584846497 2.247394323348999 6.3184075355529785 109 104 105
-1.3672821521759033 0.4201343059539795 5.910427093505859 115 108 113
3.022620916366577 0.4447922706604004 13.43680191040039 15 8 17
4.775343894958496 -2.7457621097564697 15.716012954711914 24 21 31
3.3491787910461426 0.3323603570461273 13.970464706420898 41 36 44
-0.643661618232727 -1.0501492023468018 6.998642921447754 16 10 14
5.804759979248047 -2.1387691497802734 17.42694091796875 24 20 30
-0.7424395680427551 -0.567920446395874 6.826705455780029 22 16 16
2.1620383262634277 0.1940079927444458 10.463763236999512 17 12 16
4.172159194946289 2.5445902347564697 15.456396102905273 158 155 148
-0.8428875803947449 3.116835594177246 7.210216522216797 62 56 57
3.663170099258423 -0.26896795630455017 14.617630004882812 28 23 28
-1.2103725671768188 3.0299232006073 6.297750949859619 94 88 93
0.16455480456352234 3.5059781074523926 7.284112930297852 70 58 51
0.024961018934845924 3.5309765338897705 7.240383625030518 148 138 130
0.2458835393190384 3.5869181156158447 7.02238655090332 122 112 107
-1.6737899780273438 0.8107142448425293 5.50083589553833 30 21 24
-0.7631649971008301 3.619494915008545 6.8163862228393555 88 78 71
3.387866497039795 1.7538307905197144 13.841286659240723 18 11 14
1.221675157546997 2.6706295013427734 10.19127082824707 10 6 9
-0.9468347430229187 -0.3477957248687744 6.500482559204102 25 19 23
4.750969409942627 1.7855199575424194 15.591211318969727 48 42 45
2.5912272930145264 2.8421154022216797 12.480267524719238 20 15 17
3.225196599960327 1.5895466804504395 13.780405044555664 33 27 32
-0.7372487783432007 2.8837227821350098 7.3770527839660645 64 58 60
-1.7432323694229126 -0.7228120565414429 5.219140529632568 72 67 71
2.9622395038604736 2.152151584625244 13.008539199829102 65 59 61
3.60223126411438 0.10410703718662262 14.16774845123291 158 151 152
4.142694473266602 2.8821558952331543 15.259350776672363 37 33 31
-0.543783962726593 3.5915207862854004 7.121262550354004 99 91 85
-0.7786350250244141 0.5434540510177612 6.837080478668213 22 16 18
-1.672419548034668 1.6786500215530396 5.423931121826172 116 109 110
-1.5919294357299805 -1.9676934480667114 5.383322715759277 39 33 31
-1.5625711679458618 -1.9409130811691284 5.40291690826416 35 29 29
-1.739446759223938 -1.7172467708587646 5.09491491317749 43 38 37
-1.7004870176315308 -1.7084710597991943 5.130896091461182 47 42 42
-1.594468593597412 -1.764556646347046 5.474685192108154 75 67 67
-1.5667266845703125 -1.7023063898086548 5.4148430824279785 25 18 17
-0.8665944933891296 -1.9977543354034424 6.605227470397949 42 36 34
-1.3824212551116943 -1.5633388757705688 6.887380123138428 69 58 53
-1.602535367012024 -1.2476176023483276 5.4717302322387695 47 38 38
3.5023813247680664 -2.8661210536956787 14.087630271911621 31 24 28
4.628465175628662 -3.187690258026123 15.917746543884277 119 114 125
-1.102368950843811 -1.2914875745773315 6.732907295227051 49 42 44
-1.732795000076294 -0.9847857356071472 5.176588535308838 139 134 137
-1.1590615510940552 -1.2332334518432617 6.710325717926025 129 123 120
-0.9014168977737427 -1.053439736366272 6.570680618286133 37 31 32
-1.798883080482483 -0.8114273548126221 5.247110366821289 38 33 34
3.0917563438415527 -1.9305222034454346 12.430570602416992 26 20 22
3.492314338684082 -2.181023359298706 14.038980484008789 25 20 21
-1.7069387435913086 -0.7620826363563538 5.098591327667236 47 41 43
3.6659913063049316 -2.2117974758148193 14.748556137084961 79 74 75
3.451542615890503 -2.035784959793091 13.632026672363281 125 121 125
-1.4029383659362793 -0.8225558400154114 5.748566627502441 116 111 112
-1.4905318021774292 -0.818374752998352 5.839137077331543 30 24 26
-1.3957152366638184 -0.7947331070899963 5.756496429443359 37 32 33
3.6656858921051025 -1.9562698602676392 14.102375984191895 139 136 140
2.898064613342285 -1.876315712928772 13.721636772155762 82 76 78
3.7114603519439697 -1.9748828411102295 14.556253433227539 15 10 14
4.8387322425842285 -1.9838500022888184 16.58245277404785 106 96 87
4.838140964508057 -1.9836159944534302 16.580480575561523 106 96 87
3.479768753051758 -1.6086125373840332 13.915910720825195 129 126 132
4.8279523849487305 -1.9564685821533203 17.077516555786133 150 140 124
3.4108402729034424 -1.4808341264724731 13.722657203674316 125 121 127
3.6365718841552734 -1.495854377746582 14.081108093261719 143 142 149
4.421981334686279 -1.5499063730239868 14.980712890625 121 114 103
2.729576349258423 -1.195709466934204 12.825424194335938 29 23 27
2.884618043899536 -1.0122199058532715 11.68984603881836 26 20 22
5.388556480407715 -1.4620881080627441 16.849088668823242 42 39 50
5.474180221557617 -1.4749095439910889 17.653417587280273 158 157 165
4.645014762878418 -1.1178128719329834 14.984553337097168 11 10 17
5.143476486206055 -1.0870682001113892 15.459924697875977 20 17 28
3.524740695953369 -0.9625360369682312 14.079049110412598 20 16 21
-1.4366281032562256 -0.3610554337501526 5.72623348236084 73 67 69
-1.8215749263763428 -0.3262007534503937 5.238781929016113 38 32 35
-0.8994865417480469 -0.34553349018096924 6.560983180999756 36 29 33
4.997393608093262 -0.821229875087738 16.119213104248047 137 137 144
5.008114337921143 -0.8298358917236328 17.337072372436523 161 155 140
5.17360258102417 -0.8125383853912354 17.04425621032715 17 17 23
-1.2626826763153076 -0.15020447969436646 6.012366771697998 110 105 106
-0.9174051284790039 -0.12883788347244263 6.470020771026611 38 32 33
3.1039206981658936 -0.013710691593587399 12.410955429077148 88 82 87
3.508002281188965 0.2069503664970398 14.141283988952637 34 28 34
3.1552822589874268 0.21679122745990753 13.514898300170898 32 25 33
-1.6584728956222534 0.1386500597000122 5.485100269317627 155 149 151
-1.6308729648590088 0.12801098823547363 5.474437236785889 33 27 29
-1.8146984577178955 0.15779301524162292 5.170668125152588 124 114 116
5.046864032745361 0.5086538195610046 16.53948402404785 115 115 125
3.156599998474121 0.42235517501831055 13.045843124389648 146 141 151
4.83125638961792 0.5380494594573975 16.176469802856445 54 52 61
3.363352060317993 0.7771181464195251 15.104716300964355 74 68 78
3.612518548965454 0.905658483505249 14.602076530456543 8 2 6
-1.4488487243652344 0.37213701009750366 5.7834672927856445 123 117 119
-1.3632838726043701 0.4193620979785919 5.9000244140625 115 108 113
-0.584439754486084 0.5404939651489258 6.9867682456970215 92 85 89
4.779447555541992 1.4965548515319824 16.87135887145996 70 65 56
-0.3151768743991852 0.7410836815834045 7.527951240539551 45 39 41
-1.5487070083618164 0.5906734466552734 5.988966464996338 94 87 89
-0.7760820388793945 0.7525890469551086 6.6714630126953125 18 12 14
4.883552551269531 1.8109111785888672 16.261676788330078 101 96 99
2.723447322845459 1.4783731698989868 12.697860717773438 82 77 82
4.611785411834717 1.8873698711395264 16.350454330444336 87 79 70
-1.2816047668457031 0.7114449739456177 6.011341571807861 121 114 116
-1.3359944820404053 0.7931030988693237 6.037476539611816 30 22 23
-1.3345648050308228 0.8210297226905823 6.206148147583008 166 160 160
4.965251922607422 2.399127960205078 16.630126953125 91 87 93
-1.6516157388687134 0.8106849789619446 5.512599945068359 169 161 163
4.320134162902832 2.3828296661376953 15.565869331359863 142 137 131
3.979931354522705 2.4687581062316895 15.048489570617676 134 130 120
-1.357694149017334 1.0496302843093872 6.212465286254883 92 85 85
4.7995500564575195 2.75968599319458 15.818720817565918 69 62 59
-1.5186161994934082 1.0324313640594482 5.800560474395752 23 15 17
-1.4770760536193848 1.0216630697250366 5.775526523590088 119 113 113
-1.4264612197875977 1.0002187490463257 5.654994964599609 132 125 126
-0.810651421546936 1.2111760377883911 6.762548446655273 34 27 29
4.373836994171143 2.8333070278167725 15.534780502319336 89 82 76
-1.6523706912994385 1.044132947921753 5.49794864654541 17 10 11
-1.7633920907974243 0.9746049642562866 5.118626594543457 84 78 78
4.542303085327148 3.2707738876342773 15.676795959472656 70 62 58
-0.9806689620018005 1.4501551389694214 6.556229114532471 62 56 60
-1.5218855142593384 1.2264729738235474 5.546146869659424 73 66 71
-1.6327825784683228 1.2416049242019653 5.454127311706543 155 147 148
-1.6319829225540161 1.2699817419052124 5.576424598693848 107 99 101
2.5911035537719727 2.8419477939605713 12.479516983032227 20 15 17
-1.3170472383499146 1.4562026262283325 6.021417140960693 20 14 16
-0.8161899447441101 1.6628012657165527 6.822902202606201 61 55 57
-1.8387837409973145 1.2725168466567993 5.190031051635742 142 134 135
1.221665859222412 2.6705901622772217 10.191131591796875 10 6 9
-0.4332687556743622 2.178860902786255 7.936920166015625 20 14 15
-1.3283871412277222 1.6811131238937378 6.079440116882324 65 58 59
-1.8300867080688477 1.4770965576171875 5.234525203704834 118 113 113
0.11958665400743484 2.581836223602295 7.950467586517334 99 94 99
-1.8342041969299316 1.691771149635315 5.154599666595459 115 110 111
-0.8410546779632568 2.3351643085479736 6.885966777801514 56 50 51
-1.364098072052002 2.111246347427368 6.111753463745117 42 35 36
-1.0076313018798828 2.2945594787597656 6.428586006164551 86 81 82
-1.5062296390533447 2.1387131214141846 5.773253440856934 36 31 32
-1.2285423278808594 2.3949472904205322 6.387906074523926 141 135 136
-1.2507535219192505 2.6855368614196777 6.564345836639404 67 62 62
-1.1699953079223633 2.519749879837036 6.149160385131836 71 65 65
-1.8604122400283813 2.153533935546875 5.203463554382324 109 104 104
-1.0924181938171387 2.851897954940796 6.630529403686523 123 116 118
-1.0444514751434326 3.0050268173217773 6.5891194343566895 75 70 70
0.6277135014533997 3.471776008605957 7.09506368637085 95 85 80
-0.5437871217727661 3.5915277004241943 7.121275901794434 99 91 85
-0.7635680437088013 3.6205501556396484 6.818159580230713 88 78 71
-1.5625536441802979 -1.9408938884735107 5.402863025665283 35 29 29
-1.5707051753997803 -1.7144383192062378 5.380559921264648 34 28 26
-1.5833299160003662 -1.5248236656188965 5.421243190765381 112 107 108
-1.7271955013275146 -1.2503986358642578 5.194488048553467 39 35 36
-0.8984072804450989 -1.5478050708770752 6.6862897872924805 35 29 28
-1.3824185132980347 -1.5633299350738525 6.887363433837891 69 58 53
-1.6002285480499268 -1.048272967338562 5.407711029052734 116 111 114
-1.728264570236206 -0.9839407205581665 5.164010524749756 154 150 153
4.690425872802734 -2.985109567642212 16.275426864624023 26 22 31
-0.9013606309890747 -1.05340576171875 6.570470333099365 37 31 32
-1.7955689430236816 -0.8121649026870728 5.241499900817871 86 80 82
-1.7484960556030273 -0.781541645526886 5.22393798828125 38 32 34
4.092828750610352 -2.2567291259765625 15.49954891204834 44 42 46
-1.4905682802200317 -0.8183902502059937 5.8392252922058105 30 24 26
-1.4012675285339355 -0.8010926842689514 5.80509614944458 36 31 32
5.3440775871276855 -2.3197343349456787 17.518945693969727 56 50 54
5.03809928894043 -2.099334955215454 16.609928131103516 68 61 63
4.081646919250488 -1.8868211507797241 15.462362289428711 47 42 34
4.838824272155762 -1.983892560005188 16.582796096801758 106 96 87
4.837882041931152 -1.983479619026184 16.57953643798828 106 96 87
3.667823076248169 -1.6805946826934814 14.640335083007812 135 132 139
4.827983856201172 -1.9564799070358276 17.0776309967041 150 140 124
5.356717586517334 -1.840242862701416 17.5710506439209 78 76 79
4.397485733032227 -1.5293946266174316 14.902127265930176 146 139 129
4.571161270141602 -1.4614176750183105 14.436128616333008 7 7 15
-1.2572853565216064 -0.5748092532157898 6.0068278312683105 59 54 55
5.235690116882324 -1.305083155632019 17.1683406829834 121 120 127
-1.4366703033447266 -0.36105862259864807 5.726334571838379 73 67 69
4.9227776527404785 -0.9321082234382629 15.554264068603516 50 49 58
4.8871636390686035 -0.8895507454872131 15.829058647155762 131 132 137
4.927190780639648 -0.5753741264343262 17.063377380371094 108 100 91
-1.5835751295089722 -0.10667949914932251 5.496875286102295 31 25 27
5.170799732208252 -0.34807923436164856 17.91391944885254 145 137 125
5.1143269538879395 -0.08764194697141647 16.67997932434082 9 9 17
5.114873886108398 0.5269240736961365 16.780193328857422 112 112 122
-0.5889525413513184 0.5458703637123108 7.011326313018799 78 71 75
4.786719799041748 1.714278221130371 16.664859771728516 40 37 37
-0.7760505080223083 0.7525708079338074 6.671328067779541 18 12 14
3.215590476989746 1.571907877922058 13.049522399902344 82 75 78
4.965935707092285 2.3994662761688232 16.632633209228516 91 87 93
-1.65160071849823 0.8106812834739685 5.51256799697876 169 161 163
4.6545844078063965 2.5954158306121826 16.890268325805664 137 132 126
4.857421875 2.6459298133850098 16.35148048400879 158 148 143
4.292592525482178 2.6838629245758057 16.377595901489258 129 125 114
-1.3576945066452026 1.0496304035186768 6.212465763092041 92 85 85
-1.4756819009780884 0.9750785231590271 5.759449005126953 57 50 50
4.80005407333374 2.7599685192108154 15.82044506072998 69 62 59
-1.4770818948745728 1.0216615200042725 5.775542259216309 119 113 113
-1.307097315788269 1.069564938545227 6.010134220123291 81 73 74
4.373891353607178 2.8333468437194824 15.534994125366211 89 82 76
4.520815372467041 3.030463457107544 16.507633209228516 23 18 14
-1.6909953355789185 1.0664268732070923 5.625480651855469 66 58 60
-1.8156137466430664 1.0043081045150757 5.269870281219482 104 99 99
-1.854250192642212 1.0374078750610352 5.233985900878906 32 26 28
3.938849925994873 2.916271209716797 13.624859809875488 53 45 40
-1.634251594543457 1.2423768043518066 5.4565277099609375 155 147 148
-1.0787006616592407 1.4480178356170654 6.361542701721191 121 114 118
-1.7791297435760498 1.247191309928894 5.164792060852051 159 151 153
-1.8093079328536987 1.481909990310669 5.2338480949401855 98 93 93
-1.8300566673278809 1.4770853519439697 5.234472751617432 118 113 113
-1.4970335960388184 1.6936569213867188 5.780185222625732 27 20 21
-1.497047781944275 1.6936649084091187 5.780243873596191 27 20 21
-1.673442006111145 1.933624029159546 5.498823165893555 22 17 17
-0.44194716215133667 2.7053327560424805 7.517998218536377 83 78 79
-1.1263388395309448 2.2541873455047607 6.06894063949585 130 124 125
-1.2390073537826538 2.4088973999023438 6.420218467712402 128 122 123
-1.2346808910369873 2.6123411655426025 6.335808753967285 135 129 129
-1.661910891532898 2.4060351848602295 5.664409637451172 102 95 96
-1.0768593549728394 3.049717426300049 6.582979679107666 26 21 21
0.11557672917842865 3.602776527404785 7.52238655090332 76 66 59
-1.537384271621704 2.81603741645813 5.793537616729736 105 100 101
-1.5864002704620361 -1.970468282699585 5.385652542114258 39 33 31
-1.5625488758087158 -1.9408890008926392 5.40285062789917 35 29 29
-1.5796748399734497 -1.7224712371826172 5.402763366699219 34 28 26
-1.566699743270874 -1.702330231666565 5.414797782897949 25 18 17
-1.5709742307662964 -1.4976695775985718 5.414891242980957 21 15 14
-1.5746275186538696 -1.4756287336349487 5.426185131072998 73 66 67
-1.657304286956787 -1.2127833366394043 5.06264066696167 42 38 40
-1.602553129196167 -1.2476264238357544 5.471767425537109 47 38 38
-1.3824195861816406 -1.563331127166748 6.8873677253723145 69 58 53
-1.1828174591064453 -1.358615517616272 6.728069305419922 51 40 35
-0.8616568446159363 -1.2836461067199707 6.562242031097412 37 30 30
-1.1884222030639648 -1.315911054611206 6.846985340118408 123 115 111
-1.5490341186523438 -1.0145270824432373 5.338709354400635 33 27 28
-0.9479687213897705 -1.1037594079971313 6.904947280883789 23 18 18
2.9622244834899902 -1.85010826587677 11.908782958984375 24 17 19
3.831073045730591 -2.292285919189453 14.978629112243652 51 47 50
3.308711051940918 -1.920809268951416 13.182812690734863 81 76 78
3.7028656005859375 -2.039402961730957 14.224449157714844 133 131 135
3.8007495403289795 -2.0661704540252686 14.326674461364746 43 41 45
3.46772837638855 -1.533573865890503 13.809050559997559 136 132 140
5.129523277282715 -1.829654335975647 16.450122833251953 157 155 163
-1.611174464225769 -0.5614727735519409 5.382006645202637 52 46 48
3.7896177768707275 -1.4713495969772339 14.594799995422363 20 15 16
4.9056196212768555 -1.7190812826156616 16.468772888183594 91 87 88
2.467883825302124 -1.191052794456482 11.664947509765625 91 86 91
3.3076179027557373 -1.2273660898208618 13.540735244750977 40 33 35
3.449859857559204 -1.052546739578247 13.491293907165527 139 137 142
4.897775650024414 -0.5686265826225281 16.708816528320312 54 51 53
-1.6740829944610596 -0.08211628347635269 5.341953754425049 171 164 168
5.08784818649292 0.05347010865807533 16.56517219543457 126 126 136
4.674928665161133 0.4979221224784851 16.075014114379883 59 55 56
5.084234237670898 0.5326285362243652 17.071626663208008 56 54 63
-0.5985326766967773 0.5485182404518127 7.061027526855469 79 72 76
-0.8345009684562683 0.5689906477928162 6.707426071166992 102 97 99
3.950526475906372 1.200322151184082 13.690441131591797 58 54 50
-1.6878498792648315 0.5998256206512451 5.633168697357178 85 78 81
5.348509311676025 1.9332112073898315 17.814878463745117 101 97 100
-1.2949340343475342 0.794492781162262 6.020777702331543 138 132 132
4.011806011199951 2.419161796569824 15.400679588317871 25 27 25
4.459125518798828 2.57035493850708 16.105121612548828 40 42 49
4.6155781745910645 2.507559299468994 15.496879577636719 176 167 161
-1.475703239440918 0.9750871658325195 5.759500026702881 57 50 50
4.358527660369873 2.9024083614349365 15.877361297607422 23 17 13
4.45921516418457 2.8138315677642822 15.213134765625 31 23 22
