ply
format ascii 1.0
element vertex 90
property float x
property float y
property float z
property uchar red
property uchar green
property uchar blue
end_header
-18.40401268005371 -8.707494735717773 37.61123275756836 100 95 92
-18.00672721862793 -1.664115309715271 37.278167724609375 44 39 41
-21.01523780822754 8.92674732208252 44.100830078125 71 65 69
-19.753948211669922 1.958864688873291 41.83769989013672 97 94 100
-15.75113582611084 14.378082275390625 33.89333724975586 75 70 70
-15.75113582611084 14.378082275390625 33.89333724975586 75 70 70
-17.14472770690918 1.115729570388794 37.06747817993164 72 65 70
-20.7180233001709 -0.032320600003004074 45.2491455078125 70 62 66
-17.873849868774414 2.3088817596435547 39.155033111572266 107 102 105
-17.347366333007812 3.613844871520996 38.23363494873047 66 59 68
-18.880603790283203 -3.1935670375823975 41.714813232421875 15 10 11
-16.85086441040039 4.35153865814209 37.087406158447266 25 19 21
-18.5323543548584 3.467376947402954 41.499881744384766 25 19 22
-18.5323543548584 3.467376947402954 41.499881744384766 25 19 22
-14.972942352294922 -2.072068214416504 34.30083465576172 73 66 69
-18.690868377685547 5.009877681732178 43.58567428588867 95 89 90
-16.20330810546875 1.150391697883606 37.827152252197266 76 69 72
-15.540315628051758 -0.08805864304304123 36.359703063964844 66 58 63
-16.590375900268555 4.286943435668945 39.96417236328125 91 84 86
-16.590375900268555 4.286943435668945 39.96417236328125 91 84 86
-15.564290046691895 0.5676491260528564 38.10437774658203 28 21 23
-15.339228630065918 -1.1529229879379272 37.84913635253906 64 58 61
-13.675442695617676 -2.520261287689209 33.83087921142578 23 17 19
-17.363040924072266 -2.2066919803619385 42.92864990234375 68 62 65
-17.363040924072266 -2.2066919803619385 42.92864990234375 68 62 65
-14.95842456817627 -5.083913326263428 37.61710739135742 25 19 20
-14.114795684814453 2.5970327854156494 35.995635986328125 29 23 25
-17.859085083007812 1.8936914205551147 45.85447311401367 13 7 9
-15.435275077819824 2.6641852855682373 39.71936798095703 69 63 65
-15.314059257507324 -1.077587366104126 39.88840103149414 58 50 54
-17.45188331604004 1.1496351957321167 45.862388610839844 63 55 59
-17.45188331604004 1.1496351957321167 45.862388610839844 63 55 59
-12.458520889282227 -1.255418300628662 33.109893798828125 58 52 56
-15.01295280456543 -4.137049198150635 40.15048599243164 30 25 26
-14.682051658630371 -5.1132121086120605 39.32228469848633 24 18 21
-13.591204643249512 -0.595674455165863 36.74046325683594 30 23 25
-13.762351989746094 0.8385977745056152 38.10123825073242 56 50 52
-16.344430923461914 2.5911097526550293 45.450199127197266 76 72 76
-16.344430923461914 2.5911097526550293 45.450199127197266 76 72 76
-12.942914009094238 1.4172667264938354 35.98384094238281 78 73 78
-15.30099868774414 0.530521035194397 42.64313888549805 68 62 64
-15.267308235168457 -5.450362205505371 44.51139831542969 64 59 61
-5.993343353271484 -2.073840618133545 17.388572692871094 61 56 58
-16.26983642578125 4.153101444244385 47.447021484375 40 34 36
-12.199899673461914 -3.136522054672241 35.92952346801758 55 48 51
-11.59165096282959 -3.2955591678619385 35.108154296875 65 58 61
-12.94035530090332 -3.9562318325042725 39.353782653808594 31 25 27
-12.182829856872559 1.5096405744552612 38.79567337036133 49 42 45
-1.640285611152649 0.7365097999572754 5.2479472160339355 50 45 47
-11.021116256713867 -6.648459434509277 35.21977615356445 51 47 49
-11.803719520568848 -1.544365644454956 37.89525604248047 73 68 69
-13.043237686157227 -4.816911220550537 42.536094665527344 62 58 62
-11.751145362854004 -1.483985185623169 38.64724349975586 49 43 45
-12.511944770812988 -0.5476837158203125 42.18794631958008 46 41 44
-12.375141143798828 2.5678811073303223 41.7138557434082 48 42 47
-10.56468677520752 0.4353902339935303 35.79350662231445 50 45 47
-14.004159927368164 1.6258668899536133 47.97977066040039 46 41 44
-9.705341339111328 -2.192183256149292 34.06184768676758 44 39 41
-2.0049402713775635 -1.0189337730407715 13.462095260620117 51 44 49
-2.905179977416992 2.2573840618133545 32.812625885009766 55 50 52
-18.594823837280273 0.8131990432739258 41.636444091796875 17 10 13
-18.88737678527832 -3.194744110107422 41.72996139526367 15 10 11
-16.582534790039062 4.284913063049316 39.9453239440918 91 84 86
-16.60561752319336 4.290829658508301 40.00092697143555 91 84 86
-20.175941467285156 8.142187118530273 46.0587043762207 74 68 70
-8.743528366088867 0.3167678415775299 22.367664337158203 88 81 84
-16.592124938964844 4.287398338317871 39.96836853027344 91 84 86
-15.882830619812012 1.8457050323486328 38.327667236328125 149 142 144
-13.716529846191406 -1.5428396463394165 32.90996170043945 16 11 12
-13.361927032470703 -0.7136257290840149 33.883052825927734 122 115 118
-20.174692153930664 8.141324996948242 46.05426788330078 74 68 70
-15.964465141296387 2.6777377128601074 43.836585998535156 108 104 106
-17.60592269897461 1.717880368232727 39.66850280761719 115 109 111
-13.758220672607422 0.4981129467487335 35.2247314453125 148 140 142
-18.111818313598633 2.0901925563812256 43.789981842041016 158 151 153
-14.808337211608887 -1.6724402904510498 35.56875991821289 16 11 12
-16.592851638793945 4.287571907043457 39.97017288208008 91 84 86
-16.604564666748047 4.290582656860352 39.998287200927734 91 84 86
-2.6349315643310547 -4.263525009155273 45.54962158203125 112 107 102
0.9174807667732239 -0.38553962111473083 7.633683681488037 113 106 113
-18.614120483398438 0.814016580581665 41.679954528808594 17 10 13
-11.613764762878418 1.1266196966171265 33.42607879638672 34 29 32
-11.107604026794434 1.2590935230255127 27.03870964050293 28 21 23
-16.312379837036133 1.8911793231964111 39.38854217529297 155 148 150
-1.8323538303375244 5.643014430999756 49.919677734375 121 113 107
-20.20517921447754 8.154047966003418 46.12586975097656 74 68 70
-2.547461986541748 -5.71926212310791 43.29874801635742 149 143 135
-2.6921305656433105 -4.876859188079834 45.91321563720703 151 145 139
-2.1003732681274414 -2.9527335166931152 36.978729248046875 118 114 106
-3.500528573989868 2.6783792972564697 39.221221923828125 55 50 52
