ply
format ascii 1.0
element vertex 716
property float x
property float y
property float z
property uchar red
property uchar green
property uchar blue
end_header
-1.8420120477676392 2.476187229156494 36.803619384765625 121 113 105
-1.9474164247512817 5.400424957275391 39.24472427368164 48 44 57
-1.881758689880371 2.199416160583496 38.10118103027344 92 81 71
-1.8131370544433594 8.166519165039062 38.71449279785156 53 52 62
-1.8357473611831665 -16.139814376831055 39.17115020751953 56 56 62
-1.7762387990951538 9.711318016052246 39.29099655151367 50 47 50
-1.7733877897262573 4.368668556213379 39.5185432434082 39 30 23
-1.807471513748169 4.9488725662231445 40.32212448120117 57 51 59
-1.6661587953567505 0.6497514843940735 38.198265075683594 204 207 209
-1.6661587953567505 0.6497514843940735 38.198265075683594 204 207 209
-1.7179914712905884 3.69779896736145 40.5811767578125 114 102 89
-1.7469449043273926 12.730208396911621 43.0211181640625 58 52 43
-1.622852087020874 8.50546932220459 39.15143966674805 66 68 77
-1.5275604724884033 13.849059104919434 38.38306427001953 15 11 10
-1.5130627155303955 7.0513505935668945 39.48052978515625 42 40 57
-1.479019284248352 8.144855499267578 39.29170227050781 79 81 90
-1.5877361297607422 12.316767692565918 42.34621047973633 141 136 128
-1.3925012350082397 1.2277581691741943 38.430870056152344 90 83 79
-1.3928375244140625 5.950292110443115 39.23477554321289 39 38 61
-1.4352518320083618 4.243335247039795 40.83820343017578 82 74 65
-1.4179977178573608 10.995244979858398 40.292118072509766 129 119 106
-1.3830348253250122 13.711557388305664 40.251190185546875 34 30 29
-1.234488844871521 2.208925247192383 39.090126037597656 66 53 44
-1.2016384601593018 3.8585398197174072 39.25189208984375 78 69 60
-1.2285220623016357 11.043415069580078 41.610328674316406 117 106 101
-1.2787435054779053 16.519214630126953 41.566978454589844 86 82 78
-1.096306324005127 6.455753803253174 39.000953674316406 27 27 51
-1.2324342727661133 12.046895027160645 43.867835998535156 120 109 98
-1.1389142274856567 11.529444694519043 41.994606018066406 127 116 106
-1.0502798557281494 4.234324932098389 40.162532806396484 75 67 59
-1.0597730875015259 7.3394951820373535 40.59685516357422 51 50 67
-0.974219024181366 1.7745532989501953 38.944725036621094 49 37 29
-0.9533284902572632 6.13347053527832 39.23564147949219 34 32 58
-1.0000439882278442 15.855101585388184 41.35580825805664 21 16 13
-0.8853810429573059 5.172209739685059 38.585811614990234 43 40 59
-0.905815839767456 3.0807695388793945 39.763553619384766 130 120 108
-0.8775988221168518 3.2767910957336426 39.268409729003906 118 109 96
-0.870721697807312 4.689767837524414 39.73920440673828 108 103 106
-0.8443607091903687 6.84523344039917 38.980838775634766 38 37 53
-0.9122073650360107 4.43889856338501 39.84894561767578 14 7 4
-0.8025791049003601 7.930575847625732 39.15959930419922 59 57 67
-0.8025791049003601 7.930575847625732 39.15959930419922 59 57 67
-0.7267349362373352 15.595317840576172 40.19230651855469 90 84 80
-0.6893969178199768 5.715299129486084 39.68561553955078 17 14 30
-0.6641130447387695 2.7640914916992188 40.06848907470703 121 114 105
-0.7741896510124207 7.016549587249756 42.58823776245117 53 52 65
-0.6169455051422119 2.2012739181518555 38.69282531738281 64 52 42
-0.5603571534156799 4.407054901123047 39.68735885620117 51 44 39
-0.5131850838661194 4.154953479766846 39.902164459228516 104 95 85
-0.3572612404823303 15.59002685546875 37.772735595703125 84 79 76
-0.4551970660686493 7.0803446769714355 39.61568832397461 30 29 44
-0.3702569305896759 3.8391666412353516 38.95578384399414 67 58 48
-0.43927323818206787 3.5212960243225098 39.27167892456055 78 69 57
-0.43927323818206787 3.5212960243225098 39.27167892456055 78 69 57
-0.3548547625541687 7.602314472198486 40.338836669921875 38 35 51
-0.35166433453559875 3.404958963394165 40.59789276123047 103 94 83
-0.31615376472473145 17.115156173706055 44.196533203125 80 75 73
-0.3472750186920166 5.605375289916992 39.137752532958984 16 14 26
-0.20053820312023163 5.470767498016357 39.54612350463867 36 34 46
-0.20053820312023163 5.470767498016357 39.54612350463867 36 34 46
-0.19272996485233307 7.475998401641846 40.602447509765625 55 53 62
-0.1859268844127655 7.99607515335083 39.0030517578125 37 35 38
-0.1725064367055893 6.259256362915039 40.07020950317383 45 43 55
-0.1912786364555359 18.964807510375977 44.70459747314453 59 54 50
-0.14613573253154755 4.9003214836120605 39.21223449707031 66 64 75
-0.05968368798494339 5.341103553771973 40.3183708190918 38 38 51
-0.00811765342950821 5.836112976074219 40.32939147949219 87 84 93
-0.012362913228571415 4.631965160369873 39.74858093261719 27 22 19
0.022700004279613495 6.015235900878906 39.72909164428711 32 28 38
-0.007843772880733013 5.835416316986084 40.32487869262695 87 84 93
0.06473081558942795 -4.376667022705078 40.06645965576172 55 48 47
0.19946826994419098 -3.365955352783203 42.695091247558594 12 11 21
0.2996090054512024 4.858157157897949 43.82868957519531 120 118 126
0.3003012239933014 8.057140350341797 43.22557830810547 65 61 67
0.3255990445613861 0.23747533559799194 44.23259735107422 116 115 127
0.3425748944282532 16.967144012451172 42.95945358276367 49 45 48
0.41963011026382446 -2.032026767730713 46.529876708984375 93 93 103
0.39823654294013977 -4.345010280609131 39.70466613769531 89 88 91
0.39823654294013977 -4.345010280609131 39.70466613769531 89 88 91
0.5837113261222839 6.041317939758301 47.60063552856445 130 128 135
0.6062730550765991 8.7017183303833 47.31549835205078 105 100 101
0.6559411287307739 8.829898834228516 47.16432571411133 106 101 102
1.4521288871765137 5.034019470214844 46.749732971191406 63 65 69
-2.4903767108917236 17.970369338989258 37.06025314331055 106 99 92
-1.9581670761108398 12.58671760559082 42.43495559692383 41 31 22
-6.728484153747559 8.855215072631836 38.74753952026367 190 178 174
-10.128759384155273 -1.4535486698150635 31.534717559814453 153 146 154
-9.405848503112793 10.805916786193848 37.09738540649414 143 136 133
0.013621036894619465 6.191893577575684 38.795066833496094 38 34 44
-12.255256652832031 -4.633970260620117 39.87430953979492 123 125 141
-9.696080207824707 -4.988837718963623 35.584598541259766 178 184 210
-10.639579772949219 -5.55522346496582 39.604522705078125 125 130 154
-7.925720691680908 6.357910633087158 38.03224182128906 130 123 128
0.013547784648835659 -5.410909175872803 38.938438415527344 33 23 19
-9.067927360534668 -1.5858994722366333 33.56839370727539 104 105 118
0.1926596611738205 -6.282432556152344 44.837406158447266 83 81 80
-10.496064186096191 -3.904524803161621 35.05940246582031 104 105 120
-9.260523796081543 19.047771453857422 42.690345764160156 164 159 156
-8.844602584838867 -4.815610885620117 34.90953063964844 113 116 138
-6.878310680389404 6.620114803314209 38.42792892456055 145 137 141
-10.534579277038574 -5.073332786560059 36.79823684692383 199 198 210
-14.35141658782959 6.447327613830566 36.96574020385742 140 132 138
-10.917545318603516 7.5861735343933105 37.40034484863281 99 88 81
-8.893847465515137 -3.8156960010528564 33.92058181762695 212 219 234
-8.84884262084961 -4.817607402801514 34.92665481567383 113 116 138
-12.452244758605957 6.49083948135376 36.87186050415039 141 129 128
-8.053196907043457 1.5501892566680908 37.532752990722656 223 220 220
0.028174253180623055 -10.653807640075684 46.15617370605469 83 78 74
-8.053275108337402 1.550204873085022 37.5330810546875 223 220 220
-12.452312469482422 6.490886688232422 36.872047424316406 141 129 128
-11.90677547454834 1.2682121992111206 31.292911529541016 160 154 153
-9.731855392456055 6.649157524108887 38.004032135009766 99 89 86
-8.168705940246582 -2.585904836654663 35.20451736450195 230 227 235
-8.040254592895508 6.5534820556640625 37.351646423339844 33 24 24
-7.663466930389404 6.647281169891357 37.911502838134766 23 15 17
-12.608077049255371 1.3438990116119385 33.004844665527344 156 149 146
-15.03930950164795 1.625411033630371 38.952762603759766 69 58 55
-7.145162582397461 6.796761512756348 38.08690643310547 12 5 5
-12.801676750183105 -5.771435737609863 37.481414794921875 102 105 125
-11.372690200805664 -3.6419661045074463 34.26044464111328 224 220 225
-10.87208080291748 -0.7571748495101929 33.76970672607422 215 211 213
-10.548757553100586 18.001245498657227 42.07021713256836 31 25 21
-7.167825698852539 6.851343631744385 38.05109405517578 191 182 181
0.62022864818573 -3.4959750175476074 47.22917556762695 175 175 176
-10.063252449035645 -1.4066908359527588 33.84663391113281 121 112 113
-7.735191822052002 6.970528602600098 38.36214065551758 19 10 10
-8.354138374328613 -0.8131094574928284 33.67351150512695 175 171 178
-11.19833755493164 -1.3585598468780518 33.953460693359375 182 179 188
-10.642674446105957 -4.7934370040893555 35.5559196472168 152 153 167
-8.660361289978027 -0.5395993590354919 28.793132781982422 175 171 176
-10.675949096679688 -0.684322714805603 35.728458404541016 202 198 202
-16.76942253112793 -3.8167245388031006 38.2535400390625 144 131 120
-8.236222267150879 -4.570045471191406 34.27154541015625 150 148 157
-10.642995834350586 -4.793511867523193 35.556968688964844 152 153 167
-5.3501505851745605 1.0024147033691406 35.51192092895508 171 169 166
-2.8360886573791504 8.011743545532227 40.07426834106445 2 0 5
-9.959871292114258 -2.6812493801116943 34.4961051940918 179 173 177
1.2074118852615356 -8.63383674621582 46.50514221191406 151 150 149
-15.77717113494873 1.0170243978500366 36.69868469238281 70 56 50
-5.191333770751953 7.81951904296875 38.88690948486328 31 25 27
-7.668796539306641 7.078866958618164 35.30057144165039 117 106 104
-12.822908401489258 7.337452411651611 35.855072021484375 20 9 8
-10.919194221496582 7.587238311767578 37.40562438964844 99 88 81
-11.924307823181152 0.9506319761276245 36.829959869384766 77 74 81
-8.553651809692383 -3.2015841007232666 34.687355041503906 200 194 200
-8.775029182434082 7.941320419311523 39.12043762207031 31 20 20
-1.7309554815292358 12.094131469726562 41.50895309448242 151 143 134
-8.058066368103027 7.678995132446289 37.84010314941406 121 111 109
-6.5389084815979 10.878721237182617 37.970149993896484 153 143 139
-8.05765151977539 7.678628921508789 37.838348388671875 121 111 109
-9.299907684326172 -3.1623013019561768 34.004554748535156 110 104 110
-9.346134185791016 7.90541410446167 38.91169738769531 43 31 24
-2.791057586669922 17.740039825439453 39.76814270019531 161 154 147
-6.449002742767334 7.6022047996521 37.41598892211914 43 34 29
-13.576611518859863 7.473899841308594 36.38862991333008 34 23 19
-13.576469421386719 7.4737868309021 36.388206481933594 34 23 19
-9.558323860168457 7.683716297149658 37.80221939086914 48 36 29
-9.558232307434082 7.683725833892822 37.80216598510742 48 36 29
-7.980259418487549 9.583703994750977 36.89068603515625 27 16 13
-9.316279411315918 -3.096137762069702 34.73983383178711 202 196 201
-1.2825911045074463 0.9907662272453308 37.50959777832031 157 155 156
-10.333257675170898 -4.39315128326416 34.36418151855469 100 109 132
-8.707221984863281 -2.898148536682129 34.2230110168457 168 162 166
-8.707746505737305 -2.8983137607574463 34.225013732910156 168 162 166
-13.70054817199707 8.57386302947998 36.43695068359375 66 55 48
-6.632962226867676 8.007564544677734 38.07890319824219 38 28 23
-9.548849105834961 8.71052074432373 37.77937316894531 78 67 60
-6.728641033172607 8.855390548706055 38.748355865478516 190 178 174
-11.527289390563965 -2.7934579849243164 34.12382507324219 221 217 221
-6.729045867919922 8.855875015258789 38.75038146972656 190 178 174
-6.7285284996032715 8.855436325073242 38.747779846191406 190 178 174
-9.276124000549316 0.05302215367555618 36.23861312866211 201 197 201
-9.273781776428223 0.052987948060035706 36.23030471801758 201 197 201
-8.707651138305664 -2.898266315460205 34.22456741333008 168 162 166
-7.511342525482178 -2.9195241928100586 34.26601791381836 187 185 191
-15.83169937133789 1.1583013534545898 43.79390335083008 197 192 191
-6.756561756134033 17.636518478393555 42.533180236816406 128 123 121
-13.281023025512695 0.9213634729385376 35.76251983642578 143 137 136
-1.2823823690414429 0.9906494617462158 37.50406265258789 157 155 156
-7.66537618637085 -4.2814154624938965 33.83857345581055 109 114 135
-18.532310485839844 -12.376031875610352 40.872535705566406 63 61 62
-0.34794166684150696 5.608510971069336 39.15937805175781 16 14 26
-10.761214256286621 -1.5825878381729126 33.65082931518555 97 90 93
-8.08730697631836 0.49202850461006165 37.50666046142578 181 175 177
-7.106289386749268 -11.857635498046875 38.961063385009766 127 125 118
-8.195258140563965 2.2727792263031006 37.53947448730469 137 128 122
-18.528461456298828 -12.373364448547363 40.864044189453125 63 61 62
-10.709554672241211 -2.1577486991882324 34.87624740600586 140 135 141
-12.470029830932617 -5.652688980102539 37.91858673095703 138 144 166
-9.613527297973633 -1.943394660949707 31.749114990234375 211 204 210
-7.1414642333984375 -11.618803977966309 39.276588439941406 178 178 174
0.0019498870242387056 4.452482223510742 39.427940368652344 108 103 99
-9.919536590576172 -5.784499168395996 38.49901580810547 182 181 195
-12.819562911987305 -5.780389785766602 37.533329010009766 94 98 118
-11.506272315979004 -5.246324062347412 33.93870162963867 164 166 182
-12.761695861816406 -5.885626792907715 38.250457763671875 137 140 159
-12.747658729553223 -5.863627910614014 38.19161605834961 150 155 173
-10.276238441467285 -5.803524017333984 37.402732849121094 79 82 102
-14.878802299499512 -5.852637767791748 37.67428970336914 39 28 27
-14.888047218322754 -5.856222152709961 37.69772720336914 39 28 27
-12.866122245788574 0.7056781053543091 40.179786682128906 154 150 150
-10.83740234375 0.6011670231819153 34.282814025878906 92 87 88
-11.165763854980469 -5.751967430114746 37.379371643066406 67 70 93
-9.767898559570312 0.4495794475078583 34.85108184814453 76 76 88
-10.272802352905273 -6.006775856018066 38.641380310058594 34 33 49
-8.301582336425781 -2.082831859588623 38.04640579223633 90 87 95
-12.811135292053223 -5.776122093200684 37.50862503051758 102 105 125
-8.052289009094238 1.5500192642211914 37.5286865234375 223 220 220
-8.433399200439453 -3.6198744773864746 34.94827651977539 201 208 226
-6.538512229919434 10.87812614440918 37.968204498291016 153 143 139
-8.491268157958984 -2.012436866760254 35.65990447998047 254 250 254
-13.57705307006836 7.47412109375 36.38970184326172 34 23 19
-7.534726619720459 7.056624889373779 38.90455627441406 91 81 80
-13.165044784545898 16.305139541625977 39.4313850402832 43 40 38
-14.13138198852539 1.0248974561691284 38.72990036010742 217 212 211
-13.127577781677246 0.9510404467582703 36.14812469482422 208 204 203
-3.227238416671753 9.038047790527344 39.589290618896484 17 13 20
-6.636116981506348 7.062415599822998 39.0213737487793 89 82 83
-6.58234167098999 6.455631256103516 37.77290344238281 155 147 150
-6.203438758850098 6.787206172943115 39.0313720703125 11 4 12
-8.448030471801758 7.152092933654785 40.672332763671875 36 29 30
-7.318516254425049 7.616642475128174 43.96767044067383 133 125 130
-10.504097938537598 9.7327880859375 38.34157943725586 45 34 27
-8.332270622253418 -1.6588706970214844 38.2446403503418 196 200 210
-10.032262802124023 9.328062057495117 36.639625549316406 40 29 24
-5.668971061706543 9.086930274963379 35.08506393432617 23 15 16
-11.600014686584473 2.3773396015167236 37.687374114990234 154 143 138
-12.402120590209961 -0.662111759185791 36.26385498046875 135 126 126
-5.348038196563721 1.0021181106567383 35.500118255615234 171 169 166
-10.02236557006836 -0.35811376571655273 33.656272888183594 156 151 154
-8.005592346191406 8.626625061035156 37.675804138183594 160 150 145
-6.506454944610596 6.426631927490234 38.896095275878906 32 24 28
-2.1106913089752197 13.268951416015625 44.67198944091797 56 47 35
-10.184346199035645 17.37813377380371 38.8623046875 122 117 114
-10.517189025878906 -5.495265960693359 39.189815521240234 125 130 154
-10.229534149169922 -3.9983837604522705 33.02250671386719 52 55 70
-12.742761611938477 5.615818500518799 37.76659393310547 17 11 16
-8.886643409729004 5.726710319519043 38.636016845703125 20 15 16
-9.95974063873291 -2.6812641620635986 34.49599838256836 179 173 177
-10.761012077331543 -1.582566499710083 33.65022659301758 97 90 93
-2.890230655670166 19.88955307006836 44.513004302978516 140 134 127
0.02796192094683647 -10.6563720703125 46.16763687133789 83 78 74
-7.517126560211182 -2.4298431873321533 32.27098083496094 253 250 254
-0.0008813322056084871 6.302588939666748 39.44900131225586 38 34 44
-3.4595673084259033 6.286930561065674 39.12375259399414 61 58 73
-10.76245403289795 -1.5826934576034546 33.654449462890625 97 90 93
-8.23564338684082 -4.569748401641846 34.26936340332031 150 148 157
-6.25583553314209 6.11514949798584 37.045284271240234 126 118 123
-8.12557315826416 -2.6814138889312744 37.025543212890625 188 186 195
-7.925768852233887 6.357934474945068 38.032470703125 130 123 128
-8.125636100769043 -2.681426763534546 37.025840759277344 188 186 195
-3.3984251022338867 6.684783935546875 39.819610595703125 121 114 127
-7.91960334777832 -2.3666417598724365 32.29030227661133 147 139 145
-2.7528834342956543 6.5762248039245605 38.71452331542969 104 99 113
-4.204666614532471 2.621562957763672 36.70656967163086 75 68 60
-13.293524742126465 5.914583206176758 34.22622299194336 111 103 110
-8.559324264526367 -4.670263290405273 33.905677795410156 146 148 168
-6.880807876586914 6.609432697296143 38.3458251953125 109 101 105
-6.691321849822998 6.697355270385742 38.9052848815918 29 22 25
-6.203755855560303 6.787513256072998 39.033164978027344 11 4 12
-11.404635429382324 -4.320878982543945 35.89347457885742 185 183 192
-8.449202537536621 7.153173923492432 40.678409576416016 36 29 30
-6.517215251922607 6.7581400871276855 38.971893310546875 111 103 110
-14.489923477172852 6.513154029846191 37.30451965332031 140 132 138
-8.159029960632324 -2.6973628997802734 37.153018951416016 149 148 159
-10.031088829040527 -1.8321634531021118 32.79475021362305 218 214 217
-6.3761396408081055 6.574579238891602 37.29509353637695 123 115 118
-8.03886890411377 6.55246639251709 37.345916748046875 33 24 24
-7.918074131011963 6.7323384284973145 37.808773040771484 178 169 169
-7.662997722625732 6.646883010864258 37.90908432006836 23 15 17
-7.074845790863037 6.74876594543457 37.85798263549805 17 10 11
-8.057268142700195 -1.947472333908081 33.5235595703125 228 224 228
-7.027668476104736 7.106457233428955 39.70689392089844 74 64 65
-7.7008490562438965 6.936847686767578 38.50430679321289 203 195 193
-10.976125717163086 -2.097865104675293 33.228309631347656 174 170 176
-10.565888404846191 -2.0758323669433594 33.10663986206055 105 97 104
-10.974637985229492 -2.0976033210754395 33.22416687011719 174 170 176
-10.565906524658203 -2.075836658477783 33.106689453125 105 97 104
-14.879554748535156 -5.85293436050415 37.67626190185547 39 28 27
-12.61694622039795 -5.673937797546387 38.21137619018555 111 113 135
-8.313790321350098 -1.9614572525024414 35.00804901123047 254 250 255
-3.412045955657959 4.051291465759277 38.1054801940918 150 141 133
-2.8359649181365967 8.011459350585938 40.07293701171875 2 0 5
-5.191761493682861 7.819977760314941 38.88921356201172 31 25 27
-8.054354667663574 1.5504167079925537 37.53754806518555 223 220 220
-12.632256507873535 1.359807014465332 33.072959899902344 156 150 147
-15.039156913757324 1.6253886222839355 38.952388763427734 69 58 55
-10.918662071228027 7.586877346038818 37.40386199951172 99 88 81
-10.919112205505371 7.587182998657227 37.40536117553711 99 88 81
-8.182245254516602 7.5301513671875 37.42327117919922 35 25 22
-6.760882377624512 6.625324726104736 38.680908203125 140 133 136
-9.961368560791016 1.4409793615341187 39.58522415161133 228 233 243
-10.918906211853027 7.587030410766602 37.4046630859375 99 88 81
-10.91913890838623 7.587198734283447 37.405433654785156 99 88 81
-6.44937801361084 7.6027984619140625 37.41812515258789 43 34 29
-9.558716773986816 7.684145927429199 37.80421447753906 48 36 29
-6.449044227600098 7.602228164672852 37.41619110107422 43 34 29
-5.350600719451904 1.0024809837341309 35.51481246948242 171 169 166
-6.184998989105225 1.028774380683899 35.70930862426758 98 95 92
-6.184952259063721 1.028767704963684 35.709075927734375 98 95 92
-10.258069038391113 -6.168842315673828 40.055572509765625 173 172 187
-9.554630279541016 7.680943489074707 37.788970947265625 48 36 29
-9.556801795959473 7.682527542114258 37.796546936035156 48 36 29
-13.16675853729248 0.9498836994171143 36.813682556152344 196 192 191
-12.938664436340332 0.8977930545806885 34.90116882324219 141 135 134
-7.106411933898926 -11.857781410217285 38.9615478515625 127 125 118
-5.1919779777526855 7.820733070373535 38.892879486083984 31 25 27
-5.192999362945557 7.822067737579346 38.89936828613281 31 25 27
-1.2823944091796875 0.9906712174415588 37.50431442260742 157 155 156
-3.2274372577667236 9.038495063781738 39.591217041015625 17 13 20
-6.5380730628967285 10.87744140625 37.96588134765625 153 143 139
-6.728734493255615 8.855690002441406 38.748863220214844 190 178 174
-9.543828010559082 8.70578384399414 37.75929641723633 78 67 60
-7.970219135284424 8.844904899597168 38.370506286621094 30 18 16
-6.72910737991333 8.85594367980957 38.75071716308594 190 178 174
-7.1414618492126465 -11.618802070617676 39.27657699584961 178 178 174
-9.549179077148438 8.710813522338867 37.78057098388672 78 67 60
-10.812788009643555 8.615094184875488 36.841522216796875 37 28 21
-8.236381530761719 9.05498218536377 38.63873291015625 166 155 148
-9.325316429138184 -4.635993480682373 34.51826477050781 183 195 216
-11.623610496520996 5.722535610198975 38.89082336425781 96 92 101
-10.86270523071289 0.5479088425636292 32.85687255859375 121 116 115
-7.934572696685791 1.234230399131775 36.86784744262695 175 173 177
-10.837778091430664 0.6012014150619507 34.28398132324219 92 87 88
-10.54144287109375 9.778822898864746 38.48529815673828 50 39 32
-8.086374282836914 0.49196770787239075 37.502803802490234 181 175 177
-12.2723970413208 -4.017106056213379 34.60041427612305 38 34 37
-14.667375564575195 -5.490107536315918 37.57844543457031 55 47 54
-5.669156074523926 9.087200164794922 35.08605194091797 23 15 16
-7.979754447937012 9.583148956298828 36.8885498046875 27 16 13
-12.620296478271484 -5.496409893035889 36.9542236328125 139 140 160
-10.127907752990723 -4.325693607330322 33.93186950683594 176 186 208
-16.761409759521484 -6.168376445770264 41.4560432434082 157 148 143
-9.676342010498047 -5.669040203094482 37.62907409667969 159 158 174
-13.05492877960205 -6.019459247589111 39.130672454833984 160 162 179
-12.81051254272461 -5.7758049964904785 37.50700378417969 102 105 125
-11.165735244750977 -5.751955032348633 37.37928009033203 67 70 93
-12.815035820007324 -5.574337482452393 36.20831298828125 156 157 178
-1.6068322658538818 10.449568748474121 39.54118728637695 170 160 155
-14.879277229309082 -5.852816581726074 37.6754150390625 39 28 27
-5.849529266357422 0.044273342937231064 36.998497009277344 174 175 175
-8.428735733032227 -0.02653980255126953 33.16654586791992 137 132 137
-10.273094177246094 -6.006932735443115 38.64234924316406 34 33 49
-10.272466659545898 -6.006626129150391 38.64015197753906 34 33 49
-8.109009742736816 -0.1357254683971405 33.46553421020508 102 96 99
-5.848263263702393 10.678343772888184 37.135826110839844 11 7 8
-14.315010070800781 -6.5868916511535645 42.88518142700195 176 181 195
-8.031060218811035 -0.09156380593776703 33.761470794677734 223 221 223
0.2997487783432007 -5.038418292999268 46.11342239379883 68 67 70
-12.163134574890137 -3.784200429916382 34.39325714111328 33 28 32
-9.685224533081055 -3.8538272380828857 31.470582962036133 24 28 45
-9.934452056884766 -0.3615686595439911 33.372718811035156 156 151 154
-2.369014024734497 14.145976066589355 41.54903793334961 70 67 62
-17.095861434936523 4.300759792327881 37.00182342529297 46 35 25
-1.7309410572052002 12.09409236907959 41.508758544921875 151 143 134
-10.568126678466797 -0.6613439917564392 35.382320404052734 202 198 202
-8.973822593688965 -3.5146636962890625 33.813514709472656 211 206 213
-0.012195980176329613 4.489894390106201 39.88581085205078 123 117 113
-9.656875610351562 -0.6454822421073914 32.29338836669922 126 122 128
-8.354165077209473 -0.8131057024002075 33.67361068725586 175 171 178
-10.872406959533691 -0.7572124004364014 33.770835876464844 215 211 213
-10.871219635009766 -0.7570871710777283 33.76728057861328 215 211 213
-5.6979146003723145 20.871826171875 41.88890075683594 43 37 33
-7.864178657531738 -3.206913709640503 32.59342956542969 132 136 158
-11.152835845947266 -4.603762626647949 46.55850601196289 213 219 231
-6.987321853637695 -2.9760961532592773 29.875131607055664 223 229 242
-8.539032936096191 -3.428162097930908 35.10986328125 130 133 155
-12.014640808105469 -3.568450450897217 37.561363220214844 174 187 207
-8.421107292175293 -3.1495754718780518 34.152652740478516 200 194 200
-8.772440910339355 -3.2880635261535645 35.56831359863281 171 164 171
-10.111199378967285 -1.0850406885147095 34.62427520751953 223 219 222
-9.413552284240723 10.814698219299316 37.127647399902344 145 138 135
-8.421119689941406 -3.149583578109741 34.15269088745117 200 194 200
-7.784676551818848 -1.2904576063156128 35.85364532470703 208 203 205
-8.708216667175293 -2.8984375 34.22653579711914 168 162 166
-9.053450584411621 -1.3003958463668823 33.839622497558594 241 241 249
-13.18875789642334 9.276290893554688 35.308387756347656 115 107 103
-16.068925857543945 -13.60888957977295 40.60591506958008 85 74 67
-2.7549874782562256 19.71622085571289 44.32936096191406 146 140 133
-14.259861946105957 -8.971612930297852 39.204200744628906 129 117 108
-16.769248962402344 -3.816702365875244 38.253150939941406 144 131 120
0.18745583295822144 -3.4006242752075195 42.77352523803711 19 19 29
-9.767847061157227 0.44957590103149414 34.850914001464844 76 76 88
-8.378226280212402 -3.0649304389953613 38.27385330200195 218 223 235
-0.007836150005459785 5.833526611328125 40.31177520751953 87 84 93
-3.370638608932495 3.6371099948883057 40.33729553222656 157 149 137
-13.995546340942383 17.933805465698242 41.661155700683594 50 45 41
-4.858572006225586 7.573144435882568 37.731903076171875 14 9 11
-10.054229736328125 6.66668176651001 38.51435470581055 123 113 110
-13.118258476257324 6.65128755569458 37.795562744140625 12 6 9
-13.44313907623291 7.3130903244018555 35.6351432800293 14 5 2
-11.486666679382324 -8.939943313598633 39.29692840576172 138 126 116
-10.268310546875 8.126962661743164 39.623958587646484 195 183 175
-9.603753089904785 -1.7430436611175537 31.452260971069336 220 215 217
-9.54955768585205 8.71116828918457 37.78221130371094 78 67 60
-8.641280174255371 -1.798815369606018 29.179189682006836 157 150 156
-10.977945327758789 -2.098198652267456 33.233795166015625 174 170 176
-9.54784107208252 8.709571838378906 37.775333404541016 78 67 60
-13.653632164001465 6.023983955383301 34.80113220214844 111 103 110
-9.729548454284668 6.647674083709717 37.99568557739258 99 89 86
-16.188453674316406 6.62214994430542 36.83979797363281 14 10 20
-12.116280555725098 -2.3933231830596924 34.441078186035156 80 77 81
-7.91827392578125 -2.3662455081939697 32.28487777709961 147 139 145
-10.814252853393555 8.616236686706543 36.846187591552734 37 28 21
-3.695199728012085 5.403996467590332 38.32760238647461 43 39 49
-8.248905181884766 9.071660041809082 38.69394302368164 166 155 148
-2.144214153289795 13.3226318359375 44.8193473815918 57 47 37
-4.0889892578125 16.114852905273438 41.209495544433594 133 125 119
-1.7309306859970093 12.094072341918945 41.508636474609375 151 143 134
0.8133459687232971 -3.497448682785034 48.3449821472168 34 33 34
-11.404349327087402 -4.320786952972412 35.892635345458984 185 183 192
-9.958771705627441 -2.680999755859375 34.49258804321289 179 173 177
0.20744359493255615 -3.2868385314941406 41.31816864013672 14 14 22
-7.511572360992432 -2.9196009635925293 34.26694869995117 187 185 191
-10.696785926818848 -2.918076276779175 34.76301193237305 198 204 221
-8.708176612854004 -2.8984293937683105 34.22649002075195 168 162 166
-8.605684280395508 -2.1792256832122803 26.1096248626709 155 152 157
-8.710345268249512 -2.8991212844848633 34.235225677490234 168 162 166
-7.5115966796875 -2.9196083545684814 34.26704788208008 187 185 191
-9.326481819152832 -3.0986104011535645 34.7750129699707 202 196 201
-8.885945320129395 5.7262701988220215 38.63308334350586 20 15 16
-8.201904296875 -1.9423810243606567 34.148048400878906 254 251 254
-11.55526351928711 1.644152283668518 36.22779083251953 138 128 126
-8.303703308105469 -2.083383560180664 38.056095123291016 90 87 95
-8.42127799987793 -3.149625539779663 34.153282165527344 200 194 200
-10.863973617553711 0.5479677319526672 32.86040115356445 121 116 115
-10.56155776977539 5.557298183441162 31.654367446899414 85 74 73
-13.186817169189453 9.27491283416748 35.30318832397461 115 107 103
-9.493743896484375 6.131845474243164 38.30706787109375 116 107 111
-14.316109657287598 -6.587376117706299 42.88850021362305 176 181 195
-0.0011531785130500793 6.3044233322143555 39.4630126953125 38 34 44
-16.066482543945312 -13.606878280639648 40.59992980957031 85 74 67
-9.456047058105469 -4.684953689575195 34.96922302246094 191 202 222
-1.8531798124313354 10.512943267822266 39.69894027709961 158 147 139
-14.878852844238281 -5.852668762207031 37.674598693847656 39 28 27
-12.163235664367676 -3.784126043319702 34.39362716674805 33 28 32
-9.787581443786621 -5.721100807189941 37.93232727050781 168 168 183
-9.508438110351562 -3.1554908752441406 29.02059555053711 248 245 248
-15.35354995727539 -4.0367608070373535 38.15969467163086 167 151 142
-5.348067283630371 1.0021213293075562 35.50042724609375 171 169 166
-8.97672176361084 -4.490943431854248 40.55878448486328 81 82 91
-3.4003918170928955 6.687930107116699 39.83671188354492 121 114 127
-7.9258809089660645 6.358025074005127 38.03303909301758 130 123 128
-18.528409957885742 -12.373332023620605 40.86393737792969 63 61 62
-4.722671031951904 7.989830493927002 39.70728302001953 23 18 21
0.2498503029346466 -5.653625965118408 40.160682678222656 61 60 60
-8.769513130187988 -4.690788269042969 39.46316146850586 141 149 172
-7.141772270202637 -11.619232177734375 39.278114318847656 178 178 174
-13.118099212646484 6.651185512542725 37.79512023925781 12 6 9
-9.886146545410156 -3.879405975341797 32.007137298583984 28 32 46
-10.34615421295166 -5.707500457763672 38.09911346435547 138 139 158
-7.1825432777404785 6.818477630615234 39.528839111328125 135 129 132
-6.598209381103516 6.615305423736572 38.436492919921875 29 22 25
-1.218687653541565 9.693663597106934 33.50185012817383 174 166 157
-14.214801788330078 6.351418495178223 36.570682525634766 136 128 134
-17.09265899658203 4.299854755401611 36.995174407958984 46 35 25
-9.730777740478516 6.6484761238098145 38.00007629394531 99 89 86
-6.538928985595703 10.878752708435059 37.97027587890625 153 143 139
-8.446712493896484 7.151017189025879 40.6663932800293 36 29 30
-9.115055084228516 6.053780555725098 34.8787841796875 56 45 43
-3.487802505493164 3.284853935241699 39.05483627319336 99 90 79
-0.6850235462188721 6.68035888671875 39.3637580871582 35 33 46
-6.995881080627441 6.657968044281006 37.351470947265625 22 15 16
-7.027538776397705 7.106353282928467 39.706260681152344 74 64 65
-7.670050621032715 6.929993152618408 38.4095458984375 203 195 193
-7.788114547729492 6.9795823097229 38.545780181884766 23 15 14
-13.65227222442627 0.9919745326042175 37.49935531616211 211 207 206
-7.537602424621582 7.0593695640563965 38.918460845947266 91 81 80
-1.8099110126495361 10.603699684143066 39.715919494628906 67 57 47
-13.576094627380371 7.4735870361328125 36.38722229003906 34 23 19
-1.7309324741363525 12.094053268432617 41.50859832763672 151 143 134
-1.4312435388565063 -11.701053619384766 38.53339385986328 76 76 74
-6.2031989097595215 6.786981582641602 39.030067443847656 11 4 12
-9.336544036865234 6.100608825683594 38.41133117675781 108 101 103
-8.054008483886719 1.5503498315811157 37.536075592041016 223 220 220
-10.59847640991211 -4.55033540725708 35.205135345458984 86 94 119
-7.933923244476318 1.2341246604919434 36.864830017089844 175 173 177
-2.836873769760132 8.01368522644043 40.08374786376953 2 0 5
-9.41334056854248 10.814462661743164 37.12685012817383 145 138 135
-6.185299396514893 1.0288137197494507 35.71080017089844 98 95 92
-15.777871131896973 1.017101764678955 36.7003059387207 70 56 50
-8.418910026550293 10.602129936218262 36.42814254760742 114 105 103
-1.2824021577835083 0.9906799793243408 37.504459381103516 157 155 156
-10.2103910446167 -4.423768997192383 37.151329040527344 110 104 107
-12.453485488891602 6.49152946472168 36.87531661987305 141 129 128
-10.919230461120605 7.587263584136963 37.405738830566406 99 88 81
0.028194710612297058 -10.653661727905273 46.155517578125 83 78 74
-11.372971534729004 -3.642059803009033 34.2613410949707 224 220 225
-7.043167591094971 7.11572265625 39.78760528564453 58 48 49
-9.357701301574707 -8.155766487121582 39.245262145996094 105 88 78
-7.980206489562988 9.583722114562988 36.89076614379883 27 16 13
-10.723959922790527 -4.604780197143555 35.960872650146484 116 124 145
0.027920106425881386 -10.656899452209473 46.17006301879883 83 78 74
-2.2537989616394043 10.503106117248535 39.353885650634766 26 13 6
-8.235832214355469 -4.569844722747803 34.27006149291992 150 148 157
-10.919149398803711 7.58720588684082 37.40547180175781 99 88 81
-6.496950149536133 7.665118217468262 37.700443267822266 43 34 29
-10.919210433959961 7.5872483253479 37.40567398071289 99 88 81
-9.275517463684082 0.05297911539673805 36.23614501953125 201 197 201
-9.577086448669434 -0.11872108280658722 39.54690170288086 185 181 184
-11.437836647033691 -5.191806793212891 34.887630462646484 123 126 149
-9.934196472167969 -0.3744281828403473 33.37152862548828 153 148 151
-0.750995397567749 11.186946868896484 40.785892486572266 39 32 29
-4.20426082611084 2.621302604675293 36.70301818847656 75 68 60
-9.631924629211426 -3.83264422416687 31.331472396850586 58 63 80
-6.4975690841674805 6.841864109039307 38.38008499145508 48 40 44
-10.705412864685059 -1.2097069025039673 34.912574768066406 243 238 243
-11.198633193969727 -1.358697772026062 33.95430374145508 182 179 188
-10.063274383544922 -1.406679391860962 33.8467903137207 121 112 113
-8.43212604522705 -1.5426024198532104 33.52177429199219 234 236 244
-9.263683319091797 -1.6098856925964355 34.23107147216797 104 105 118
-9.196364402770996 -1.5975432395935059 34.00794982910156 104 105 118
-6.728513717651367 8.855425834655762 38.747745513916016 190 178 174
-1.6213061809539795 12.674479484558105 42.93882751464844 130 125 119
-9.664231300354004 -1.8540598154067993 37.50065612792969 109 108 119
-10.029677391052246 -1.7900390625 35.51401901245117 158 151 159
-8.302545547485352 -2.083087205886841 38.050662994384766 90 87 95
-10.365910530090332 -4.685999870300293 34.70145034790039 176 177 190
-6.801443576812744 7.779868125915527 38.32896423339844 48 38 33
-6.538527011871338 10.878143310546875 37.96824264526367 153 143 139
-8.110527038574219 -3.8799540996551514 35.438568115234375 58 70 105
-6.306110382080078 6.422885894775391 38.515663146972656 124 115 120
-12.15535831451416 -0.6540010571479797 35.59071731567383 156 147 147
-12.937508583068848 0.8977004289627075 34.89822006225586 141 135 134
-7.926856517791748 6.890835285186768 37.7705078125 50 41 40
-3.63992977142334 3.052558660507202 38.60795593261719 172 164 154
-3.353548049926758 4.609452724456787 39.5171012878418 120 114 109
-0.42500343918800354 5.610230922698975 40.49359893798828 117 114 128
-14.390595436096191 -5.458413600921631 37.248504638671875 160 155 165
-13.701654434204102 8.574549674987793 36.439727783203125 66 55 48
-11.373093605041504 -3.6421051025390625 34.261688232421875 224 220 225
-1.8179965019226074 6.699765205383301 33.761959075927734 61 59 70
-8.08594799041748 0.49181461334228516 37.50062561035156 181 175 177
-1.7674825191497803 9.7923002243042 37.07474136352539 170 160 153
-10.278332710266113 -5.804694175720215 37.410099029541016 79 82 102
-9.34006404876709 6.102242946624756 38.42417526245117 108 101 103
-3.376631259918213 6.350223064422607 40.375579833984375 66 61 83
-13.198722839355469 -6.073676109313965 39.54055404663086 172 176 193
-6.490024566650391 9.935845375061035 38.94283676147461 125 115 111
-12.82386589050293 7.337998390197754 35.85774230957031 20 9 8
-2.9553799629211426 7.3204545974731445 39.61982345581055 79 72 80
-9.731399536132812 6.648868083953857 38.00234603881836 99 89 86
-9.866361618041992 -4.294770240783691 35.94279098510742 79 74 77
-6.1847686767578125 1.0286636352539062 35.7078857421875 98 95 92
-8.707687377929688 -4.29993200302124 31.545976638793945 50 50 65
-14.510952949523926 1.3225866556167603 37.39836883544922 34 25 23
-0.684755802154541 6.679069519042969 39.35630798339844 35 33 46
-10.707483291625977 6.490602493286133 37.86600112915039 121 111 110
-8.846444129943848 -4.816547870635986 34.91620635986328 113 116 138
-8.722771644592285 -1.6507762670516968 33.84846115112305 75 73 86
-9.779133796691895 6.506095886230469 37.13380813598633 19 6 6
-7.933957099914551 1.234162449836731 36.86494064331055 175 173 177
-3.0636844635009766 16.506649017333984 41.462772369384766 82 76 72
-7.160008907318115 6.774559020996094 39.458335876464844 101 95 99
-6.20317268371582 6.78694486618042 39.029869079589844 11 4 12
-6.658242702484131 6.476591110229492 39.37367248535156 115 107 112
-8.053984642028809 1.5503435134887695 37.53597640991211 223 220 220
-14.535320281982422 6.474597930908203 37.339420318603516 114 105 112
-2.4978911876678467 14.731548309326172 43.188899993896484 62 59 54
-6.923696041107178 6.952244281768799 40.23849105834961 38 30 34
-8.09246826171875 5.59916877746582 32.14986038208008 63 53 51
-7.103811264038086 6.927662372589111 39.73735046386719 25 18 21
0.09079395234584808 -4.276243209838867 39.881614685058594 129 124 125
-9.731719017028809 6.64906644821167 38.00348663330078 99 89 86
-3.2737205028533936 12.993804931640625 42.21588134765625 67 57 46
-14.340486526489258 1.9463661909103394 36.58087158203125 67 54 44
-5.908076286315918 6.0533294677734375 34.09938049316406 84 75 77
-1.7308645248413086 12.093770027160645 41.5075798034668 151 143 134
-8.821276664733887 11.041985511779785 37.92256546020508 108 98 96
-1.7309333086013794 12.094074249267578 41.50865936279297 151 143 134
-6.029102325439453 10.354865074157715 36.22285842895508 46 37 37
-7.027829170227051 7.106600284576416 39.70772171020508 74 64 65
-5.806216716766357 10.363643646240234 36.64993667602539 119 113 116
-0.7509239912033081 11.186279296875 40.783206939697266 39 32 29
-1.1963516473770142 10.736207962036133 40.47671127319336 75 64 61
-7.481388092041016 6.997535705566406 38.64978790283203 114 105 104
-6.110570430755615 9.650500297546387 37.926353454589844 106 97 100
-9.323930740356445 -3.097912311553955 34.76639175415039 202 196 201
-2.1053760051727295 7.094815254211426 38.82551193237305 13 11 26
-8.180243492126465 9.018470764160156 38.50985336303711 120 109 103
-8.708001136779785 -2.8983733654022217 34.22578811645508 168 162 166
-7.511640548706055 -2.9196221828460693 34.26721954345703 187 185 191
-7.940649032592773 6.889134883880615 37.831573486328125 44 35 35
-9.547454833984375 8.709199905395508 37.773712158203125 78 67 60
-7.510686874389648 -2.9193148612976074 34.26331329345703 187 185 191
-3.2274253368377686 9.038456916809082 39.591060638427734 17 13 20
-2.955270290374756 7.320336818695068 39.61882400512695 79 72 80
-13.36197566986084 6.681456089019775 35.91874313354492 142 130 129
-3.64011549949646 3.0527143478393555 38.61011505126953 172 164 154
-10.91915512084961 7.587204456329346 37.40548324584961 99 88 81
0.08729220181703568 -2.898516893386841 38.08401107788086 120 115 118
-8.609207153320312 -2.7656285762786865 37.01410675048828 192 192 204
-10.643311500549316 -4.793118000030518 35.55889129638672 152 153 167
-9.63068675994873 -2.8848233222961426 39.25837707519531 189 183 188
-9.558709144592285 7.6840291023254395 37.803707122802734 48 36 29
-9.217516899108887 -2.0489282608032227 31.920673370361328 209 202 208
-6.62416410446167 11.1273832321167 38.23590850830078 108 98 95
-11.402508735656738 10.429574966430664 36.112972259521484 23 15 14
-10.701275825500488 -2.154829740524292 34.85648727416992 140 135 141
-8.998971939086914 -1.8718605041503906 30.388267517089844 197 190 196
-8.302300453186035 -2.083021879196167 38.049503326416016 90 87 95
-10.442991256713867 -1.7176955938339233 32.8621826171875 248 244 248
0.02817573770880699 -10.653975486755371 46.1568717956543 83 78 74
-6.6541290283203125 10.65150260925293 37.82190704345703 126 115 110
-9.661943435668945 -1.8537741899490356 37.49247360229492 108 105 117
-14.389769554138184 9.17884635925293 34.781429290771484 28 20 18
-7.73405122756958 7.956900596618652 46.1031608581543 90 81 87
0.02793075703084469 -10.656749725341797 46.16944885253906 83 78 74
-9.512537002563477 -4.339174270629883 35.180198669433594 118 124 146
-11.196732521057129 -1.3584651947021484 33.948551177978516 182 179 188
-15.148601531982422 6.116574764251709 35.68354034423828 99 96 107
-9.37551498413086 -8.316987991333008 39.181087493896484 52 36 24
-7.786117076873779 -0.855254590511322 33.95626449584961 87 82 87
-13.103336334228516 0.9878762364387512 37.86845016479492 161 157 156
-8.354130744934082 -0.8131088018417358 33.67348098754883 175 171 178
1.1028398275375366 -6.770959377288818 45.96435546875 58 55 54
-3.741826057434082 5.460241794586182 38.712615966796875 42 38 48
-11.243819236755371 0.3727894127368927 35.60205841064453 146 138 138
-9.027542114257812 5.677380561828613 39.69346237182617 122 116 118
-9.82111644744873 -0.39021819829940796 33.00722122192383 148 143 146
-11.335169792175293 -5.775355339050293 38.61998748779297 106 110 131
-8.997875213623047 5.72398042678833 40.0358772277832 65 59 61
-6.365631103515625 0.8805433511734009 36.415382385253906 187 184 180
-13.899715423583984 5.4442877769470215 36.65953063964844 148 143 149
-8.521750450134277 -3.6591522693634033 36.39529800415039 211 215 228
-5.850949764251709 0.04408274590969086 37.008628845214844 174 175 175
-8.885771751403809 5.72615909576416 38.632328033447266 20 15 16
-8.433004379272461 -3.6197187900543213 34.946781158447266 201 208 226
-4.248101234436035 12.703527450561523 42.55412673950195 166 154 146
-4.349729061126709 14.414838790893555 40.83165740966797 89 81 74
-11.521349906921387 -4.551854610443115 37.166015625 70 74 90
-8.841839790344238 -2.0926177501678467 37.35476303100586 231 228 235
-3.4878389835357666 3.284879446029663 39.055259704589844 99 90 79
-0.007840150035917759 5.834571361541748 40.318992614746094 87 84 93
-3.672408103942871 6.450643062591553 38.678104400634766 90 85 97
-3.384052038192749 7.220975875854492 36.10881805419922 22 15 18
-9.558150291442871 7.683650970458984 37.801918029785156 48 36 29
-14.621274948120117 9.079205513000488 34.90343475341797 102 95 94
-4.582727909088135 11.72085952758789 43.91415786743164 141 132 124
-3.4478085041046143 6.276840686798096 39.028114318847656 61 58 73
-8.17536735534668 9.181355476379395 45.13814926147461 37 27 23
-12.11611270904541 -2.393294095993042 34.44059753417969 80 77 81
-14.786442756652832 2.2488205432891846 41.12471389770508 73 62 54
-3.422205924987793 3.541079521179199 38.80963134765625 111 103 91
-11.785772323608398 -2.1641602516174316 34.55898666381836 122 118 125
-12.451762199401855 6.490604400634766 36.87052536010742 141 129 128
-6.4710845947265625 6.8301682472229 38.18262481689453 65 57 61
-7.5806965827941895 10.331310272216797 38.121070861816406 104 95 89
-10.995338439941406 6.507683753967285 39.229766845703125 98 89 88
-14.387155532836914 9.177213668823242 34.775306701660156 28 20 18
-6.914256572723389 10.585103034973145 39.905303955078125 86 76 70
-6.174656391143799 9.493985176086426 37.697078704833984 57 48 46
-12.744046211242676 5.61637544631958 37.7701530456543 17 11 16
-2.450925827026367 6.581204891204834 38.672359466552734 39 37 51
-0.4879875183105469 6.481470108032227 38.367862701416016 28 26 39
-13.702369689941406 8.574989318847656 36.44151306152344 66 55 48
-11.783353805541992 6.791661262512207 38.04833221435547 160 149 143
-6.2291259765625 9.365958213806152 37.99579620361328 69 61 57
-9.960673332214355 -2.68143630027771 34.498836517333984 179 173 177
-9.293782234191895 -11.968512535095215 38.8394660949707 101 87 74
-9.42651081085205 -4.750885009765625 33.89120864868164 212 212 223
-12.952861785888672 9.187541007995605 35.118629455566406 33 24 20
-9.531310081481934 -2.912498712539673 33.124717712402344 103 96 102
-5.192983627319336 7.822236061096191 38.900352478027344 31 25 27
-5.158160209655762 8.127936363220215 40.511375427246094 43 38 41
-13.006757736206055 6.8013224601745605 37.23672866821289 137 126 124
-9.047728538513184 7.4175825119018555 41.149566650390625 119 110 107
-10.160747528076172 6.585680961608887 36.52511978149414 60 48 43
-15.498799324035645 7.277566909790039 40.10472106933594 100 90 89
-7.659785270690918 7.147984027862549 39.46917724609375 81 72 71
-5.755795478820801 7.138943672180176 40.69597244262695 45 38 47
-10.06035041809082 6.545771598815918 37.9416618347168 132 120 115
-10.808298110961914 6.416292190551758 37.968955993652344 40 31 31
-13.734467506408691 -11.746773719787598 35.0637092590332 118 109 101
-7.4224853515625 -11.281783103942871 33.826236724853516 101 87 76
-1.4312491416931152 -11.70112133026123 38.533634185791016 76 76 74
-7.106420993804932 -11.857809066772461 38.961666107177734 127 125 118
-4.544532299041748 10.691176414489746 37.58021545410156 21 16 17
0.14921028912067413 -4.59116792678833 40.14462661743164 135 132 134
-8.266437530517578 6.9677557945251465 38.182613372802734 135 124 123
-11.54358959197998 -2.7966909408569336 34.168888092041016 179 175 180
-8.03258228302002 6.547347545623779 37.316768646240234 33 24 24
-12.115708351135254 -2.393252372741699 34.439476013183594 80 77 81
-3.399949073791504 6.687208652496338 39.832374572753906 121 114 127
-12.823533058166504 7.337807655334473 35.8568115234375 20 9 8
-8.887969970703125 5.7275872230529785 38.64213180541992 20 15 16
-3.5363388061523438 6.184025287628174 37.21543502807617 33 30 40
-13.899347305297852 5.444149017333984 36.65861892700195 148 143 149
-11.57738971710205 -8.395402908325195 39.79032897949219 47 32 23
-3.3308122158050537 15.168488502502441 44.059635162353516 79 73 66
-2.3056232929229736 14.163087844848633 42.197608947753906 140 135 128
-7.970917224884033 8.845620155334473 38.3735237121582 30 18 16
-7.926080226898193 6.358221530914307 38.03396987915039 130 123 128
-15.154828071594238 6.130337715148926 35.760215759277344 97 94 104
-3.7520103454589844 12.514595985412598 40.82865524291992 78 69 57
-6.956200122833252 6.503866672515869 38.10011291503906 98 91 97
-6.203369617462158 6.787130355834961 39.030941009521484 11 4 12
-9.179916381835938 -7.989413261413574 37.64299774169922 87 71 59
-4.285163879394531 13.751092910766602 45.75645446777344 137 128 115
-1.8005805015563965 12.82572078704834 43.347408294677734 58 52 44
-8.886985778808594 5.726925373077393 38.637393951416016 20 15 16
-1.730934739112854 12.094083786010742 41.50868606567383 151 143 134
-11.931851387023926 -4.705439567565918 30.20186996459961 71 58 54
-14.389862060546875 2.286046028137207 39.713287353515625 110 100 92
-13.558348655700684 2.111802816390991 37.92024612426758 72 61 52
-14.340332984924316 1.9463365077972412 36.58049774169922 67 54 44
-9.547481536865234 8.70922565460205 37.7738151550293 78 67 60
-6.510851860046387 11.193963050842285 39.146339416503906 38 30 30
-4.732642650604248 11.566350936889648 40.691322326660156 163 154 150
-14.23629379272461 -5.328900337219238 35.631858825683594 239 232 231
-6.31765079498291 11.157003402709961 39.5086669921875 97 90 93
-4.417623519897461 10.939555168151855 39.753570556640625 42 34 27
-9.934277534484863 -4.795944690704346 35.52127456665039 53 49 60
-12.453493118286133 6.491525650024414 36.87533187866211 141 129 128
-0.8688454031944275 10.537010192871094 39.11452102661133 157 147 139
-8.015838623046875 1.6911402940750122 38.14680480957031 124 114 106
