ply
format ascii 1.0
element vertex 708
property float x
property float y
property float z
property uchar red
property uchar green
property uchar blue
end_header
-6.331820011138916 -2.2767136096954346 15.356473922729492 179 173 169
-7.021690845489502 1.1562312841415405 15.023825645446777 25 19 20
-4.53957462310791 -0.5967776775360107 15.6827392578125 91 83 68
-6.3316874504089355 -2.276662588119507 15.35615062713623 179 173 169
0.8366566896438599 -5.316802024841309 17.039548873901367 119 119 126
-3.866713523864746 6.788837432861328 15.534015655517578 121 117 105
0.7621883749961853 -5.36630916595459 17.147348403930664 145 147 156
0.517858624458313 -5.569270610809326 17.67751693725586 68 68 73
0.5099400281906128 -5.478115558624268 17.377111434936523 68 69 74
-6.022240161895752 1.0672847032546997 15.290092468261719 157 149 135
-4.431506156921387 6.689426422119141 15.479695320129395 103 101 90
-5.424656391143799 9.35271167755127 15.94449520111084 93 88 78
-6.444210529327393 4.594701290130615 15.286375045776367 136 132 129
-2.946413278579712 6.708707332611084 15.546998023986816 93 88 78
-4.049225807189941 8.389991760253906 15.32729434967041 178 173 162
-4.436169147491455 9.51271915435791 16.340923309326172 68 62 50
-3.336324453353882 6.905467510223389 15.971342086791992 122 118 108
-4.502748966217041 7.9773759841918945 16.11601448059082 155 151 140
0.5099364519119263 -5.478121280670166 17.37709617614746 68 69 74
-5.656955718994141 9.153998374938965 15.739124298095703 183 176 166
-3.3688740730285645 6.73410177230835 15.72937297821045 191 186 176
-2.9462690353393555 6.91046667098999 16.17471694946289 187 183 173
-4.372531414031982 9.650041580200195 16.489206314086914 115 110 98
-5.794326305389404 9.070652961730957 15.454476356506348 161 156 147
-1.9063117504119873 8.076858520507812 16.276052474975586 169 165 154
-4.674310684204102 -0.5809592604637146 15.6094970703125 71 63 47
0.08661425113677979 -2.0887999534606934 17.20583152770996 152 156 165
-2.684156894683838 8.93013858795166 16.38453483581543 79 72 59
-4.493088722229004 0.81063312292099 15.60246467590332 79 70 58
-3.834848642349243 6.544728755950928 15.727972984313965 180 176 166
0.4022233188152313 7.016674041748047 16.971336364746094 66 62 64
-2.349382162094116 8.820133209228516 16.73068618774414 106 100 89
-4.698379039764404 0.7192944288253784 15.681169509887695 38 26 14
-6.0133748054504395 -3.397029399871826 14.653684616088867 137 129 119
0.39476683735847473 0.7865456938743591 17.115501403808594 96 94 102
0.5099323391914368 -5.478215217590332 17.37740707397461 68 69 74
-6.240705966949463 -1.7159098386764526 15.347826957702637 98 89 78
-4.936233997344971 0.6982551217079163 15.750041961669922 163 155 142
-4.935721397399902 0.698211669921875 15.748705863952637 163 155 142
-2.875725269317627 8.86898136138916 16.36101722717285 178 172 158
-0.5861647725105286 1.4626784324645996 16.831241607666016 145 141 136
0.31167685985565186 -1.8673311471939087 17.243749618530273 84 86 95
-0.5861519575119019 1.4626587629318237 16.831130981445312 145 141 136
-4.862819671630859 0.6186413168907166 15.522104263305664 156 144 128
-6.042910575866699 0.5292441248893738 15.27173137664795 128 120 107
-1.8743317127227783 -9.750407218933105 17.30107307434082 23 22 28
-0.4913474917411804 -2.645017623901367 16.888397216796875 15 13 14
-4.725600719451904 0.4970449209213257 15.443652153015137 78 69 59
-4.5703444480896 0.49465641379356384 15.561139106750488 201 188 171
-4.682706356048584 0.493313193321228 15.688754081726074 224 215 197
0.4197319746017456 1.5453907251358032 16.851600646972656 119 118 125
-4.725972652435303 0.49707430601119995 15.444669723510742 78 69 59
-2.950749635696411 8.300954818725586 16.37460708618164 106 102 90
-3.5310254096984863 7.83010721206665 16.155839920043945 87 82 71
0.41972291469573975 1.5454157590866089 16.851831436157227 119 118 125
0.41971060633659363 1.545436143875122 16.851930618286133 119 118 125
-0.49133214354515076 -2.6449954509735107 16.88745880126953 15 13 14
0.41981959342956543 1.5451722145080566 16.849769592285156 119 118 125
-4.571169853210449 0.4058144986629486 15.768097877502441 126 117 102
-4.699216365814209 0.41654565930366516 15.540189743041992 171 160 142
-4.5687456130981445 0.40537410974502563 15.760791778564453 126 117 102
-3.8119213581085205 8.100201606750488 15.942885398864746 167 162 150
-3.552260160446167 9.085512161254883 16.462268829345703 85 79 66
-3.981818675994873 -9.150106430053711 16.93214988708496 40 37 45
-4.138142108917236 -9.073783874511719 16.832632064819336 137 136 149
-4.138309955596924 -9.074291229248047 16.833499908447266 137 136 149
-4.2070207595825195 0.21801546216011047 15.815404891967773 102 97 85
-4.138644218444824 -9.074910163879395 16.83468246459961 137 136 149
0.7482582926750183 -3.0722544193267822 17.174304962158203 23 23 34
-4.208111763000488 0.21809574961662292 15.818792343139648 102 97 85
-4.910755634307861 7.493645191192627 15.72856616973877 72 68 58
-4.663492202758789 -0.6471998691558838 15.62647533416748 67 58 40
-4.208583831787109 0.21814125776290894 15.820406913757324 102 97 85
-4.474501609802246 -8.789667129516602 16.478687286376953 53 51 54
-3.1007156372070312 8.22287654876709 16.160438537597656 119 114 103
-4.208551406860352 0.21813581883907318 15.82027530670166 102 97 85
-4.627814292907715 -8.820260047912598 16.608877182006836 81 80 86
-2.7338004112243652 7.634705066680908 16.147369384765625 93 88 77
-4.447731018066406 0.057659801095724106 15.570507049560547 33 25 13
0.7601878643035889 -3.5745134353637695 17.396703720092773 107 107 115
-3.964348077774048 0.0957888662815094 15.689431190490723 24 17 7
-4.366743564605713 0.08853678405284882 15.63870906829834 63 54 42
-5.8350067138671875 8.768409729003906 15.68921947479248 165 158 148
-4.447987079620361 0.05760232359170914 15.57137680053711 33 25 13
-4.4478607177734375 0.05764094367623329 15.570884704589844 33 25 13
0.7601377367973328 -3.5756518840789795 17.401573181152344 107 107 115
-2.0085771083831787 8.462593078613281 16.499767303466797 128 123 111
-5.936079025268555 2.158316135406494 15.208270072937012 142 135 119
-0.5098025798797607 -9.356348991394043 17.890338897705078 34 35 39
-0.5566117167472839 -3.511261463165283 16.91722297668457 46 44 45
0.9165602922439575 -3.5357601642608643 17.11965560913086 50 50 57
0.3999689817428589 2.4586374759674072 17.35250473022461 112 109 117
-3.964600086212158 0.09586284309625626 15.69034481048584 24 17 7
-4.369179725646973 0.08815504610538483 15.647834777832031 63 54 42
-5.792614936828613 -8.526061058044434 16.50297737121582 74 70 73
-0.5625430345535278 -3.5308496952056885 16.98813247680664 78 76 76
-1.8932908773422241 9.007850646972656 17.493066787719727 144 140 128
-4.447839260101318 0.057627007365226746 15.57093620300293 33 25 13
-4.927414417266846 -0.6035844087600708 15.480022430419922 124 115 97
-3.859978437423706 7.531242370605469 16.01363754272461 64 60 49
0.7391088008880615 0.006783321965485811 17.168922424316406 146 145 154
-6.108644962310791 -0.00019056469318456948 15.309073448181152 159 149 133
-3.05037522315979 -3.4587795734405518 16.30605125427246 140 131 116
0.4162255823612213 2.554896354675293 17.313352584838867 126 124 133
0.6448587775230408 -0.06753604859113693 16.969083786010742 58 58 68
-2.283989667892456 -3.4713032245635986 16.297718048095703 172 162 148
-2.75634503364563 -3.5245397090911865 16.355241775512695 166 159 147
-2.604210615158081 -3.4779999256134033 16.295473098754883 153 147 134
-6.155027866363525 -1.1434425115585327 15.26108169555664 119 111 99
-2.6042540073394775 -3.4780092239379883 16.29564666748047 153 147 134
-4.667608261108398 -1.1935349702835083 15.531776428222656 106 97 79
-1.9129244089126587 7.73888635635376 16.59794044494629 103 96 85
-2.9632186889648438 -3.5487048625946045 16.34675407409668 190 180 167
-1.7981970310211182 8.536776542663574 16.55794906616211 147 142 130
-4.6082587242126465 -0.14188508689403534 15.682815551757812 82 75 58
-2.8104116916656494 7.589415550231934 16.235488891601562 118 114 104
-4.181365489959717 -0.12778340280056 15.667503356933594 62 54 41
0.3945215344429016 -3.7646725177764893 17.1832332611084 28 29 40
-2.257244825363159 -3.690312623977661 16.582534790039062 128 118 108
-2.366065263748169 -3.6196799278259277 16.5334529876709 195 187 174
-3.9501724243164062 7.446335792541504 15.99401569366455 57 53 42
-2.4870431423187256 -3.5776047706604004 16.241130828857422 23 15 10
-2.2572238445281982 -3.690284490585327 16.582395553588867 128 118 108
-5.180958271026611 9.11721420288086 16.134119033813477 54 50 40
-4.181368827819824 -0.1278015375137329 15.667515754699707 62 54 41
-4.73796272277832 -0.5542783141136169 15.393085479736328 157 148 130
-0.5569239258766174 -0.1464393138885498 16.813209533691406 132 127 127
-4.577111721038818 -0.9626238942146301 15.452561378479004 130 122 103
-2.7895634174346924 7.509366989135742 16.226228713989258 174 169 159
0.5969809889793396 -8.496675491333008 17.887609481811523 23 20 25
-4.57780122756958 -0.9627406001091003 15.454832077026367 130 122 103
-4.577780246734619 -0.9627358317375183 15.454774856567383 130 122 103
-2.4729952812194824 -3.7500827312469482 16.432477951049805 29 19 14
-4.608502388000488 -0.14192058145999908 15.683645248413086 82 75 58
-6.432325839996338 -3.499021291732788 15.421232223510742 109 103 99
-2.417043685913086 8.495311737060547 15.904548645019531 107 101 89
-0.4792506992816925 -0.9278165102005005 16.803037643432617 13 9 13
-0.6588507890701294 -8.12704849243164 17.36001205444336 70 67 65
-2.3133134841918945 7.475628852844238 16.212114334106445 147 142 131
-6.196133136749268 -3.4958629608154297 15.096879005432129 69 61 50
-2.6429877281188965 -3.7916035652160645 16.34256362915039 195 190 176
-3.3332040309906006 -0.5367425680160522 15.663934707641602 34 27 12
-2.3591573238372803 -3.8735008239746094 16.589197158813477 205 195 182
-2.7695815563201904 -3.8162455558776855 16.370962142944336 155 149 136
-6.445919513702393 8.861265182495117 15.593632698059082 175 171 164
-2.885042667388916 -3.9905848503112793 16.651142120361328 27 16 10
-2.656364679336548 -4.035123348236084 16.63936424255371 157 151 136
-2.656280755996704 -4.035073757171631 16.63888931274414 157 151 136
-0.5597810745239258 2.9500699043273926 16.627750396728516 120 115 113
-0.559820830821991 2.9501068592071533 16.62746238708496 120 115 113
-5.521867275238037 9.095369338989258 15.95663070678711 43 37 26
0.3954319655895233 -0.8353199362754822 17.17938232421875 81 82 90
0.9188900589942932 -0.8705672025680542 17.02127456665039 23 24 33
-1.9647105932235718 8.817376136779785 16.967632293701172 99 94 83
0.491678386926651 -4.529414176940918 17.216060638427734 20 21 32
-3.3020832538604736 -0.6156832575798035 15.80203914642334 60 52 39
-4.0292887687683105 -0.43234139680862427 15.725913047790527 183 177 163
-4.847792625427246 -0.6520683169364929 15.48249626159668 92 83 65
-1.3955178260803223 7.291821002960205 16.214555740356445 42 36 26
-3.665221691131592 -0.44643735885620117 15.76770305633545 47 41 34
-4.203673362731934 -0.5222524404525757 15.646002769470215 110 102 86
-3.998495101928711 -0.5155326128005981 15.720327377319336 40 33 24
-4.602678298950195 7.029664039611816 15.568937301635742 88 86 75
-4.718308448791504 -0.47656750679016113 15.606485366821289 46 36 21
-4.421767711639404 -0.4797956049442291 15.46169662475586 134 127 115
-1.5354995727539062 7.3810272216796875 16.390199661254883 137 133 122
-1.4032480716705322 7.314920902252197 16.278854370117188 29 22 13
-3.9985225200653076 -0.5155379772186279 15.720440864562988 40 33 24
-1.8695039749145508 8.438751220703125 15.993983268737793 112 107 97
0.49386268854141235 -7.405209541320801 17.485565185546875 92 92 95
0.3964337706565857 -7.378783702850342 17.446733474731445 42 43 47
-4.949354648590088 -0.724555492401123 15.582002639770508 86 77 62
-3.862205982208252 -0.5335208177566528 15.789764404296875 49 44 33
0.7810680270195007 -7.41578483581543 17.69624137878418 76 74 80
-5.440268516540527 9.147494316101074 15.875972747802734 68 62 51
-4.847779273986816 -0.6520654559135437 15.482461929321289 92 83 65
-3.1973588466644287 -0.5176680088043213 15.176509857177734 48 42 26
-4.606215000152588 -0.6954027414321899 15.580199241638184 152 145 126
-5.741367340087891 9.53432846069336 16.06764793395996 158 153 143
-3.798549175262451 -0.6571674346923828 15.7534818649292 73 65 49
-5.798981189727783 9.136849403381348 15.826885223388672 166 159 149
0.8572918772697449 -5.235309600830078 17.543794631958008 40 39 48
-2.3582229614257812 7.027591228485107 16.050453186035156 56 50 40
-2.7774441242218018 7.0692853927612305 16.097532272338867 120 117 106
-0.5463393926620483 -5.254018306732178 17.021636962890625 14 11 12
-3.201956272125244 7.039798736572266 16.213603973388672 61 56 46
-3.4711050987243652 9.139042854309082 16.277393341064453 128 122 109
-4.795908451080322 -8.726587295532227 16.52256965637207 71 71 73
-3.323180675506592 -0.5641282796859741 15.814846992492676 84 76 60
0.8198286890983582 -1.7040292024612427 16.985862731933594 122 123 132
-5.908146381378174 9.422983169555664 15.41485595703125 77 71 64
-5.734875202178955 9.285399436950684 15.88867473602295 152 147 137
-4.03370475769043 9.513932228088379 16.617666244506836 66 61 50
-6.155176162719727 -1.1434670686721802 15.261394500732422 119 111 99
-2.8695068359375 -3.8407704830169678 16.419795989990234 179 171 158
-6.108688831329346 -0.0001842443598434329 15.309164047241211 159 149 133
-2.3881313800811768 -3.8913779258728027 16.729354858398438 182 173 159
-2.9914298057556152 9.052919387817383 16.42060661315918 83 76 63
-6.196135520935059 -3.495863437652588 15.096883773803711 69 61 50
0.4138246774673462 -4.414551734924316 17.068437576293945 61 62 71
-4.936246395111084 0.6982357501983643 15.750118255615234 163 155 142
0.5969811081886292 -8.49666690826416 17.887598037719727 23 20 25
0.5695775747299194 0.7114997506141663 16.98685646057129 158 158 167
-2.3599865436553955 -3.734363317489624 16.529010772705078 201 191 178
-4.369168281555176 0.0881599709391594 15.64777946472168 63 54 42
-0.6664033532142639 -8.024279594421387 17.414548873901367 52 48 48
-0.4913274645805359 -2.6449713706970215 16.88738250732422 15 13 14
0.517858624458313 -5.569271087646484 17.677518844604492 68 68 73
-3.964538812637329 0.09585736691951752 15.690131187438965 24 17 7
-2.3325018882751465 -3.581089496612549 16.333423614501953 189 181 168
-0.6122228503227234 -5.296799659729004 17.046890258789062 45 37 32
-6.44414758682251 4.594663619995117 15.286245346069336 136 132 129
-6.490108966827393 -7.0491156578063965 15.820300102233887 97 92 81
-3.1852035522460938 6.873928070068359 16.147951126098633 71 67 57
-2.756403684616089 -3.524625301361084 16.355512619018555 166 159 147
-2.604193687438965 -3.4779794216156006 16.295394897460938 153 147 134
-2.7563226222991943 -3.524505138397217 16.35513687133789 166 159 147
-2.2840235233306885 -3.471325635910034 16.297893524169922 172 162 148
-2.6562674045562744 -4.035102844238281 16.638824462890625 157 151 136
-2.014657497406006 -9.809542655944824 17.369428634643555 98 99 107
-4.568835258483887 0.4053938090801239 15.761072158813477 126 117 102
-4.213928699493408 0.07614561170339584 15.669098854064941 39 34 20
0.39643484354019165 -7.378805160522461 17.446775436401367 42 43 47
-6.331824779510498 -2.276714563369751 15.356483459472656 179 173 169
-0.5590810179710388 -3.519052743911743 16.911937713623047 82 79 80
0.6161046624183655 7.851795196533203 17.17719078063965 45 41 43
0.7684975862503052 3.1840248107910156 16.969966888427734 13 12 18
-0.5611691474914551 -1.7983251810073853 16.90096664428711 69 66 65
0.39477089047431946 0.7865303754806519 17.114858627319336 96 94 102
0.39997398853302 2.458618402481079 17.352296829223633 112 109 117
-4.514602184295654 -0.0006097292061895132 15.930217742919922 39 30 18
-4.474514484405518 -8.789690017700195 16.478727340698242 53 51 54
-4.083693981170654 0.4155339300632477 15.682270050048828 143 135 121
-4.181392192840576 -0.1277926117181778 15.667558670043945 62 54 41
-4.496835231781006 -0.15812818706035614 15.667633056640625 49 42 25
-3.1869277954101562 -0.24134905636310577 15.839314460754395 120 111 96
0.060472726821899414 -2.1250619888305664 16.84562873840332 198 201 211
-4.59810209274292 -0.33121639490127563 15.16005802154541 98 90 70
-3.6654140949249268 -0.44642573595046997 15.768539428710938 47 41 34
0.08365614712238312 -2.0965025424957275 17.262704849243164 152 156 165
-4.674221992492676 -0.5809462666511536 15.609253883361816 71 63 47
-0.5839110016822815 -4.462259292602539 17.139842987060547 174 170 171
0.4916999638080597 -4.529296398162842 17.215620040893555 20 21 32
-4.725791931152344 0.4970507323741913 15.444191932678223 78 69 59
0.4198315739631653 1.5451596975326538 16.84980010986328 119 118 125
-0.5186932682991028 -9.411190032958984 17.99565315246582 33 34 38
-4.583515167236328 0.4941248595714569 15.411869049072266 229 220 202
0.413772851228714 -4.414121150970459 17.06670570373535 61 62 71
-6.118376731872559 -0.5853958129882812 15.331180572509766 137 128 112
-4.847643852233887 -0.6520514488220215 15.48210620880127 92 83 65
-4.606220722198486 -0.6954066753387451 15.580217361450195 152 145 126
-6.240581512451172 -1.7158950567245483 15.347572326660156 86 77 67
-6.055159091949463 -8.307625770568848 16.189851760864258 68 64 66
0.36724406480789185 -1.9570313692092896 17.902523040771484 18 19 28
0.39544469118118286 -0.8353135585784912 17.179101943969727 81 82 90
0.39476147294044495 0.7865554690361023 17.115568161010742 96 94 102
0.31665360927581787 -0.8856694102287292 17.093400955200195 131 131 140
-0.47928667068481445 -0.9277235269546509 16.80343246459961 13 9 13
-0.47924578189849854 -0.9278289675712585 16.803010940551758 13 9 13
-4.447732448577881 0.05766015872359276 15.57050895690918 33 25 13
-2.885065793991089 -3.9907023906707764 16.65135383605957 27 16 10
0.3063408434391022 -1.8807227611541748 17.372562408447266 85 87 96
-2.884814739227295 -3.9904298782348633 16.650028228759766 27 16 10
-0.45665493607521057 0.6733962893486023 16.81587028503418 22 18 19
-6.638338088989258 9.236784934997559 16.707477569580078 62 56 47
-0.6777368783950806 -8.997885704040527 17.47815704345703 32 29 28
-1.9743341207504272 7.2112298011779785 16.434505462646484 40 33 24
-4.627828598022461 -8.820282936096191 16.608917236328125 81 80 86
-4.577812194824219 -0.9627429842948914 15.454861640930176 130 122 103
-2.8849260807037354 -3.9906117916107178 16.65083122253418 27 16 10
-4.204134464263916 -0.5223128795623779 15.647632598876953 110 102 86
-4.138566017150879 -9.074742317199707 16.83434295654297 137 136 149
-3.9985315799713135 -0.5155390501022339 15.72046947479248 40 33 24
-4.256332874298096 8.560905456542969 16.395645141601562 163 158 147
0.8077865839004517 -2.5921213626861572 16.31443977355957 21 21 28
-0.539771556854248 -9.242324829101562 17.828109741210938 65 64 68
-0.5627151131629944 2.202702522277832 16.582258224487305 166 161 161
0.4197107255458832 1.5454503297805786 16.852130889892578 119 118 125
-6.929187774658203 1.6637725830078125 14.91101360321045 59 54 54
-2.870736837387085 8.71553897857666 16.309663772583008 111 104 91
-5.66296911239624 9.291889190673828 15.922337532043457 153 147 137
-0.5616444945335388 2.1986095905303955 16.553165435791016 166 161 161
-6.313900470733643 8.350176811218262 15.542362213134766 42 37 28
-0.5597941279411316 2.950047254562378 16.627235412597656 120 115 113
-2.791395902633667 7.512514591217041 16.23586654663086 174 169 159
-5.553174018859863 9.143939018249512 16.03816795349121 63 57 46
-3.8628437519073486 6.583082675933838 15.82130241394043 180 176 166
-3.5344228744506836 8.367254257202148 14.776288032531738 103 98 87
-0.5611295700073242 -1.798275113105774 16.90050506591797 69 66 65
0.4866325855255127 1.5757081508636475 16.869070053100586 58 57 65
-3.798612117767334 -0.6571803092956543 15.753691673278809 73 65 49
-4.927369594573975 -0.6035747528076172 15.479881286621094 124 115 97
-4.208543300628662 0.21813525259494781 15.820249557495117 102 97 85
-3.839811086654663 -0.6569374203681946 15.883642196655273 97 90 74
-3.9553802013397217 7.9455952644348145 15.902888298034668 52 48 35
-4.605003356933594 -0.6951722502708435 15.576066970825195 152 145 126
-2.0345523357391357 9.066447257995605 16.94340705871582 94 89 79
-7.150845050811768 -0.53428715467453 15.110552787780762 102 97 97
-2.842881441116333 8.700055122375488 16.451751708984375 168 161 149
-4.801011562347412 -1.8825912475585938 15.84443187713623 96 88 69
0.08628066629171371 -2.0894858837127686 17.211538314819336 152 156 165
-3.9984140396118164 -0.515524685382843 15.720077514648438 40 33 24
0.38077273964881897 2.504316568374634 16.727237701416016 63 62 70
1.2833061218261719 -2.7371954917907715 17.157146453857422 56 60 68
-4.656685829162598 9.13944149017334 16.31710433959961 86 81 70
0.755662739276886 -5.546772003173828 17.69390106201172 121 122 130
-3.9984989166259766 -0.5155286192893982 15.720344543457031 40 33 24
-0.5476092100143433 -5.258730888366699 17.035898208618164 14 11 12
0.41922372579574585 2.5421714782714844 17.212629318237305 126 124 133
-4.126567363739014 8.955069541931152 16.103736877441406 155 150 139
0.7601298689842224 -3.575817584991455 17.40231704711914 107 107 115
0.916556179523468 -3.535748243331909 17.119688034057617 50 50 57
-3.3123490810394287 7.9591851234436035 16.031513214111328 154 150 137
0.9208847284317017 -0.8677746057510376 16.993249893188477 16 15 24
-0.5569111108779907 -0.14642883837223053 16.81306266784668 132 127 127
-2.5031673908233643 9.038028717041016 16.534849166870117 127 121 108
-0.08177021145820618 -0.8552926182746887 16.75925064086914 61 64 73
-3.813579797744751 -0.10895472764968872 15.418737411499023 77 70 56
-2.306621551513672 9.191418647766113 16.787689208984375 66 60 48
-1.9653445482254028 8.819234848022461 16.971139907836914 99 94 83
-4.739804744720459 0.4220978319644928 15.739168167114258 51 40 22
0.8659176230430603 -4.545566082000732 17.236385345458984 71 72 79
-2.25712251663208 -3.6902472972869873 16.581958770751953 128 118 108
-1.663104772567749 8.417827606201172 16.083354949951172 90 86 75
-4.181214809417725 -0.12779034674167633 15.667060852050781 62 54 41
-3.9358067512512207 -9.219564437866211 17.057632446289062 103 99 105
-4.5991339683532715 -1.0407792329788208 15.753396987915039 72 63 47
-5.804657459259033 5.269449234008789 15.32689380645752 36 29 21
-6.631085395812988 -6.732710838317871 15.660441398620605 132 125 113
-4.487875938415527 -0.4950651228427887 15.72698974609375 136 128 115
-3.6742827892303467 6.864604949951172 16.015710830688477 96 92 82
-2.86214542388916 9.024209022521973 16.45821189880371 90 83 69
-4.1512885093688965 0.5365316867828369 15.56113052368164 152 143 126
0.21698881685733795 -2.6385560035705566 17.01047134399414 48 49 56
-1.2105780839920044 -10.013726234436035 17.372339248657227 110 109 121
-0.28341636061668396 -8.27899169921875 17.610553741455078 43 42 52
-3.5063042640686035 6.532040596008301 15.263873100280762 105 100 90
-4.646172523498535 -0.512212336063385 16.177534103393555 127 119 105
-7.123196125030518 8.937355995178223 15.159516334533691 85 82 78
-4.033911228179932 9.514348983764648 16.618408203125 66 61 50
-0.5482200384140015 0.705628514289856 16.718442916870117 147 143 137
-6.929162502288818 1.663769006729126 14.910961151123047 59 54 54
-6.905959606170654 4.4113945960998535 15.12065601348877 42 38 35
-2.570138454437256 7.216614723205566 16.48494529724121 117 113 103
-3.9075775146484375 -0.10385666787624359 15.711451530456543 67 59 46
-6.768012046813965 2.1751179695129395 14.609696388244629 144 140 137
-4.731939315795898 -10.473509788513184 16.868934631347656 13 10 17
-6.180318355560303 9.157675743103027 16.024686813354492 90 84 75
-2.3318636417388916 8.598833084106445 17.170421600341797 117 113 103
-6.45653772354126 1.780698299407959 15.095452308654785 148 141 142
-6.331830024719238 -2.2767207622528076 15.356513977050781 179 173 169
0.386126846075058 -2.602754592895508 17.111814498901367 29 28 36
0.5099207162857056 -5.478656768798828 17.378742218017578 68 69 74
0.7653449177742004 -5.392862319946289 17.250503540039062 122 124 133
-0.6335045099258423 -5.375313758850098 17.278417587280273 45 38 32
-0.5102699398994446 -4.932122230529785 15.947728157043457 34 29 27
-0.6118966341018677 -2.6744823455810547 16.952394485473633 127 120 111
-6.413573265075684 -4.787281513214111 15.458661079406738 124 116 102
-4.935782432556152 0.6982020139694214 15.748839378356934 163 155 142
0.564340353012085 0.7053806185722351 16.908143997192383 176 176 185
-1.8742955923080444 -9.750200271606445 17.30072021484375 23 22 28
-2.014636516571045 -9.80949878692627 17.369306564331055 98 99 107
-4.5687971115112305 0.40538913011550903 15.760966300964355 126 117 102
-2.710796594619751 -3.1828269958496094 16.337587356567383 34 25 13
0.7601298689842224 -3.575817584991455 17.40231704711914 107 107 115
-0.4568292498588562 0.6733749508857727 16.816877365112305 22 18 19
-0.5610798597335815 -3.5052595138549805 16.983022689819336 12 10 12
-3.9361159801483154 -9.220129013061523 17.058692932128906 103 99 105
-4.6917195320129395 0.42987537384033203 15.595148086547852 66 54 37
-4.138491630554199 -9.074605941772461 16.834081649780273 137 136 149
0.4499673843383789 -3.5501232147216797 17.022993087768555 73 75 83
-0.5589901208877563 -3.518634080886841 16.909605026245117 82 79 80
-0.5589865446090698 -3.5186402797698975 16.909643173217773 82 79 80
0.38324037194252014 -3.569145679473877 16.686885833740234 24 25 34
-5.07133150100708 -8.70564079284668 16.49462127685547 56 54 54
-2.75638484954834 -3.524600028991699 16.355432510375977 166 159 147
-0.5094512104988098 -9.353562355041504 17.88508415222168 34 35 39
-2.9433059692382812 -3.555830717086792 16.315065383911133 163 154 141
-2.3629367351531982 -3.6056230068206787 16.483186721801758 158 150 137
-2.577131509780884 -3.7258946895599365 16.787078857421875 40 35 24
-2.257136583328247 -3.6902458667755127 16.581998825073242 128 118 108
-2.365354537963867 -3.728067398071289 16.48680877685547 150 141 128
-2.7159249782562256 -4.116813659667969 18.044784545898438 77 68 58
-6.485623836517334 -3.529417037963867 15.549734115600586 105 98 93
0.4916918873786926 -4.529213905334473 17.215267181396484 20 21 32
-0.5772855281829834 -4.439709663391113 17.06481170654297 125 122 124
-6.917885780334473 -3.5643465518951416 15.32966423034668 20 16 18
-2.677286148071289 -3.805969715118408 16.475168228149414 179 173 161
-2.3902316093444824 -3.8763628005981445 16.678319931030273 173 163 152
-6.4491777420043945 -3.619624137878418 15.516742706298828 138 130 123
-3.0461227893829346 -3.790419578552246 16.358713150024414 141 132 120
-2.9288692474365234 -3.9093286991119385 16.631010055541992 134 126 113
-2.8850245475769043 -3.9906914234161377 16.651214599609375 27 16 10
-2.656468391418457 -4.035248279571533 16.639890670776367 157 151 136
-2.656268835067749 -4.035027503967285 16.638839721679688 157 151 136
-3.028242588043213 -4.03473424911499 16.784591674804688 25 15 8
-4.369225978851318 0.08815930783748627 15.647934913635254 63 54 42
-0.30853018164634705 -8.444756507873535 17.957778930664062 41 40 50
-4.478204727172852 -0.007821840234100819 15.83202075958252 98 91 74
0.7519130110740662 4.9779953956604 17.32133674621582 120 115 121
-0.5569395422935486 -0.1464611440896988 16.813339233398438 132 127 127
-4.496288299560547 -0.1581544429063797 15.665838241577148 49 42 25
0.39542514085769653 -0.8353121876716614 17.1794490814209 81 82 90
-4.608394145965576 -0.14190424978733063 15.683272361755371 82 75 58
-4.079254150390625 -0.27621930837631226 15.713194847106934 81 74 63
-3.1868746280670166 -0.24134328961372375 15.83907413482666 120 111 96
-3.185964822769165 -0.4144931137561798 15.815473556518555 79 72 60
-3.910980701446533 -0.40578386187553406 15.294286727905273 102 93 81
-4.1915388107299805 -0.43135666847229004 15.627815246582031 158 150 135
0.3000625669956207 1.4825012683868408 17.060649871826172 118 117 124
0.4014149010181427 1.44729745388031 16.56019401550293 66 65 73
-4.7630743980407715 -0.4676508903503418 15.714323043823242 68 58 42
-3.9985134601593018 -0.5155290365219116 15.720394134521484 40 33 24
-4.438339710235596 -0.48855748772621155 15.560630798339844 132 124 111
0.3963944911956787 -7.379324913024902 17.44797706604004 42 43 47
0.41974565386772156 1.545399785041809 16.851945877075195 119 118 125
-3.192152261734009 -0.5163962244987488 15.150755882263184 48 42 26
0.4689735472202301 -7.291740894317627 17.434566497802734 97 98 101
-4.681357383728027 -0.5266880989074707 15.265681266784668 139 130 112
-4.638591766357422 -0.6474555134773254 15.71395206451416 162 155 137
-4.848067283630371 -0.6521165370941162 15.483227729797363 92 83 65
-3.7984774112701416 -0.6571617722511292 15.753252983093262 73 65 49
-3.825788736343384 -0.7071501016616821 16.006086349487305 82 75 58
-4.998484134674072 -0.7212275862693787 15.730052947998047 69 61 47
-0.47925707697868347 -0.9278019070625305 16.803133010864258 13 9 13
0.8509606719017029 2.3100156784057617 16.94384765625 138 134 141
-4.67684268951416 -1.1531182527542114 15.775320053100586 45 35 22
-4.66777229309082 -1.193534016609192 15.5321626663208 106 97 79
-6.154899597167969 -1.1434180736541748 15.260744094848633 119 111 99
-4.603302955627441 0.47433120012283325 15.41832160949707 220 209 192
-0.5597009062767029 2.949859380722046 16.626516342163086 120 115 113
0.36718061566352844 -1.95670485496521 17.899486541748047 18 19 28
-0.5597227811813354 2.9499402046203613 16.62705421447754 120 115 113
-4.7657790184021 -1.8699843883514404 15.7289400100708 96 88 69
0.08419334888458252 -2.0948517322540283 17.252084732055664 152 156 165
0.696790874004364 3.195300340652466 16.89692497253418 147 145 151
0.5094593167304993 -5.4646992683410645 17.099626541137695 143 144 149
-5.804901123046875 5.269630432128906 15.327445030212402 36 29 21
-4.782975673675537 0.7665089964866638 15.664216041564941 154 145 129
-4.542842388153076 0.32046717405319214 15.740876197814941 57 46 29
0.8198015093803406 -1.7043646574020386 16.988847732543945 122 123 132
-4.627660751342773 0.3573744595050812 15.678129196166992 66 55 37
-4.724562168121338 0.41111645102500916 15.471556663513184 149 138 120
-4.587873458862305 0.4124145209789276 15.822074890136719 141 130 113
0.5970280170440674 -9.67183780670166 17.976863861083984 114 112 116
-4.155570983886719 0.5376534461975098 15.576770782470703 152 143 126
-5.658214092254639 9.15655517578125 15.742183685302734 183 176 166
-5.594025611877441 -8.388501167297363 16.223299026489258 51 45 48
-4.56505823135376 8.68140983581543 16.20199203491211 139 135 124
0.39452528953552246 -3.7646400928497314 17.183128356933594 28 29 40
-3.603477716445923 8.877023696899414 15.877697944641113 89 85 71
0.41804245114326477 -3.873335599899292 18.032360076904297 57 59 67
0.6160492897033691 7.851150989532471 17.175735473632812 45 41 43
-5.872984886169434 2.68217134475708 15.119407653808594 50 42 32
-5.873159408569336 2.6822264194488525 15.119956970214844 50 42 32
-3.8718066215515137 6.648097038269043 15.778770446777344 66 63 51
-3.8713526725769043 6.647401332855225 15.776947975158691 66 63 51
1.2833067178726196 -2.7372002601623535 17.157175064086914 56 60 68
-2.4373626708984375 7.305522441864014 16.597482681274414 116 110 100
-5.702452182769775 8.976776123046875 15.865875244140625 153 146 136
-2.907257556915283 8.949548721313477 16.519676208496094 178 172 158
-5.374721050262451 8.439018249511719 14.695185661315918 99 92 82
-3.029614210128784 7.94718074798584 16.636934280395508 110 107 96
-0.5617240071296692 2.1987030506134033 16.554054260253906 166 161 161
-0.09891821444034576 -0.9280074834823608 16.89312171936035 30 31 39
0.9305985569953918 -0.8765514492988586 17.000646591186523 26 26 35
-4.203151702880859 8.606260299682617 16.353116989135742 173 168 157
0.6163896322250366 -7.301107883453369 17.391393661499023 44 44 47
0.493080198764801 1.5944689512252808 17.07046127319336 67 66 74
-3.8622395992279053 -0.5335298776626587 15.789896965026855 49 44 33
-6.631059646606445 -6.7326979637146 15.66039752960205 132 125 113
-6.59437894821167 -6.79823637008667 15.561278343200684 113 107 97
-4.277585506439209 -0.3013230860233307 15.62881088256836 105 98 81
-4.679747104644775 -0.3276522159576416 15.454110145568848 116 108 90
-3.1889750957489014 8.55804443359375 16.435182571411133 167 162 151
-6.767982482910156 2.175109624862671 14.609642028808594 144 140 137
-4.2140350341796875 0.07614757120609283 15.669465065002441 39 34 20
-6.925101280212402 2.759406328201294 15.011507034301758 127 123 120
-5.079195976257324 7.599801540374756 15.570246696472168 72 68 58
-0.6172595620155334 -0.7234698534011841 16.803857803344727 44 42 43
-4.7386674880981445 0.4074923098087311 15.745397567749023 62 52 33
-7.074086666107178 -1.116999626159668 15.627610206604004 38 31 33
-6.46748161315918 8.71762752532959 15.603134155273438 147 142 134
-6.611905097961426 -8.194714546203613 16.201736450195312 79 77 78
-5.110531806945801 9.835031509399414 16.927888870239258 148 141 131
-6.8915181159973145 8.519058227539062 15.797438621520996 97 90 81
1.2266919612884521 -0.08442246913909912 17.203227996826172 83 84 94
-6.665666580200195 -2.8993849754333496 14.900470733642578 128 124 126
-4.280823230743408 8.30350399017334 15.852513313293457 72 67 56
-4.896430969238281 -2.0446953773498535 16.464336395263672 127 118 100
-0.5596525073051453 2.949772357940674 16.626022338867188 120 115 113
-1.8743764162063599 -9.75067138671875 17.301517486572266 23 22 28
-5.89821720123291 2.686713695526123 15.178056716918945 71 63 52
-0.5597962141036987 2.9500529766082764 16.627254486083984 120 115 113
-3.443545341491699 -9.527538299560547 17.292341232299805 138 135 141
-4.138658046722412 -9.07494068145752 16.834735870361328 137 136 149
-4.450638771057129 0.5532465577125549 15.751227378845215 79 69 53
0.3613162040710449 3.108663558959961 17.13234519958496 48 46 53
-6.444063186645508 4.594612121582031 15.2860746383667 136 132 129
-3.8664960861206055 6.642650127410889 15.757826805114746 66 63 51
-0.6235067844390869 2.1482532024383545 16.895660400390625 53 47 44
-0.5626922845840454 2.2026259899139404 16.58171844482422 166 161 161
0.686862587928772 3.2362914085388184 17.128293991088867 157 155 161
0.7613749504089355 4.821849346160889 16.79548454284668 57 51 58
0.2831800878047943 7.38554573059082 17.98676872253418 69 67 69
-6.609240531921387 -8.191184997558594 16.19515037536621 79 77 78
0.8703333735466003 -8.495102882385254 17.592248916625977 100 99 104
0.38249319791793823 -8.073629379272461 17.179080963134766 124 123 130
-5.935256004333496 3.2549948692321777 15.278297424316406 70 62 51
-6.631087303161621 -6.732736110687256 15.660472869873047 132 125 113
0.4937877655029297 -7.406579494476318 17.488582611083984 92 92 95
0.5083007216453552 -7.304031848907471 17.42074966430664 95 95 98
0.7810635566711426 -7.415818691253662 17.696271896362305 76 74 80
-7.0735578536987305 -5.84968376159668 16.670835494995117 114 107 101
0.36125820875167847 -5.473306179046631 17.23664665222168 108 109 119
0.8406264185905457 -5.181297302246094 16.609390258789062 84 84 91
-0.5476041436195374 -5.258615493774414 17.035472869873047 14 11 12
-0.5475977659225464 -5.258710861206055 17.035858154296875 14 11 12
-0.47189900279045105 3.6067895889282227 16.345842361450195 43 38 42
-0.5843785405158997 -4.464207172393799 17.147140502929688 174 170 171
-4.507340431213379 -0.2979032099246979 15.554346084594727 108 100 87
-2.6420533657073975 -3.8763489723205566 16.258085250854492 171 163 149
-3.046236038208008 -3.7905633449554443 16.35932159423828 141 132 120
-2.396690845489502 -3.8708198070526123 16.694334030151367 154 144 132
-6.917929172515869 -3.564366340637207 15.329748153686523 20 16 18
-2.7693305015563965 -3.8159072399139404 16.369495391845703 155 149 136
-2.6534481048583984 -3.759026050567627 16.326290130615234 131 125 113
-2.446632146835327 -3.789088010787964 16.728628158569336 140 131 119
-2.2571029663085938 -3.6901934146881104 16.58176612854004 128 118 108
-2.559784173965454 -3.7249596118927 16.733858108520508 41 34 23
-2.944749593734741 -3.581105947494507 16.345417022705078 143 134 121
-2.359363079071045 -3.6067235469818115 16.429384231567383 157 149 136
-2.604215145111084 -3.477968215942383 16.29546356201172 153 147 134
0.6781123876571655 -7.380314350128174 17.628419876098633 93 92 97
-2.7563276290893555 -3.5245156288146973 16.35516929626465 166 159 147
-2.284083843231201 -3.4714062213897705 16.298194885253906 172 162 148
0.39542675018310547 -0.835278332233429 17.179189682006836 81 82 90
-6.575427532196045 -6.800494194030762 15.526805877685547 110 106 96
-0.5625749826431274 -3.5310423374176025 16.988998413085938 78 76 76
0.9165612459182739 -3.535600423812866 17.1190242767334 50 50 57
0.760139524936676 -3.5756278038024902 17.401485443115234 107 107 115
0.760137677192688 -3.5755467414855957 17.401233673095703 107 107 115
-6.394550800323486 -2.9034063816070557 15.432122230529785 111 106 100
-2.717268943786621 -3.1415164470672607 16.535860061645508 101 93 79
0.8007092475891113 -2.7252957820892334 17.066431045532227 42 41 49
-0.49133989214897156 -2.6449904441833496 16.888179779052734 15 13 14
-0.4913444221019745 -2.645012617111206 16.888198852539062 15 13 14
-1.8710899353027344 7.740207672119141 17.46497344970703 34 28 18
0.3127424716949463 -2.58670973777771 17.028257369995117 97 99 106
0.38610535860061646 -2.6028647422790527 17.11246681213379 29 28 36
0.08470886200666428 -2.095449447631836 17.246448516845703 152 156 165
-4.765750885009766 -1.8699429035186768 15.728849411010742 96 88 69
-6.793566703796387 -4.14109468460083 15.042594909667969 32 27 29
-6.240824222564697 -1.7159576416015625 15.348146438598633 86 77 67
0.4142492711544037 -1.8148252964019775 16.59592628479004 38 38 49
-0.5610839128494263 -1.798213243484497 16.900022506713867 69 66 65
0.4362557530403137 -1.7687345743179321 17.000864028930664 99 102 110
0.8198072910308838 -1.7043005228042603 16.988256454467773 122 123 132
-6.40703821182251 -1.138973593711853 15.535906791687012 129 123 121
-4.668118953704834 -1.1935869455337524 15.533092498779297 106 97 79
-4.577822685241699 -0.9627370238304138 15.454915046691895 130 122 103
-0.4792492389678955 -0.9278190732002258 16.80303192138672 13 9 13
-0.479290246963501 -0.9277169704437256 16.803495407104492 13 9 13
0.9213728308677673 -0.9919934272766113 18.483476638793945 43 44 53
0.395440936088562 -0.8353021144866943 17.179065704345703 81 82 90
-4.158666610717773 8.594550132751465 16.010330200195312 148 143 132
-4.604988098144531 -0.6951625943183899 15.576006889343262 152 145 126
-4.847933769226074 -0.6520907282829285 15.48287296295166 92 83 65
-3.798576831817627 -0.6571432948112488 15.753570556640625 73 65 49
-4.6080169677734375 -0.6470214128494263 15.631388664245605 162 154 136
-3.537665367126465 -0.65294349193573 16.66042137145996 126 118 103
-4.862832546234131 -0.5403746366500854 15.769523620605469 151 141 123
-3.196938991546631 -0.5176497101783752 15.175040245056152 48 42 26
-4.692941665649414 -0.4624464809894562 15.49990177154541 65 56 39
-3.9984841346740723 -0.5155248641967773 15.720297813415527 40 33 24
-3.664860486984253 -0.4463452696800232 15.766410827636719 47 41 34
-4.227834224700928 -0.43865787982940674 15.786454200744629 138 130 116
-4.0225911140441895 -0.43586692214012146 15.651997566223145 143 136 122
-3.185853958129883 -0.4144749045372009 15.814919471740723 79 72 60
-4.079322814941406 -0.27621540427207947 15.713478088378906 81 74 63
-5.846297264099121 9.268342971801758 15.959636688232422 129 124 114
-4.84517240524292 0.4576101005077362 15.574053764343262 63 51 36
0.7458324432373047 0.0022400703746825457 16.902570724487305 130 129 138
0.6342977285385132 -7.4665117263793945 17.713253021240234 36 36 40
-3.964293956756592 0.09577297419309616 15.689352035522461 24 17 7
-6.942344665527344 -5.16865873336792 16.5628604888916 117 110 99
-4.568851947784424 0.4053964912891388 15.761155128479004 126 117 102
-4.083630084991455 0.4155176281929016 15.682024955749512 143 135 121
-4.587730884552002 0.4123894274234772 15.82168960571289 141 130 113
-3.5782577991485596 9.13594913482666 16.55925941467285 79 73 60
-4.634593486785889 0.42302319407463074 15.43930721282959 59 47 31
-4.6081862449646 0.49296504259109497 15.49793815612793 156 144 127
-6.49406623840332 -6.921428680419922 15.700284004211426 77 72 59
-4.139073848724365 0.5339365601539612 15.516074180603027 152 143 126
-3.987025260925293 0.5698937177658081 15.686322212219238 125 116 99
-0.45683571696281433 0.6734742522239685 16.818208694458008 22 18 19
0.530796468257904 0.6765158176422119 16.611135482788086 108 107 119
-4.935266494750977 0.6981094479560852 15.74747085571289 163 155 142
0.3664577901363373 7.730784893035889 17.079662322998047 61 57 58
-4.8332200050354 0.7710429430007935 15.819032669067383 156 145 130
-6.022371292114258 1.0673080682754517 15.290409088134766 157 149 135
-3.8717525005340576 6.6480207443237305 15.778558731079102 66 63 51
-0.5589848160743713 -7.029225826263428 17.068145751953125 30 29 32
-3.542426109313965 -0.6227195262908936 15.085280418395996 188 180 163
0.49120184779167175 1.5723893642425537 16.810089111328125 50 49 57
0.7382144331932068 1.632389783859253 16.81386375427246 130 129 135
0.05236159637570381 -3.3459954261779785 17.124042510986328 159 159 172
-4.595707893371582 -0.7946456670761108 15.5910062789917 183 174 156
-0.6559469103813171 7.805251598358154 17.0814151763916 84 79 69
0.36664411425590515 7.735057830810547 17.089162826538086 61 57 58
-0.3038293421268463 -10.3790864944458 17.587459564208984 107 105 111
-2.014660120010376 -9.809530258178711 17.369436264038086 98 99 107
-3.9629218578338623 6.768101692199707 15.891942977905273 40 38 27
-3.1824283599853516 6.6087517738342285 15.628087043762207 128 125 114
-3.7185161113739014 -8.527769088745117 15.800451278686523 95 93 103
-4.138713359832764 -9.07503604888916 16.834915161132812 137 136 149
-3.866473913192749 6.642619609832764 15.757744789123535 66 63 51
-6.613866329193115 -8.19724178314209 16.206602096557617 79 77 78
0.8623084425926208 -8.468679428100586 17.513307571411133 101 100 105
0.5969810485839844 -8.496670722961426 17.887601852416992 23 20 25
-0.6588178277015686 -8.12674331665039 17.35935401916504 70 67 65
-6.630930423736572 -6.732572078704834 15.660102844238281 132 125 113
0.4938015639781952 -7.406344413757324 17.48806381225586 92 92 95
0.39641010761260986 -7.379140853881836 17.447540283203125 42 43 47
0.4689926505088806 -7.292054176330566 17.435327529907227 97 98 101
0.7810463309288025 -7.415654182434082 17.69585418701172 76 74 80
0.39939743280410767 6.098332405090332 17.092891693115234 20 15 16
-7.35422945022583 -6.681114673614502 17.088916778564453 68 63 61
0.5105908513069153 -5.529355525970459 17.22945213317871 120 120 127
0.35225778818130493 -5.5873870849609375 17.554161071777344 96 98 108
0.8710973262786865 -5.204934597015381 16.613048553466797 57 56 63
0.7343049049377441 -5.3644022941589355 17.23554801940918 91 93 101
-0.6167343258857727 -5.170482635498047 16.781795501708984 155 147 134
-0.617276132106781 -5.095549583435059 16.80132484436035 146 140 132
-6.57580041885376 -4.336174011230469 15.696344375610352 133 126 121
-6.713641166687012 -4.085967063903809 15.044928550720215 149 144 145
-6.907133102416992 -4.437254905700684 16.426834106445312 75 69 62
0.8533074855804443 -4.530641555786133 16.857208251953125 123 124 131
-2.8848254680633545 -3.990506172180176 16.650362014770508 27 16 10
-2.329396963119507 -4.026218891143799 16.540653228759766 193 185 169
-2.6561806201934814 -4.0351128578186035 16.638423919677734 157 151 136
-2.929950714111328 -3.8698835372924805 16.507747650146484 149 141 128
-2.7367024421691895 -3.891897439956665 16.625598907470703 45 38 25
-6.019686698913574 -3.3921761512756348 14.664963722229004 84 76 65
-2.3768744468688965 -3.7109949588775635 16.35482406616211 130 121 109
-6.475100994110107 -3.5195319652557373 15.5093355178833 109 103 99
-2.8083441257476807 -3.7465808391571045 16.358890533447266 31 22 16
-2.4842276573181152 -3.636461019515991 16.36725616455078 38 31 20
-2.901282548904419 -3.5552804470062256 16.1923828125 172 163 150
-2.284085512161255 -3.4715259075164795 16.298280715942383 172 162 148
-3.050567865371704 -3.458974838256836 16.306846618652344 140 131 116
0.31638067960739136 -3.683671474456787 17.170440673828125 91 95 105
0.4744643270969391 -3.6178433895111084 16.871484756469727 90 91 101
-0.6409124732017517 -3.4159111976623535 16.781505584716797 119 114 104
0.7282920479774475 -3.4075865745544434 17.000957489013672 35 36 43
-2.7121191024780273 -3.2658016681671143 16.36575698852539 162 154 137
-2.695011854171753 -3.108643054962158 16.3924503326416 54 45 33
0.6583300232887268 -2.6860599517822266 16.62956428527832 73 73 84
0.8007078170776367 -2.7253196239471436 17.066648483276367 42 41 49
-0.6118541359901428 -2.6744112968444824 16.952022552490234 127 120 111
-0.4913390576839447 -2.644986152648926 16.888166427612305 15 13 14
0.28584644198417664 -2.569404363632202 16.94384002685547 122 125 132
0.38614681363105774 -2.6026649475097656 17.11126136779785 29 28 36
0.08433708548545837 -2.096310615539551 17.25340461730957 152 156 165
-4.8007893562316895 -1.8824599981307983 15.843713760375977 96 88 69
-6.728916645050049 -1.8402563333511353 16.376113891601562 62 54 47
-0.6361491084098816 -1.6821866035461426 16.808387756347656 98 93 83
-6.155028343200684 -1.1434401273727417 15.261055946350098 119 111 99
-4.667665004730225 -1.1935440301895142 15.531929016113281 106 97 79
-4.587122917175293 -1.0496211051940918 15.674495697021484 79 70 53
0.7841241359710693 -0.981498658657074 17.044506072998047 31 30 41
0.9184210896492004 -0.9265394806861877 16.954313278198242 24 22 34
0.2843666076660156 -0.8642603754997253 16.827646255493164 73 75 85
-3.794961929321289 -0.7740375995635986 15.758880615234375 168 161 143
-3.7035105228424072 -0.7947688698768616 15.806624412536621 117 109 91
-4.478342533111572 -0.6733160018920898 15.449724197387695 95 88 70
-3.79850697517395 -0.6571598052978516 15.753341674804688 73 65 49
-4.510979175567627 -0.6135164499282837 14.599592208862305 125 117 98
-3.8383724689483643 -0.6519045829772949 15.513524055480957 156 149 131
-4.674313545227051 -0.5809305310249329 15.609539031982422 71 63 47
-6.809976577758789 -0.5883429050445557 15.42049789428711 92 89 93
-6.118436813354492 -0.5853983163833618 15.33134937286377 137 128 112
-4.581759452819824 -0.5692720413208008 15.573972702026367 43 35 23
-4.203595161437988 -0.5222488641738892 15.64577579498291 110 102 86
-3.1969687938690186 -0.5176582336425781 15.17515754699707 48 42 26
-4.845300674438477 -0.5221558809280396 15.69170093536377 150 141 122
0.44006097316741943 3.1022605895996094 16.808269500732422 18 17 21
-4.203661918640137 -0.5222562551498413 15.646003723144531 110 102 86
-3.862220525741577 -0.5335097908973694 15.789813995361328 49 44 33
-4.07479190826416 -0.46733084321022034 15.754867553710938 146 139 124
-3.1857709884643555 -0.4144701063632965 15.8145112991333 79 72 60
-4.277581214904785 -0.30132704973220825 15.62879753112793 105 98 81
-3.869415521621704 -0.24378959834575653 15.692075729370117 52 44 34
-3.953394651412964 -0.09217523783445358 15.589808464050293 130 123 111
-0.5569157600402832 -0.1464320421218872 16.81311798095703 132 127 127
-4.634720802307129 -0.06611108779907227 15.841378211975098 123 116 99
0.6465069055557251 -0.06823597103357315 17.037630081176758 66 65 75
-4.369317531585693 0.08813971281051636 15.648283004760742 63 54 42
-4.214122295379639 0.07614154368638992 15.66972827911377 39 34 20
-4.44539213180542 0.08782950043678284 15.276723861694336 137 128 111
-3.9645373821258545 0.09584217518568039 15.690114974975586 24 17 7
-5.898743152618408 2.6869301795959473 15.179386138916016 71 63 52
-4.298925876617432 0.2119475156068802 15.74150276184082 82 75 60
-4.457617282867432 0.29183366894721985 15.489813804626465 52 43 25
-4.688322067260742 0.421937495470047 15.588129043579102 58 46 30
-4.726136684417725 0.4970768392086029 15.445173263549805 78 69 59
-4.139065265655518 0.533935010433197 15.516045570373535 152 143 126
-3.987107515335083 0.5699058771133423 15.686640739440918 125 116 99
