ply
format ascii 1.0
element vertex 722
property float x
property float y
property float z
property uchar red
property uchar green
property uchar blue
end_header
-4.708086967468262 3.4172921180725098 35.00962829589844 83 71 57
-4.5795979499816895 12.606768608093262 34.5458869934082 72 68 62
-4.867615222930908 8.501757621765137 36.5587158203125 19 9 5
-4.699697494506836 9.189263343811035 35.497257232666016 28 19 17
-4.008724212646484 10.31994342803955 30.341218948364258 91 84 80
-4.700056552886963 9.189939498901367 35.49998474121094 28 19 17
-5.009296417236328 -3.4218220710754395 37.111263275146484 112 92 75
-4.670594692230225 9.95862102508545 35.01704025268555 22 14 13
-4.540363788604736 5.540833950042725 34.900630950927734 36 32 46
-4.556488990783691 8.771574974060059 35.205135345458984 70 62 57
-4.43602180480957 2.6333041191101074 34.175926208496094 124 114 104
-4.639595031738281 7.946554660797119 35.913108825683594 83 73 66
-4.190351486206055 3.619529962539673 32.73058319091797 101 89 75
-4.892435550689697 -10.74111557006836 38.047054290771484 53 35 27
-4.393251895904541 -1.3581080436706543 34.357242584228516 84 62 50
-5.17390251159668 -18.00568199157715 40.506561279296875 62 57 57
-4.432924747467041 4.926778316497803 34.893272399902344 37 31 41
-4.310295581817627 -1.9321171045303345 34.66095733642578 75 54 42
-4.310295581817627 -1.9321171045303345 34.66095733642578 75 54 42
-4.357393264770508 6.353298664093018 35.4295539855957 21 12 15
-4.225832939147949 -0.03869195654988289 34.24226379394531 57 37 29
-4.351996421813965 10.692726135253906 34.92936325073242 42 37 36
-4.804198265075684 -12.824379920959473 38.96659469604492 101 96 101
-4.354681968688965 10.699180603027344 34.95065689086914 42 37 36
-4.293086528778076 10.947366714477539 34.880943298339844 41 35 34
-4.4132466316223145 9.400860786437988 35.99085998535156 117 108 104
-4.5520710945129395 5.984777927398682 37.146507263183594 40 36 49
-4.2645955085754395 4.5140862464904785 35.60213088989258 56 46 43
-4.013405799865723 4.098050594329834 33.75251388549805 38 26 19
-4.2491912841796875 10.626602172851562 35.70744323730469 66 61 58
-4.630277633666992 -12.993037223815918 39.3959846496582 86 83 89
-4.273959636688232 5.023036956787109 36.09968566894531 63 58 68
-4.710232257843018 -14.4392671585083 39.77245330810547 69 63 64
-4.283207416534424 8.133338928222656 36.181312561035156 124 114 105
-4.147062301635742 -2.7325642108917236 35.11005401611328 77 59 48
-4.680953025817871 4.203799724578857 38.97840118408203 79 67 55
-4.138751029968262 -0.9475602507591248 34.71736145019531 113 94 84
-4.710712432861328 -10.595502853393555 40.14309310913086 107 93 81
-3.981865882873535 -0.25016534328460693 34.36917495727539 64 46 39
-4.818066120147705 19.774377822875977 41.83995819091797 74 71 66
-4.085751056671143 1.3948230743408203 34.78275680541992 106 90 83
-4.085751056671143 1.3948230743408203 34.78275680541992 106 90 83
-4.187311172485352 7.030019283294678 36.4183349609375 137 125 118
-3.9617366790771484 -1.7882635593414307 34.735374450683594 86 68 59
-3.9617366790771484 -1.7882635593414307 34.735374450683594 86 68 59
-4.146878242492676 14.446615219116211 36.90364074707031 146 141 137
-4.036400318145752 9.626046180725098 35.594608306884766 75 64 62
-5.075572967529297 22.32520294189453 44.84315490722656 72 68 65
-4.011216163635254 -3.348205804824829 35.47529983520508 253 250 243
-4.011619567871094 7.520452976226807 35.58467102050781 82 72 65
-3.9877970218658447 11.440834999084473 35.37815856933594 52 43 42
-4.131418704986572 -5.646890640258789 36.67497634887695 52 34 24
-4.116876125335693 4.970363140106201 36.58048629760742 46 42 51
-3.9105424880981445 -1.2897411584854126 34.763572692871094 102 84 77
-4.283869743347168 -9.89588737487793 38.12942886352539 61 47 35
-4.004021167755127 -4.218735218048096 35.64520263671875 250 245 242
-3.853243589401245 -0.3956030309200287 34.52959442138672 86 73 67
-4.00739860534668 6.783839225769043 36.03178787231445 94 83 78
-4.130052089691162 11.025278091430664 37.22706604003906 51 43 41
-3.833542585372925 6.182196617126465 35.0633544921875 84 74 82
-3.7799558639526367 -0.20346826314926147 34.19108581542969 83 71 64
-3.7799558639526367 -0.20346826314926147 34.19108581542969 83 71 64
-3.8072354793548584 3.2586371898651123 34.53471374511719 82 71 58
-3.8076682090759277 6.926336765289307 34.9061279296875 111 100 93
-3.976853847503662 7.010406494140625 36.22750473022461 109 98 91
-4.008882999420166 -7.031427383422852 36.73310852050781 67 51 41
-3.831413507461548 2.8491568565368652 35.28183364868164 115 105 95
-3.916400194168091 10.609729766845703 36.13209915161133 53 45 43
-3.6473875045776367 5.946620941162109 33.70614242553711 128 119 125
-3.872089385986328 15.573140144348145 35.82684326171875 55 50 46
-3.9185640811920166 9.259387016296387 36.339839935302734 90 78 73
-3.883406639099121 -5.496517658233643 36.09305191040039 73 57 46
-3.679373025894165 12.192362785339355 34.379669189453125 59 51 44
-3.8028688430786133 6.919423580169678 34.8709602355957 111 100 93
-3.8451485633850098 -5.067564010620117 36.041683197021484 111 94 82
-4.0428853034973145 -8.719886779785156 37.989505767822266 41 28 17
-3.8082892894744873 2.2436094284057617 34.825408935546875 67 52 44
-3.7236342430114746 4.36746883392334 35.25697708129883 54 44 35
-3.697850465774536 -3.5554988384246826 35.040069580078125 104 89 87
-4.160461902618408 -12.905815124511719 39.493614196777344 100 97 102
-3.785665988922119 6.219498157501221 36.086002349853516 54 48 60
-4.186690330505371 -12.486661911010742 40.27447509765625 43 37 33
-3.833035707473755 -4.993919372558594 36.623443603515625 54 38 26
-3.562202215194702 1.9902069568634033 34.17400360107422 55 42 35
-3.606595516204834 -1.1814682483673096 34.61827850341797 87 75 70
-4.55703067779541 21.298236846923828 43.76124954223633 76 71 67
-3.8932945728302 -9.762125015258789 37.58675765991211 65 52 41
-3.5706565380096436 -2.109051465988159 34.548553466796875 95 83 76
-3.828282594680786 -3.3906772136688232 36.60905456542969 138 126 125
-4.0702996253967285 -15.057723999023438 39.52711486816406 82 78 79
-3.70159912109375 6.7032341957092285 36.03617477416992 123 112 107
-3.758460760116577 -10.411437034606934 38.0373420715332 102 89 81
-3.811156749725342 -9.284881591796875 37.18310546875 69 56 45
-3.538937568664551 -4.3271098136901855 34.6912727355957 154 152 164
-3.6174356937408447 10.885452270507812 35.515663146972656 84 75 70
-3.7641289234161377 -8.07094955444336 37.36323165893555 76 63 52
-3.6540513038635254 4.6246867179870605 36.37220764160156 52 44 36
-4.079809188842773 -15.084759712219238 39.605960845947266 82 78 79
-3.695871114730835 4.764914035797119 36.434513092041016 76 68 68
-3.651442050933838 8.890924453735352 36.38333511352539 71 62 56
-3.6535093784332275 7.014413833618164 36.46577072143555 151 140 133
-3.523855209350586 8.406047821044922 35.74168014526367 59 48 41
-3.523855209350586 8.406047821044922 35.74168014526367 59 48 41
-3.922546148300171 -8.439711570739746 39.54368209838867 94 80 69
-3.468708038330078 1.827632188796997 33.78156280517578 72 60 58
-3.9229419231414795 -15.359668731689453 39.740760803222656 87 85 88
-3.358382225036621 -0.6002972722053528 34.05152893066406 64 57 54
-3.561919689178467 10.620670318603516 36.70040512084961 27 18 15
-2.9641506671905518 -1.1596397161483765 30.4748592376709 81 72 72
-3.5690228939056396 5.114813327789307 36.68858337402344 41 35 42
-3.8669681549072266 -15.025252342224121 39.80213165283203 124 126 127
-3.7138514518737793 -8.611363410949707 38.214420318603516 101 88 78
-3.7138514518737793 -8.611363410949707 38.214420318603516 101 88 78
-4.741397857666016 -15.04110336303711 47.089664459228516 84 82 80
-3.736788511276245 -11.228292465209961 38.62562942504883 148 137 129
-4.218636989593506 21.756996154785156 43.67335891723633 70 66 63
-3.561460494995117 4.70794153213501 37.10908508300781 54 44 37
-3.5372633934020996 9.457175254821777 36.24468231201172 137 127 122
-3.2114078998565674 -0.46430128812789917 33.65312194824219 91 82 85
-3.647606372833252 -13.474329948425293 38.28724670410156 135 137 138
-3.604592800140381 -9.166887283325195 38.1448974609375 65 53 42
-3.2606656551361084 -3.212131977081299 34.33561325073242 42 39 45
-3.5232765674591064 15.219144821166992 37.7696533203125 61 58 56
-3.4841065406799316 -6.452578067779541 37.37843704223633 64 52 42
-3.4971210956573486 -8.664896011352539 37.56288528442383 68 56 45
-3.6647441387176514 -12.780095100402832 39.43047332763672 92 92 95
-3.1436495780944824 -1.2003575563430786 33.82487869262695 82 76 78
-3.421433448791504 -7.443724632263184 36.821876525878906 37 25 16
-3.21675705909729 10.978206634521484 34.90803909301758 71 62 55
-3.1186342239379883 -0.6022381782531738 33.94242477416992 73 67 70
-3.1096982955932617 -0.2851618528366089 34.1713981628418 71 65 67
-3.3278279304504395 10.189349174499512 36.64889144897461 69 61 56
-3.256218671798706 -5.078524112701416 36.15976333618164 89 75 64
-3.5519182682037354 -14.355328559875488 39.73456573486328 97 97 102
-3.409513473510742 -9.03395938873291 38.2449951171875 92 79 71
-3.414961338043213 14.580740928649902 38.293968200683594 78 72 65
-3.2341556549072266 13.083114624023438 36.880149841308594 75 65 58
-3.538856029510498 -13.684430122375488 40.15953063964844 98 98 107
-3.1684486865997314 10.180013656616211 35.984371185302734 90 80 75
-3.2063663005828857 6.518505573272705 36.552101135253906 38 35 51
-3.188652515411377 7.948079586029053 35.878936767578125 101 91 84
-3.1603949069976807 5.365701198577881 36.6407356262207 59 53 60
-3.1603949069976807 5.365701198577881 36.6407356262207 59 53 60
-3.074683904647827 -4.945343017578125 36.228355407714844 47 34 25
-2.7834668159484863 -4.251318454742432 33.267005920410156 176 175 185
-3.1725244522094727 5.10247802734375 37.051151275634766 58 52 60
-3.0119388103485107 12.040006637573242 36.03328323364258 62 51 45
-3.0268747806549072 11.165342330932617 36.32706832885742 76 66 60
-3.527634859085083 19.475162506103516 42.45278549194336 73 68 64
-3.527634859085083 19.475162506103516 42.45278549194336 73 68 64
-2.995203733444214 4.284473896026611 36.24588394165039 101 90 78
-2.995203733444214 4.284473896026611 36.24588394165039 101 90 78
-3.1368637084960938 -8.826201438903809 38.171234130859375 68 56 46
-3.1368637084960938 -8.826201438903809 38.171234130859375 68 56 46
-3.2517595291137695 -14.69650650024414 39.73184585571289 93 89 94
-2.9339849948883057 9.035674095153809 36.0612907409668 119 109 98
-2.9496805667877197 10.18167781829834 36.38812255859375 76 65 61
-2.687049627304077 -1.1697018146514893 33.16889190673828 74 70 78
-2.9707579612731934 -10.677895545959473 36.78866958618164 76 64 54
-2.9534411430358887 4.113503456115723 36.6331901550293 109 97 85
-2.9171853065490723 -5.0847086906433105 37.01845932006836 51 39 30
-3.4830033779144287 20.61644744873047 43.33778762817383 56 52 48
-3.4830033779144287 20.61644744873047 43.33778762817383 56 52 48
-3.4292664527893066 8.087475776672363 41.032867431640625 171 159 153
-2.871450424194336 11.006027221679688 35.89928436279297 69 58 53
-2.6392571926116943 -2.6288859844207764 32.993629455566406 125 123 129
-2.3609836101531982 -1.6199153661727905 29.711669921875 149 147 152
-3.078446626663208 -13.464853286743164 40.460636138916016 76 72 77
-2.550785541534424 -0.2516810894012451 32.42775344848633 85 80 86
-2.8400747776031494 3.4478378295898438 36.1513557434082 80 70 60
-2.882456064224243 7.770829200744629 36.71840286254883 67 56 51
-3.308732509613037 19.88100242614746 42.305397033691406 63 58 54
-2.7923665046691895 10.62216567993164 35.9465446472168 101 91 84
-3.078674554824829 16.94580078125 39.24895095825195 151 144 140
-2.113485336303711 -7.136772155761719 27.426237106323242 62 48 39
-2.7566559314727783 10.558804512023926 36.0129280090332 103 93 87
-2.885136604309082 -8.752937316894531 37.86446762084961 75 64 54
-2.885136604309082 -8.752937316894531 37.86446762084961 75 64 54
-3.2984519004821777 21.420969009399414 44.25971984863281 153 149 145
-3.0160040855407715 -14.020057678222656 39.98997497558594 74 73 75
-2.865518093109131 -6.583793640136719 37.30529022216797 154 142 132
-2.5887558460235596 -0.10143637657165527 33.33305358886719 43 39 43
-2.577399492263794 5.580141067504883 35.97185516357422 65 59 63
-2.242438554763794 0.1437455266714096 31.715003967285156 63 57 59
-2.4968113899230957 -4.36374044418335 34.22599792480469 132 134 153
-3.29611873626709 21.409265518188477 44.237125396728516 153 149 145
-2.7260830402374268 5.884253978729248 36.92373275756836 113 107 111
-3.0675747394561768 18.275638580322266 41.249488830566406 73 66 62
-2.6767094135284424 7.47009801864624 36.63862991333008 169 158 153
-2.966029167175293 17.636993408203125 40.74189758300781 105 98 92
-2.7003512382507324 -5.226874828338623 37.15550231933594 67 54 45
-2.9308042526245117 17.163209915161133 40.46254348754883 121 113 107
-2.6285293102264404 -8.612186431884766 38.066043853759766 90 78 70
-3.039494037628174 -18.969377517700195 41.23244094848633 62 57 50
-3.039494037628174 -18.969377517700195 41.23244094848633 62 57 50
-2.5815696716308594 10.619617462158203 36.07477951049805 35 26 21
-2.530820369720459 11.725689888000488 36.08164596557617 54 43 38
-2.3649630546569824 0.7362878322601318 33.25117111206055 53 45 44
-2.829868793487549 -14.407794952392578 40.10403823852539 113 114 119
-2.572690725326538 6.362341403961182 36.527679443359375 38 32 39
-2.5448713302612305 3.3903162479400635 36.192588806152344 69 60 50
-2.5844428539276123 7.989638805389404 36.79544448852539 124 114 105
-2.5844428539276123 7.989638805389404 36.79544448852539 124 114 105
-2.5147695541381836 3.6143312454223633 35.93825912475586 75 65 54
-2.779055118560791 -12.951828002929688 40.11259078979492 114 111 113
-2.6062281131744385 -8.91716194152832 37.67605209350586 86 75 65
-2.6837265491485596 -12.629706382751465 39.07958221435547 115 112 115
-2.5559983253479004 -7.111772537231445 37.97500991821289 31 19 15
-2.5855979919433594 -5.226950168609619 37.74564743041992 39 27 17
-2.573838949203491 -6.71629524230957 38.0603141784668 135 123 113
-2.269576072692871 0.9271592497825623 33.53164291381836 73 65 63
-2.5096092224121094 11.178959846496582 35.968101501464844 73 62 58
-2.2098567485809326 -1.7090675830841064 32.85244369506836 36 30 34
-2.1986398696899414 -1.8924429416656494 32.92177963256836 44 39 43
-2.1986398696899414 -1.8924429416656494 32.92177963256836 44 39 43
-2.3789658546447754 10.285552978515625 35.89452362060547 60 51 46
-2.6997971534729004 -16.23213768005371 40.958900451660156 112 111 113
-2.46321964263916 -3.240741014480591 36.260013580322266 119 110 111
-2.46321964263916 -3.240741014480591 36.260013580322266 119 110 111
-2.22109317779541 9.837769508361816 35.93412780761719 83 73 67
-2.0544748306274414 0.18652553856372833 31.544126510620117 44 36 34
-2.4445598125457764 -7.614126205444336 37.60746765136719 33 22 14
-2.3684422969818115 7.0041117668151855 36.7270622253418 121 109 102
-2.4607913494110107 -10.058931350708008 38.603660583496094 74 62 52
-2.3008508682250977 5.522426605224609 36.40301513671875 78 72 78
-2.318995237350464 8.856864929199219 36.7925910949707 80 70 63
-2.265040159225464 -4.496776580810547 36.417789459228516 113 116 138
-2.4079606533050537 7.913920879364014 37.86954116821289 27 15 11
-2.4079606533050537 7.913920879364014 37.86954116821289 27 15 11
-2.4079606533050537 7.913920879364014 37.86954116821289 27 15 11
-2.1336255073547363 1.6141902208328247 34.73893737792969 56 56 61
-2.227311611175537 11.243244171142578 36.35466003417969 63 53 48
-2.318372964859009 -8.828693389892578 38.171085357666016 40 27 18
-2.1847658157348633 9.368324279785156 35.626976013183594 28 17 13
-2.0296757221221924 -1.5211586952209473 33.87730407714844 65 59 64
-2.395383834838867 -16.11366081237793 40.33545684814453 104 102 103
-2.1974074840545654 -5.117635250091553 37.24418258666992 45 32 24
-2.2373716831207275 -9.892156600952148 37.95661926269531 72 60 50
-2.1244733333587646 6.998740196228027 36.20320510864258 96 85 78
-2.212451219558716 -4.61259126663208 36.067569732666016 101 103 123
-1.9677051305770874 0.7577066421508789 34.20886993408203 78 70 66
-2.1531081199645996 -7.732681751251221 38.180294036865234 32 21 14
-2.297132968902588 1.5523455142974854 38.90245056152344 143 141 140
-1.9585474729537964 13.130501747131348 36.32891082763672 90 80 71
-1.9585474729537964 13.130501747131348 36.32891082763672 90 80 71
-2.257579803466797 -13.175901412963867 40.21780776977539 104 103 107
-2.0303120613098145 11.087728500366211 36.28443908691406 103 93 89
-2.082186460494995 5.268518924713135 37.36308288574219 47 42 52
-2.0264360904693604 4.003092288970947 36.430816650390625 90 79 67
-1.7637966871261597 10.73336124420166 31.83299446105957 114 104 97
-2.045302152633667 11.581891059875488 36.956939697265625 66 56 52
-2.045302152633667 11.581891059875488 36.956939697265625 66 56 52
-2.0449538230895996 11.054577827453613 37.00234603881836 63 55 50
-1.9373949766159058 2.2561240196228027 35.48047637939453 102 91 85
-1.9815444946289062 8.112476348876953 36.631587982177734 82 71 63
-2.0158562660217285 -5.310717582702637 37.5163688659668 72 60 51
-1.7697806358337402 12.283117294311523 34.0125617980957 92 82 73
-2.1116342544555664 -16.020227432250977 40.14271545410156 106 103 103
-1.7334160804748535 -2.311185836791992 33.04326629638672 221 237 248
-1.7334160804748535 -2.311185836791992 33.04326629638672 221 237 248
-1.9283947944641113 14.374046325683594 37.00498962402344 59 52 45
-1.468726634979248 -6.570952415466309 28.352466583251953 37 25 17
-2.1090171337127686 -17.562545776367188 40.83706283569336 79 75 75
-1.8335930109024048 9.630522727966309 35.6597785949707 79 69 62
-1.9419548511505127 -8.084674835205078 37.88325881958008 115 103 93
-1.914765477180481 -6.78090763092041 38.44057083129883 168 156 145
-1.76682710647583 -2.8837990760803223 35.32060623168945 42 38 46
-1.7093276977539062 -4.002243518829346 34.337677001953125 35 28 29
-1.8339869976043701 7.342087745666504 36.97167205810547 129 117 107
-1.4135150909423828 -1.4990350008010864 30.370206832885742 123 111 112
-1.4135150909423828 -1.4990350008010864 30.370206832885742 123 111 112
-1.8887810707092285 -5.595061779022217 37.45161819458008 117 104 99
-1.748447060585022 1.6724413633346558 35.419857025146484 62 62 76
-1.7087147235870361 13.221868515014648 36.6185302734375 89 78 70
-1.7087147235870361 13.221868515014648 36.6185302734375 89 78 70
-1.7698097229003906 6.514350891113281 36.630218505859375 88 78 76
-1.7238165140151978 8.352359771728516 36.03130340576172 114 103 95
-1.8087737560272217 6.192324638366699 37.886749267578125 37 30 37
-1.7687513828277588 5.603987216949463 37.570716857910156 55 50 58
-1.769115686416626 5.036294460296631 37.477848052978516 65 58 59
-1.6785774230957031 12.11545181274414 36.052101135253906 49 41 39
-1.5508232116699219 -0.31469839811325073 33.35920333862305 71 62 64
-1.786450982093811 -9.703384399414062 38.5924072265625 79 67 57
-1.6831610202789307 9.943504333496094 36.38627624511719 105 94 86
-1.665978193283081 -8.489730834960938 38.34911346435547 59 47 38
-1.6194225549697876 10.093245506286621 34.743778228759766 28 18 16
-1.7760831117630005 -12.455885887145996 39.562950134277344 48 43 38
-1.755660891532898 12.618517875671387 36.64179229736328 49 40 36
-1.63919997215271 13.778793334960938 37.20895004272461 59 48 39
-1.7717796564102173 -13.494084358215332 40.306785583496094 122 119 122
-1.632774829864502 7.206563472747803 37.450904846191406 132 122 110
-1.7072845697402954 -9.728413581848145 38.72089767456055 33 21 12
-1.6657049655914307 -8.488373756408691 38.34299087524414 59 47 38
-1.6003544330596924 -8.503890037536621 38.061492919921875 39 26 17
-1.6003544330596924 -8.503890037536621 38.061492919921875 39 26 17
-1.586838722229004 6.285378456115723 37.735313415527344 66 60 64
-1.5782065391540527 6.2662882804870605 37.53589630126953 64 58 62
-1.4720267057418823 -3.61550235748291 35.0428581237793 26 22 28
-1.7130604982376099 -16.53137969970703 41.137630462646484 97 94 95
-1.57181978225708 -6.883692264556885 37.92099380493164 41 27 17
-1.7945003509521484 7.60853910446167 43.30573654174805 60 52 54
-1.421765685081482 0.7479079961776733 34.854740142822266 101 92 89
-1.3231987953186035 6.448270320892334 32.46031951904297 120 109 98
-1.5566164255142212 -10.04336929321289 38.35810852050781 65 53 43
-1.2919824123382568 -1.1809849739074707 32.116615295410156 254 253 254
-1.2919824123382568 -1.1809849739074707 32.116615295410156 254 253 254
-1.5633841753005981 -4.844368934631348 38.025733947753906 199 203 219
-1.466016411781311 2.9982380867004395 36.575923919677734 117 109 101
-1.5002776384353638 7.322362899780273 37.5229377746582 113 102 91
-1.3250081539154053 -3.0406978130340576 31.62734031677246 224 222 230
-1.6336528062820435 -14.96737003326416 41.2232666015625 91 88 96
-1.2105162143707275 -1.3817883729934692 30.862613677978516 63 52 57
-1.3248469829559326 -3.040301561355591 31.62364387512207 224 222 230
-1.8381863832473755 12.312165260314941 45.17843246459961 86 75 67
-1.3867429494857788 6.653958797454834 37.126243591308594 77 69 70
-1.2875940799713135 -0.11267111450433731 34.56193161010742 236 234 237
-1.2900612354278564 12.64794921875 34.90721893310547 111 101 90
-1.2900612354278564 12.64794921875 34.90721893310547 111 101 90
-1.2027698755264282 0.9036132097244263 33.03468704223633 28 22 22
-1.2943930625915527 0.2019580453634262 35.473167419433594 254 253 254
-1.3195501565933228 6.0668792724609375 36.88589859008789 39 34 41
-1.5875763893127441 21.73628044128418 44.71553421020508 62 58 51
-1.5186225175857544 -20.341297149658203 42.81916046142578 53 48 40
-1.2204862833023071 -4.005653381347656 34.823204040527344 40 34 38
-1.2204862833023071 -4.005653381347656 34.823204040527344 40 34 38
-1.3030495643615723 9.228838920593262 37.32075119018555 79 69 60
-1.5822762250900269 15.228972434997559 45.44121551513672 68 59 55
-1.5822762250900269 15.228972434997559 45.44121551513672 68 59 55
-1.2964415550231934 7.0397629737854 37.28068161010742 144 133 122
-1.5146156549453735 -21.13974380493164 43.6070556640625 57 52 42
-1.2629963159561157 10.447256088256836 36.71929931640625 81 71 65
-1.3696705102920532 16.70760726928711 39.96531677246094 77 75 72
-1.2693909406661987 -8.889615058898926 38.285282135009766 33 21 12
-1.2837457656860352 -8.81975269317627 38.73436737060547 76 64 57
-1.3177167177200317 -9.303755760192871 39.11384582519531 32 19 15
-1.285171627998352 -8.487455368041992 38.65839767456055 40 27 18
-1.285171627998352 -8.487455368041992 38.65839767456055 40 27 18
-1.2375552654266357 10.879677772521973 37.318634033203125 13 6 5
-1.1827571392059326 11.82878589630127 36.649658203125 46 40 38
-1.2261857986450195 5.886630535125732 38.28944778442383 55 52 58
-1.0019787549972534 -0.28583216667175293 31.540788650512695 147 144 151
-1.055135726928711 0.16757193207740784 33.44691848754883 242 240 242
-1.247973918914795 -5.750931262969971 38.50437927246094 128 118 110
-1.1220568418502808 2.7338855266571045 36.64681625366211 33 21 14
-1.1310192346572876 4.2225661277771 37.204708099365234 87 78 65
-1.0760560035705566 7.131967067718506 37.089237213134766 74 64 52
-1.123205542564392 15.163045883178711 38.758609771728516 103 97 90
-0.5364310145378113 -4.463016033172607 18.540250778198242 73 61 50
-1.0677114725112915 -7.403331279754639 38.29050827026367 72 59 48
-0.9961407780647278 2.6026315689086914 36.41777420043945 67 55 47
-1.3371742963790894 11.385982513427734 43.00133514404297 29 20 15
-0.96327805519104 3.2386314868927 37.57524871826172 141 133 124
-0.8816386461257935 1.2000319957733154 33.95063781738281 129 128 136
-0.9291945099830627 11.567862510681152 36.64316940307617 70 62 57
-0.9291945099830627 11.567862510681152 36.64316940307617 70 62 57
-0.9680724740028381 -5.46189022064209 38.22715759277344 83 72 63
-0.9347701668739319 -2.0344326496124268 33.79337692260742 42 37 43
-0.8688600063323975 -0.7267528176307678 33.07451248168945 178 168 165
-0.9548937082290649 9.05323600769043 37.7620964050293 29 19 12
-0.8644314408302307 0.20344194769859314 34.69728469848633 140 134 136
-0.9215909242630005 9.858391761779785 37.097412109375 42 32 28
-0.9215909242630005 9.858391761779785 37.097412109375 42 32 28
-0.7247943878173828 0.4782068729400635 33.295814514160156 231 228 227
-0.9411123991012573 8.855992317199707 38.31517028808594 83 73 63
-0.839754045009613 1.0773640871047974 34.45695495605469 193 192 201
-1.008223295211792 -16.88187026977539 41.94208526611328 99 96 98
-0.8733536601066589 -6.946670055389404 38.20687484741211 40 27 16
-0.8283942341804504 6.65886116027832 36.91685104370117 41 34 32
-0.8508434891700745 -2.671910047531128 38.28765106201172 66 60 64
-0.6022782325744629 11.986952781677246 33.00156021118164 120 108 100
-0.7483591437339783 -5.063035488128662 36.5468635559082 44 34 25
-0.6711817979812622 12.00841236114502 36.62678146362305 106 96 88
-0.5838820934295654 10.829087257385254 32.12651443481445 85 72 66
-0.7618138790130615 -0.47524747252464294 35.1781005859375 229 226 225
-0.749534547328949 -2.2024173736572266 35.094905853271484 147 141 146
-0.8478202819824219 -17.584367752075195 41.827720642089844 64 61 70
-0.8230714201927185 4.879644870758057 39.09251403808594 33 22 16
-0.7308242321014404 8.867355346679688 37.91698455810547 83 73 63
-0.7240548133850098 -5.964723587036133 37.91905212402344 34 24 16
-0.5356713533401489 -5.4977240562438965 28.38811492919922 73 60 49
-0.628292977809906 0.01512905489653349 33.6970100402832 134 125 125
-0.6872006058692932 7.09391975402832 37.54766845703125 141 130 121
-0.6945990324020386 21.126991271972656 44.10674285888672 97 93 87
-0.6920138597488403 5.334407806396484 39.26693344116211 61 54 59
-0.5966908931732178 13.106785774230957 36.109580993652344 114 102 93
-0.6081428527832031 9.000962257385254 36.65461349487305 67 57 49
-0.6238235831260681 4.11402702331543 38.42754364013672 87 78 65
-0.6205576062202454 -6.647945404052734 38.374454498291016 74 61 52
-0.6219030618667603 -10.952683448791504 39.49266052246094 95 83 73
-0.4174058139324188 -7.400811195373535 28.126943588256836 38 26 14
-0.5447490215301514 2.6252388954162598 36.95274353027344 77 65 57
-0.5602478981018066 4.597309589385986 38.16592788696289 99 90 81
-0.5868397355079651 -7.6995344161987305 38.841949462890625 134 121 111
-0.5868397355079651 -7.6995344161987305 38.841949462890625 134 121 111
-0.5469321012496948 -7.419276237487793 38.53427505493164 41 27 17
-0.5469321012496948 -7.419276237487793 38.53427505493164 41 27 17
-0.3392591178417206 -5.17461633682251 22.625917434692383 92 79 71
-0.5549948811531067 -14.356467247009277 40.57876205444336 119 121 126
-0.4974363148212433 13.429481506347656 36.87997817993164 127 115 106
-0.5026109218597412 -5.278878211975098 38.024925231933594 45 35 26
-0.4831174612045288 13.215912818908691 36.88179397583008 53 42 36
-0.5312085151672363 -5.736985206604004 38.29484176635742 117 106 97
-0.4741421639919281 9.714101791381836 37.33107376098633 121 111 103
-0.4315113127231598 -7.636765003204346 28.512313842773438 92 80 70
-0.4315113127231598 -7.636765003204346 28.512313842773438 92 80 70
-0.6327395439147949 20.500329971313477 43.46687698364258 65 59 53
-0.4750109612941742 5.792842864990234 39.638633728027344 50 45 55
-0.4750109612941742 5.792842864990234 39.638633728027344 50 45 55
-0.45877155661582947 -8.933215141296387 38.33687210083008 72 60 50
-0.4057162404060364 9.587915420532227 36.52738952636719 114 103 95
-0.3092953860759735 -5.7823686599731445 28.29422950744629 35 24 15
-0.38827961683273315 8.31302547454834 36.36763000488281 77 67 56
-0.37590673565864563 12.340985298156738 36.91121292114258 89 76 68
-0.37104520201683044 -7.447126388549805 38.37750244140625 75 62 52
-0.31506672501564026 7.020664215087891 37.4532585144043 108 97 90
-0.31506672501564026 7.020664215087891 37.4532585144043 108 97 90
-0.30224624276161194 11.9519681930542 35.927162170410156 98 85 77
-0.3573412001132965 6.16760778427124 37.22990798950195 78 72 76
-0.26825621724128723 -0.19849258661270142 35.78887176513672 197 194 196
-0.30280402302742004 3.403477191925049 38.32368469238281 93 86 77
-0.272671103477478 9.642988204956055 37.01395034790039 48 37 30
-0.20049332082271576 -4.925151824951172 28.362327575683594 79 66 57
-0.24306076765060425 10.338293075561523 36.79743576049805 108 98 93
-0.23723167181015015 15.057731628417969 38.64152908325195 116 108 98
-0.2543279826641083 21.720457077026367 45.195491790771484 69 65 59
-0.1413457691669464 -6.699641227722168 27.981603622436523 82 69 61
-0.22374719381332397 -8.193917274475098 39.03030014038086 80 68 61
-0.19461479783058167 -14.148594856262207 41.16368865966797 100 98 107
-0.17337357997894287 3.21934175491333 38.48229217529297 132 125 118
-0.16252446174621582 10.02442741394043 36.854820251464844 70 61 55
-0.15899993479251862 18.13722801208496 41.517242431640625 66 60 56
-0.14864526689052582 -18.102691650390625 41.89937210083008 81 78 78
-0.12103057652711868 9.610357284545898 36.66555404663086 125 113 105
-0.1342274695634842 -17.88686752319336 41.41117477416992 82 79 80
-0.1015908271074295 12.805292129516602 35.492462158203125 45 35 29
-0.08724762499332428 0.2811545729637146 34.04616928100586 254 254 254
-0.08724762499332428 0.2811545729637146 34.04616928100586 254 254 254
-0.18323756754398346 2.8779141902923584 37.87353515625 71 62 53
-0.08511091768741608 -14.964447021484375 39.939483642578125 91 88 96
-0.05338378623127937 -4.3632659912109375 35.56694412231445 33 33 48
-0.044339679181575775 8.43411922454834 37.093929290771484 134 123 113
-0.03728218004107475 -8.325531959533691 38.48594665527344 106 93 82
-0.03510797768831253 3.7870047092437744 38.31363296508789 71 61 52
-0.019854476675391197 7.832496643066406 37.81427764892578 137 127 117
-0.010807221755385399 15.797585487365723 38.890018463134766 77 60 46
-0.0022732228972017765 10.595050811767578 36.4746208190918 95 88 86
0.01119344774633646 0.29888153076171875 36.40229034423828 254 254 254
0.04737231880426407 17.994409561157227 40.19795227050781 74 69 63
0.021321957930922508 -6.856759071350098 37.98655700683594 78 64 53
0.15713618695735931 -1.0177212953567505 30.16980743408203 97 91 96
0.059384942054748535 -4.584930896759033 37.237064361572266 37 37 54
0.061355408281087875 8.219385147094727 37.20645523071289 140 130 119
-0.05597097799181938 -1.4061310291290283 31.32785987854004 116 110 113
0.07613733410835266 -14.56297492980957 41.14651107788086 129 131 139
0.07613733410835266 -14.56297492980957 41.14651107788086 129 131 139
0.07117168605327606 1.6986428499221802 36.616004943847656 71 73 86
0.0752311497926712 3.182056427001953 38.246822357177734 116 109 102
0.08001726865768433 12.700684547424316 36.28626251220703 53 44 39
0.11230747401714325 12.112133026123047 37.261600494384766 99 88 80
0.11955466866493225 -0.1499291956424713 34.8034782409668 171 167 174
0.12184593826532364 5.302910804748535 37.368526458740234 45 38 40
0.1121872216463089 6.339838981628418 34.23405456542969 16 6 3
0.1415470987558365 10.61559772491455 36.930885314941406 56 50 48
0.15856966376304626 13.397140502929688 37.54988479614258 60 52 47
0.16441136598587036 -3.071229934692383 34.78410339355469 155 164 185
0.3028320074081421 4.425355434417725 32.43543243408203 91 83 80
0.2154964655637741 -5.2440924644470215 37.56733703613281 51 41 31
0.22889584302902222 -6.867074966430664 38.40687561035156 114 101 91
0.21049895882606506 -3.7240512371063232 34.887962341308594 113 126 155
0.21049895882606506 -3.7240512371063232 34.887962341308594 113 126 155
0.30497413873672485 4.836380958557129 34.167808532714844 43 36 37
0.2807365357875824 20.816781997680664 44.23963928222656 56 51 45
0.3728058636188507 -16.039464950561523 36.19649887084961 89 83 80
0.3728058636188507 -16.039464950561523 36.19649887084961 89 83 80
0.2488538771867752 8.280250549316406 37.781864166259766 102 92 82
0.2639491856098175 11.19520092010498 36.95673370361328 31 24 20
0.2631717324256897 10.146724700927734 36.66044998168945 57 50 47
0.2634098529815674 0.3904731273651123 34.05586624145508 255 253 255
0.3781949579715729 10.703471183776855 35.89971923828125 142 136 131
0.3781949579715729 10.703471183776855 35.89971923828125 142 136 131
0.3744031488895416 2.524251699447632 34.46092224121094 96 86 77
0.3116846978664398 10.780838012695312 36.87019348144531 53 47 45
0.30937424302101135 10.454017639160156 35.779273986816406 55 49 47
0.3464299738407135 10.062707901000977 36.746822357177734 74 66 60
0.3669191598892212 9.301506042480469 37.5240592956543 85 74 66
0.4299679100513458 0.6609143018722534 35.071041107177734 177 173 175
0.3871333599090576 -8.41105842590332 38.1192512512207 80 66 54
0.3998678922653198 -7.033688068389893 38.806861877441406 79 64 54
0.4104191064834595 6.328760623931885 37.81265640258789 85 78 82
0.4104191064834595 6.328760623931885 37.81265640258789 85 78 82
0.48251011967658997 -19.80253791809082 43.82505798339844 69 64 65
0.4313068687915802 -9.065827369689941 38.616050720214844 76 63 51
0.24655425548553467 -5.174211502075195 22.05480194091797 76 63 52
0.37874820828437805 10.701245307922363 35.892601013183594 144 138 133
0.37874820828437805 10.701245307922363 35.892601013183594 144 138 133
0.44743314385414124 8.670012474060059 37.93656539916992 66 56 46
0.5264018177986145 -5.345120906829834 42.85162353515625 97 96 107
0.4484694302082062 13.01330280303955 35.839332580566406 33 24 18
0.47111910581588745 8.932483673095703 37.273807525634766 81 71 61
0.48871463537216187 8.027162551879883 37.65768051147461 49 36 26
0.44936421513557434 5.955855846405029 37.030216217041016 59 54 58
0.5196142196655273 4.493054389953613 38.287986755371094 87 77 67
0.6054620742797852 11.69664478302002 37.24846649169922 77 68 61
0.4711367189884186 8.934195518493652 37.280967712402344 81 71 61
0.4711367189884186 8.934195518493652 37.280967712402344 81 71 61
0.5647040605545044 -7.537694931030273 38.705108642578125 44 30 19
0.6161035299301147 -16.845096588134766 41.918182373046875 99 95 97
0.6291558742523193 -17.590574264526367 42.41720199584961 81 78 83
0.6583616137504578 19.864625930786133 43.75692367553711 68 63 57
0.5754287242889404 7.3134942054748535 37.809051513671875 129 118 109
0.6122875809669495 11.823311805725098 37.66434097290039 77 68 61
0.5458029508590698 0.2624158561229706 34.350948333740234 143 136 136
0.5458029508590698 0.2624158561229706 34.350948333740234 143 136 136
0.6323019862174988 6.403024196624756 38.107078552246094 47 41 44
0.5445420145988464 -6.668875217437744 39.30475616455078 144 132 122
0.5445420145988464 -6.668875217437744 39.30475616455078 144 132 122
0.7006338238716125 -10.182783126831055 39.8881950378418 75 62 50
0.6578519940376282 10.409180641174316 36.94161605834961 99 90 85
0.8216775059700012 19.101940155029297 44.63505554199219 132 124 118
0.7377469539642334 -7.597445487976074 38.83088684082031 81 67 54
0.7379874587059021 -8.170099258422852 38.37881088256836 76 63 51
0.7434180378913879 -8.007051467895508 38.37729263305664 40 27 16
0.8406042456626892 22.267427444458008 45.448184967041016 72 67 60
0.7615341544151306 -1.9236184358596802 36.95832443237305 183 177 180
0.2763008773326874 -3.01230788230896 12.015335083007812 55 41 31
0.8259957432746887 14.184576034545898 35.21160125732422 83 75 66
0.7794808149337769 7.463741779327393 37.22893524169922 105 93 82
0.8848164677619934 9.5265474319458 37.58440017700195 118 108 97
0.7731851935386658 12.659714698791504 36.7239875793457 67 57 50
0.8246681094169617 11.082777976989746 37.67000961303711 67 60 55
0.7866141200065613 0.7233915328979492 35.71946334838867 92 86 87
0.9330901503562927 16.17275047302246 36.706729888916016 60 54 48
0.9793993830680847 -14.421996116638184 38.53196716308594 134 131 137
0.8157911896705627 1.1585298776626587 35.71399688720703 159 163 175
0.8531013131141663 12.233813285827637 37.17946243286133 65 54 46
0.9223820567131042 -9.2086763381958 38.179786682128906 104 91 80
0.9239733219146729 -8.186664581298828 38.759490966796875 128 114 103
0.9127306938171387 -8.77988338470459 38.74359893798828 46 33 21
0.7615243196487427 -1.9234386682510376 36.954254150390625 183 177 180
0.7615243196487427 -1.9234386682510376 36.954254150390625 183 177 180
0.9244216084480286 -7.5875701904296875 38.8297119140625 47 32 20
0.9244216084480286 -7.5875701904296875 38.8297119140625 47 32 20
0.9300872087478638 6.787710666656494 38.00963592529297 59 50 48
0.92183518409729 9.483027458190918 36.555572509765625 131 121 111
0.9693635702133179 -5.6527299880981445 38.259159088134766 57 44 33
0.9995176792144775 13.989484786987305 39.00775909423828 63 54 47
1.017311692237854 5.461023330688477 38.632408142089844 45 38 38
0.7554249167442322 -4.974698066711426 28.323890686035156 82 68 56
0.9464131593704224 -2.666095495223999 34.677268981933594 180 189 208
0.966521680355072 1.1236623525619507 35.001129150390625 31 34 47
1.187502384185791 -19.388994216918945 42.51211166381836 56 51 55
1.0727709531784058 11.024537086486816 37.79545593261719 100 93 86
1.094556450843811 6.477162837982178 38.52386474609375 78 72 72
1.1126947402954102 -8.310588836669922 38.87351608276367 98 83 72
1.1097724437713623 -7.578026294708252 38.65123748779297 81 66 53
1.1097724437713623 -7.578026294708252 38.65123748779297 81 66 53
1.1316132545471191 -5.55571985244751 38.61205291748047 89 75 64
1.0928623676300049 5.501908302307129 37.22608947753906 51 45 47
0.5448323488235474 -4.942907333374023 18.532190322875977 78 65 53
1.0971102714538574 1.7526764869689941 37.16531753540039 75 79 91
1.1121656894683838 9.058205604553223 37.499534606933594 32 21 15
1.1121656894683838 9.058205604553223 37.499534606933594 32 21 15
1.1842570304870605 8.713569641113281 37.83533477783203 107 96 90
1.275663137435913 11.775259017944336 36.59356689453125 64 55 47
1.200484037399292 12.655517578125 37.200218200683594 116 105 97
1.2563567161560059 -10.822090148925781 38.49258804321289 108 95 84
1.2563567161560059 -10.822090148925781 38.49258804321289 108 95 84
1.2115154266357422 9.68458366394043 37.399024963378906 137 127 117
1.2796460390090942 -9.474891662597656 39.169822692871094 124 110 100
1.3803406953811646 -16.39232635498047 39.98308563232422 71 67 68
1.3278530836105347 -8.387332916259766 39.58675003051758 159 143 130
1.274445652961731 -9.820340156555176 39.06841278076172 80 66 58
1.2743334770202637 -9.185595512390137 38.90266418457031 44 29 17
1.2862536907196045 3.261552572250366 39.25759506225586 123 116 109
1.2940573692321777 -8.56938362121582 38.90299987792969 27 11 4
1.2667577266693115 -8.697928428649902 38.252464294433594 49 34 22
0.9340004324913025 -6.412407398223877 28.203214645385742 48 34 22
1.2907932996749878 -7.988112926483154 38.78521728515625 48 32 20
1.304152250289917 -6.212772846221924 38.9742431640625 51 35 24
1.546905755996704 -16.733299255371094 45.87641906738281 111 108 111
1.314944863319397 -5.637842655181885 40.12913513183594 55 41 31
1.2543222904205322 11.622308731079102 36.99673843383789 53 44 36
1.317588448524475 8.294448852539062 38.085838317871094 163 153 145
1.254338264465332 11.622586250305176 36.99757385253906 53 44 36
1.3672220706939697 4.9037089347839355 38.3651237487793 24 16 11
1.366899013519287 11.08915901184082 37.86526107788086 102 93 87
0.8265778422355652 -5.795228958129883 22.571557998657227 75 63 50
1.4362878799438477 -6.132721900939941 39.157005310058594 78 63 50
1.2955049276351929 -2.6412642002105713 38.309566497802734 113 104 106
1.443892478942871 -9.591965675354004 38.81736755371094 83 69 56
1.443892478942871 -9.591965675354004 38.81736755371094 83 69 56
1.5840877294540405 -19.732309341430664 42.47233963012695 67 66 69
1.3906505107879639 12.116907119750977 37.187660217285156 109 100 92
1.3943568468093872 8.833510398864746 37.21912384033203 125 115 110
1.4075496196746826 7.286590099334717 37.46010971069336 151 140 132
1.3974277973175049 11.362905502319336 37.19078826904297 88 78 71
1.0793567895889282 -5.642460346221924 28.683246612548828 83 67 54
1.5820947885513306 -14.070982933044434 41.88471984863281 48 46 45
1.446304440498352 2.3896477222442627 38.17537307739258 86 78 73
1.729112148284912 21.863399505615234 45.46273422241211 66 61 55
1.4327352046966553 10.337246894836426 37.34581756591797 110 100 92
1.4638731479644775 7.659866809844971 38.10122299194336 143 132 122
1.3523907661437988 -3.2642760276794434 35.17366027832031 104 117 148
1.3493133783340454 12.91022777557373 36.49386978149414 83 73 65
1.3552461862564087 12.581257820129395 34.238128662109375 109 98 90
1.5413451194763184 -4.595483779907227 39.507110595703125 63 52 51
1.6872469186782837 -17.792219161987305 42.650184631347656 88 85 91
1.642972707748413 -6.494804382324219 39.696990966796875 118 101 90
1.609054684638977 11.233551979064941 39.37942123413086 71 61 54
1.5736908912658691 -13.579833984375 41.40033721923828 27 24 22
1.5066801309585571 8.014901161193848 37.31053161621094 28 17 14
1.634791374206543 15.683234214782715 39.48734664916992 61 53 46
1.6483824253082275 -11.089447021484375 39.316978454589844 87 73 61
1.621465802192688 -10.188301086425781 38.83464813232422 121 105 92
1.6953657865524292 -8.753800392150879 39.481903076171875 40 22 14
1.6487149000167847 -9.213096618652344 38.9040641784668 49 33 21
1.6352920532226562 -8.124125480651855 38.192256927490234 126 108 98
1.6087932586669922 6.81859827041626 37.83026123046875 55 49 50
1.752643346786499 -11.87851619720459 41.17660140991211 39 24 14
1.635254979133606 -8.124041557312012 38.191810607910156 126 108 98
1.7334891557693481 16.19832420349121 39.965087890625 134 126 118
1.670183539390564 -6.183130264282227 38.74462890625 57 40 28
1.620489239692688 14.03502082824707 37.38382339477539 72 63 54
1.6835745573043823 -5.757821083068848 38.67970657348633 67 49 37
1.6765278577804565 -5.029061794281006 35.661441802978516 45 29 17
1.6603869199752808 1.48225998878479 37.56028366088867 141 139 142
1.699081540107727 1.7826262712478638 38.38082504272461 116 116 121
1.6713330745697021 12.635293006896973 37.2501335144043 83 73 66
1.6713330745697021 12.635293006896973 37.2501335144043 83 73 66
1.7378628253936768 14.7449369430542 40.08598327636719 103 92 84
1.723204493522644 8.191760063171387 38.27616882324219 45 35 30
2.0135490894317627 -21.295507431030273 44.0579833984375 52 48 41
1.784205436706543 -8.474344253540039 39.027015686035156 89 72 58
1.784205436706543 -8.474344253540039 39.027015686035156 89 72 58
1.778254747390747 -8.031355857849121 38.747222900390625 88 71 57
1.8132739067077637 -6.135699272155762 38.988624572753906 95 77 63
1.7720082998275757 8.853994369506836 37.85368728637695 137 127 120
1.7979655265808105 1.3847938776016235 38.36996078491211 106 103 105
1.9466097354888916 -10.487452507019043 39.8431510925293 76 59 47
1.8933115005493164 2.840667247772217 39.82175827026367 79 68 62
1.8241664171218872 -8.454916954040527 38.33815383911133 55 39 24
1.9427034854888916 -6.504169940948486 39.68632507324219 93 74 62
2.003246307373047 -12.471207618713379 41.77168655395508 102 86 70
1.879892110824585 2.557373523712158 38.69570541381836 122 113 105
1.8915956020355225 9.21906852722168 37.87350845336914 64 53 46
2.0219566822052 -10.318021774291992 39.93596267700195 100 82 65
2.2387301921844482 18.398574829101562 42.38679885864258 53 47 39
2.024198293685913 4.028989791870117 39.18090057373047 99 90 80
2.0964279174804688 7.973918914794922 42.181610107421875 24 17 16
2.159059762954712 10.550220489501953 40.288719177246094 115 104 94
2.092851161956787 7.174325466156006 39.04374694824219 87 81 81
2.092851161956787 7.174325466156006 39.04374694824219 87 81 81
2.039731025695801 11.488152503967285 37.735782623291016 67 58 52
2.076789617538452 7.309027194976807 38.122718811035156 161 151 149
2.080732822418213 8.743484497070312 37.658809661865234 144 133 125
2.1853954792022705 14.791913986206055 39.347171783447266 65 56 47
2.108423948287964 2.6924188137054443 37.54146957397461 74 62 53
2.092289447784424 8.145999908447266 36.516510009765625 122 110 103
2.2130165100097656 2.3006749153137207 36.91957092285156 88 77 67
2.092548131942749 9.209625244140625 37.914093017578125 33 21 18
2.149679183959961 9.88850212097168 37.15866470336914 132 120 110
2.1859283447265625 12.260292053222656 37.56957244873047 71 63 57
2.1859283447265625 12.260292053222656 37.56957244873047 71 63 57
2.23429536819458 13.430685997009277 36.3286018371582 145 135 127
2.3540632724761963 16.354732513427734 40.20634841918945 120 112 103
2.1972668170928955 12.940914154052734 37.44389343261719 73 64 57
2.342298984527588 6.1433491706848145 39.357879638671875 45 42 47
2.3754258155822754 0.8290460109710693 39.38142395019531 113 100 89
2.61908221244812 -16.396638870239258 43.14979553222656 104 102 111
0.5438365340232849 -2.7980668544769287 8.723114013671875 46 39 36
2.5506091117858887 0.2628762423992157 41.05696487426758 85 73 62
2.410437822341919 6.802918434143066 38.54039764404297 44 39 43
2.4642722606658936 3.9355485439300537 39.37360763549805 104 96 86
2.4988694190979004 4.922458171844482 39.91493606567383 65 57 48
2.723810911178589 -17.706932067871094 43.33311462402344 95 94 93
2.3239734172821045 5.4029035568237305 36.78885269165039 39 35 41
2.629314661026001 16.89893341064453 41.07172393798828 68 62 54
2.366795301437378 13.16581916809082 37.717071533203125 126 117 110
2.425429344177246 10.781198501586914 37.300086975097656 61 51 44
2.425429344177246 10.781198501586914 37.300086975097656 61 51 44
2.923492670059204 16.528799057006836 44.40119171142578 109 99 91
2.8411335945129395 -17.396608352661133 42.02243423461914 75 72 71
2.550783395767212 12.767844200134277 38.002716064453125 85 76 69
2.5634188652038574 7.277107238769531 38.15272521972656 22 16 15
2.904848575592041 -16.42575454711914 43.191898345947266 75 71 72
2.6216623783111572 3.6576480865478516 38.86222839355469 110 103 92
2.6045188903808594 2.1304593086242676 38.389034271240234 78 66 55
2.632903575897217 8.05966854095459 37.10371780395508 15 4 2
2.649827241897583 16.799694061279297 40.25386428833008 72 66 58
2.5578417778015137 13.81261157989502 37.59627914428711 55 45 37
2.7013747692108154 13.491856575012207 38.03020095825195 58 49 42
2.7013747692108154 13.491856575012207 38.03020095825195 58 49 42
2.592499017715454 12.047138214111328 37.933963775634766 107 97 89
2.659653425216675 16.04067039489746 37.52727127075195 90 84 77
2.5923848152160645 12.161314010620117 37.468082427978516 100 91 85
2.991325855255127 8.843025207519531 43.016239166259766 127 118 108
2.6617026329040527 11.708646774291992 38.041221618652344 116 104 97
2.6883976459503174 7.941571235656738 37.461822509765625 135 125 114
2.7604808807373047 13.917285919189453 38.18062210083008 54 45 39
2.769021511077881 10.033768653869629 38.2580680847168 132 121 110
2.9082207679748535 2.9957809448242188 38.912410736083984 59 50 40
3.148693561553955 2.6329586505889893 41.921756744384766 141 130 120
3.148693561553955 2.6329586505889893 41.921756744384766 141 130 120
2.8855350017547607 14.029462814331055 37.71513748168945 130 120 112
3.0323171615600586 18.312650680541992 39.48965835571289 80 76 68
2.93479585647583 7.5836052894592285 38.14344787597656 147 138 129
2.961841344833374 2.7592251300811768 38.47460174560547 121 112 102
2.8826632499694824 7.816876411437988 37.36386489868164 126 116 106
2.9031925201416016 7.291481018066406 35.12550354003906 143 133 123
3.072370767593384 11.642660140991211 37.73350524902344 75 62 57
3.1982929706573486 6.510553359985352 39.12752914428711 76 72 78
3.3562710285186768 16.164321899414062 41.050601959228516 108 99 88
3.453911542892456 4.868616580963135 42.702354431152344 79 70 60
3.1792430877685547 7.540904521942139 38.76790237426758 148 139 137
3.0770208835601807 2.4866220951080322 37.3796501159668 78 68 59
3.4796977043151855 -20.840225219726562 43.284263610839844 46 41 36
3.108531951904297 8.824753761291504 37.49503707885742 140 130 120
3.7294626235961914 24.1759033203125 43.164283752441406 140 135 127
3.21838116645813 7.779490947723389 38.59070587158203 119 109 100
3.4908597469329834 -10.548388481140137 39.22834014892578 162 161 154
3.2616147994995117 2.9374194145202637 37.873779296875 76 67 58
3.304541826248169 2.382136821746826 38.12253189086914 97 88 76
