ply
format ascii 1.0
element vertex 720
property float x
property float y
property float z
property uchar red
property uchar green
property uchar blue
end_header
-2.830660343170166 -1.8347489833831787 7.332314491271973 81 64 52
-2.6872620582580566 -2.6856977939605713 6.978433132171631 102 99 103
-2.8338077068328857 1.881419062614441 7.369499683380127 86 76 67
-2.851388931274414 2.48945951461792 7.432549476623535 53 45 40
-2.824028491973877 2.142469882965088 7.36847448348999 84 76 70
-2.0564539432525635 3.319249391555786 5.405974864959717 111 107 100
-2.798243522644043 1.2330009937286377 7.337154865264893 38 34 41
-2.8117690086364746 -1.8560960292816162 7.3878068923950195 75 60 49
-2.7832705974578857 2.398132562637329 7.301040172576904 55 48 44
-2.749335289001465 -2.297187089920044 7.247491836547852 151 142 133
-2.749335289001465 -2.297187089920044 7.247491836547852 151 142 133
-2.6406912803649902 -2.43860125541687 7.005305767059326 18 14 13
-2.843306064605713 -1.0984773635864258 7.473453521728516 49 33 21
-2.1197476387023926 3.330871105194092 5.617282867431641 101 96 90
-2.664459466934204 -2.3605313301086426 7.048069477081299 36 26 22
-2.2718687057495117 3.214430809020996 6.0121283531188965 74 71 65
-2.2718687057495117 3.214430809020996 6.0121283531188965 74 71 65
-2.7790088653564453 1.5816104412078857 7.354620456695557 118 109 103
-2.7624998092651367 1.310657024383545 7.36287260055542 129 122 128
-2.7624998092651367 1.310657024383545 7.36287260055542 129 122 128
-2.036430835723877 3.363919496536255 5.361145496368408 84 78 72
-2.294055461883545 3.216461658477783 6.131815433502197 151 146 140
-2.786001443862915 -1.611956238746643 7.3962907791137695 44 28 20
-2.0245418548583984 3.3502750396728516 5.417962074279785 121 117 111
-2.0442161560058594 3.310253381729126 5.433934688568115 74 70 64
-2.864271640777588 2.6434924602508545 7.56110954284668 73 65 58
-2.766115188598633 1.0873697996139526 7.360718250274658 43 34 27
-2.8190839290618896 -1.1233149766921997 7.513156414031982 97 81 69
-2.7329673767089844 1.8390498161315918 7.260219097137451 87 76 69
-2.7624263763427734 1.310636281967163 7.362710475921631 129 122 128
-2.769021511077881 2.0561439990997314 7.392473220825195 68 61 55
-2.6122868061065674 -2.8766541481018066 6.9825544357299805 116 119 123
-2.6122868061065674 -2.8766541481018066 6.9825544357299805 116 119 123
-1.917379379272461 3.357574462890625 5.1416120529174805 80 74 68
-2.640728235244751 -2.438619375228882 7.0053911209106445 18 14 13
-2.6080479621887207 -2.697657346725464 7.0051374435424805 130 133 137
-2.768383026123047 2.4524388313293457 7.47059965133667 29 21 16
-2.7683520317077637 2.4524178504943848 7.470539093017578 29 21 16
-2.3008296489715576 3.2224180698394775 6.1440534591674805 151 146 140
-2.3008296489715576 3.2224180698394775 6.1440534591674805 151 146 140
-2.714446544647217 1.080942988395691 7.313540935516357 49 40 33
-3.1820602416992188 -0.888066291809082 8.498824119567871 87 76 72
-2.7224886417388916 1.8229082822799683 7.361488342285156 73 65 60
-2.721830368041992 1.578142762184143 7.360884189605713 69 62 59
-2.639873504638672 3.1575164794921875 7.082974910736084 94 89 82
-2.728179931640625 -1.842699646949768 7.395694732666016 74 61 50
-2.635194778442383 3.0754878520965576 7.163233757019043 100 94 86
-2.0415430068969727 3.294452667236328 5.552760124206543 76 72 65
-2.384782075881958 3.1639912128448486 6.463802814483643 77 71 65
-2.384782075881958 3.1639912128448486 6.463802814483643 77 71 65
-2.706850290298462 1.593042254447937 7.362622261047363 113 104 101
-3.1391942501068115 -0.10314632207155228 8.551015853881836 53 45 42
-3.1502227783203125 -0.02379586547613144 8.509212493896484 80 71 68
-3.1502227783203125 -0.02379586547613144 8.509212493896484 80 71 68
-2.721534013748169 1.6450332403182983 7.402545928955078 151 141 133
-2.721534013748169 1.6450332403182983 7.402545928955078 151 141 133
-2.5936124324798584 3.06466007232666 7.099706649780273 60 55 47
-3.1042768955230713 -0.9144330024719238 8.509130477905273 45 33 29
-2.731509208679199 2.664308547973633 7.4920220375061035 66 60 53
-2.6724817752838135 2.0891997814178467 7.4054765701293945 88 79 72
-2.691493034362793 1.3182518482208252 7.3626532554626465 134 129 132
-2.6904096603393555 -2.0761911869049072 7.392699718475342 76 61 51
-2.6904096603393555 -2.0761911869049072 7.392699718475342 76 61 51
-2.543663501739502 -2.7657530307769775 6.989729881286621 89 91 98
-2.573094606399536 -1.6334518194198608 7.145393371582031 127 115 103
-2.0968246459960938 3.3136634826660156 5.739199161529541 110 106 99
-2.688814640045166 2.3256356716156006 7.406108379364014 66 59 53
-2.72259259223938 -1.1175007820129395 7.503028392791748 106 89 79
-2.6476945877075195 0.8242198824882507 7.306954383850098 68 58 48
-3.0869877338409424 -0.36901310086250305 8.519475936889648 67 58 58
-2.5430798530578613 -2.604923963546753 7.019824028015137 93 92 103
-2.5430798530578613 -2.604923963546753 7.019824028015137 93 92 103
-2.5098929405212402 -3.2872235774993896 6.952852249145508 54 50 50
-2.6727867126464844 1.812155842781067 7.417794704437256 96 86 81
-3.090144634246826 0.004476198460906744 8.580284118652344 59 50 48
-2.659250020980835 1.5073949098587036 7.385702133178711 35 31 44
-2.6876046657562256 2.046072244644165 7.421133995056152 106 97 89
-2.7197580337524414 0.6433328986167908 7.564671993255615 114 104 95
-2.954632043838501 -1.5056872367858887 8.220295906066895 37 22 14
-2.6545181274414062 1.679574728012085 7.387657165527344 137 127 118
-2.717085123062134 2.523451805114746 7.516172885894775 85 75 69
-2.6677026748657227 2.3764545917510986 7.428818225860596 88 81 75
-2.4718515872955322 -1.8105169534683228 6.842928409576416 104 91 79
-1.941648006439209 3.323366641998291 5.4159064292907715 112 108 101
-1.941648006439209 3.323366641998291 5.4159064292907715 112 108 101
-2.64916729927063 1.9361486434936523 7.390110015869141 126 116 108
-2.64916729927063 1.9361486434936523 7.390110015869141 126 116 108
-2.6603331565856934 2.252732753753662 7.422859191894531 74 67 61
-2.176880359649658 3.221393585205078 6.083736896514893 72 67 62
-1.8475221395492554 3.352658748626709 5.164907455444336 81 74 68
-2.7426397800445557 1.9171475172042847 7.608293056488037 100 91 84
-2.13380765914917 3.232137441635132 5.975780010223389 113 108 103
-2.508934736251831 -2.843245267868042 7.0480804443359375 86 84 92
-2.6172688007354736 1.3231306076049805 7.357522964477539 59 55 59
-1.8799283504486084 3.3172316551208496 5.335951328277588 135 131 124
-2.493173599243164 -2.688441753387451 7.028387069702148 128 131 136
-2.0063421726226807 3.2697041034698486 5.657351493835449 75 71 64
-2.616272449493408 0.749826192855835 7.349574089050293 94 85 76
-2.651838541030884 2.635791063308716 7.48441743850708 57 49 43
-2.618704319000244 -1.6018762588500977 7.416319847106934 38 26 17
-2.6311607360839844 2.5308969020843506 7.464234828948975 64 55 48
-2.4675965309143066 -2.6279098987579346 7.016200542449951 104 103 112
-2.584944725036621 0.9559526443481445 7.357528209686279 101 91 80
-2.6327288150787354 2.8641247749328613 7.495370864868164 70 60 52
-2.478377103805542 -2.5530056953430176 7.060664176940918 113 110 115
-2.456946611404419 -2.6637096405029297 7.003808975219727 133 133 137
-1.8385120630264282 3.3345773220062256 5.261569976806641 71 67 60
-1.8385120630264282 3.3345773220062256 5.261569976806641 71 67 60
-2.4044082164764404 -3.476201295852661 6.933979511260986 67 62 57
-2.4373912811279297 -2.970512628555298 6.994740009307861 75 74 76
-2.542908191680908 0.8145036697387695 7.297412872314453 75 66 56
-1.7618145942687988 3.3483762741088867 5.096559047698975 89 78 71
-1.7618145942687988 3.3483762741088867 5.096559047698975 89 78 71
-2.3956174850463867 -1.9284309148788452 6.893649101257324 68 55 44
-1.936102271080017 3.290536403656006 5.572937965393066 72 68 61
-2.3962461948394775 -2.760829210281372 6.923276901245117 77 76 80
-2.5674021244049072 1.7465875148773193 7.401270866394043 99 90 85
-2.815779209136963 -1.5224584341049194 8.111495018005371 112 98 88
-2.592106342315674 2.8944544792175293 7.4990715980529785 58 49 42
-2.591249942779541 2.4672274589538574 7.499512672424316 101 92 85
-2.5551609992980957 1.2944053411483765 7.400864124298096 35 30 33
-2.3722493648529053 -2.529412269592285 6.912618160247803 106 104 108
-2.545431137084961 1.7654356956481934 7.388273239135742 71 61 57
-1.8281896114349365 3.3215131759643555 5.308727741241455 114 109 102
-2.104872226715088 3.210327625274658 6.125645637512207 67 62 56
-2.638076066970825 2.312756299972534 7.653537750244141 86 78 72
-2.5273966789245605 1.3105852603912354 7.4117279052734375 61 56 58
-2.677957773208618 0.44590669870376587 7.803565979003906 61 59 68
-2.530975818634033 1.3398993015289307 7.385634899139404 112 107 110
-2.3226137161254883 -3.449132204055786 6.841763019561768 55 47 41
-1.762192964553833 3.3108434677124023 5.163302421569824 90 85 78
-2.0071933269500732 3.2454373836517334 5.880684852600098 83 78 71
-2.4042515754699707 -2.547959089279175 7.048060894012451 116 116 120
-2.362762689590454 -1.9353090524673462 6.928195953369141 80 66 56
-2.522341012954712 1.257434368133545 7.401442527770996 66 61 65
-2.522341012954712 1.257434368133545 7.401442527770996 66 61 65
-2.401294469833374 -2.6725101470947266 7.047204971313477 113 113 119
-2.50624680519104 1.1062510013580322 7.378760814666748 73 65 63
-1.792940378189087 3.347576141357422 5.265706539154053 76 72 65
-2.3924808502197266 -2.6028225421905518 7.0270562171936035 120 119 125
-2.620418071746826 -1.0266066789627075 7.700540065765381 196 197 213
-2.50297212600708 0.8014776110649109 7.358530521392822 72 62 53
-2.510080099105835 -1.3200825452804565 7.4643874168396 151 137 127
-2.5298664569854736 0.8770293593406677 7.402557373046875 85 74 65
-2.5310683250427246 2.4576423168182373 7.4676289558410645 48 41 34
-2.117305278778076 3.198298215866089 6.252236366271973 53 48 42
-2.0563416481018066 3.234884023666382 6.078249931335449 70 65 59
-2.49688982963562 1.4558101892471313 7.385164260864258 34 29 38
-2.5012271404266357 1.5075063705444336 7.44035530090332 44 36 39
-2.5012271404266357 1.5075063705444336 7.44035530090332 44 36 39
-2.623206853866577 0.4445195496082306 7.8056321144104 52 52 61
-2.0594186782836914 3.1175014972686768 6.196811199188232 76 71 65
-2.525447130203247 -1.8053741455078125 7.4631524085998535 80 67 57
-2.5211756229400635 -1.0786588191986084 7.4938764572143555 49 34 25
-2.4705963134765625 1.0493898391723633 7.36402702331543 29 21 12
-2.3581032752990723 -3.0135605335235596 7.03089714050293 106 107 111
-2.0717597007751465 3.214486598968506 6.179473400115967 61 58 52
-2.513322353363037 1.6213133335113525 7.473240375518799 80 70 63
-2.162477731704712 3.1723709106445312 6.457488536834717 71 67 61
-2.077507734298706 3.206197500228882 6.206064224243164 61 58 52
-2.5388214588165283 2.6078736782073975 7.541392803192139 76 68 61
-2.477381706237793 -1.769851803779602 7.444212436676025 43 29 20
-1.969967246055603 3.2515268325805664 5.925723552703857 90 84 78
-1.8539609909057617 3.2844479084014893 5.580526351928711 70 67 60
-2.2072525024414062 3.122804880142212 6.72407341003418 89 84 78
-2.1578965187072754 -1.327551245689392 6.5073933601379395 77 61 51
-2.4517674446105957 1.3087353706359863 7.424298286437988 29 23 25
-2.1538429260253906 -1.610756754875183 6.522593021392822 81 68 57
-2.473369836807251 2.0209670066833496 7.496881008148193 70 62 55
-2.485583543777466 -1.1235934495925903 7.546431541442871 84 69 60
-2.446889638900757 1.0561363697052002 7.435245990753174 38 30 23
-1.8637319803237915 3.284081220626831 5.66295862197876 70 65 58
-2.457319736480713 -1.4045926332473755 7.534888744354248 161 147 135
-2.448227643966675 1.6760417222976685 7.4452385902404785 79 69 63
-2.2931177616119385 -3.009949207305908 6.9918060302734375 101 100 103
-2.3937697410583496 2.747626304626465 7.375011444091797 84 74 68
-2.816906690597534 -0.5821554064750671 8.604055404663086 106 103 109
-2.8381052017211914 0.31714800000190735 8.684661865234375 51 47 52
-2.8381052017211914 0.31714800000190735 8.684661865234375 51 47 52
-2.307976007461548 -2.9721148014068604 7.062794208526611 84 82 86
-2.448629140853882 2.5843183994293213 7.508251190185547 60 53 46
-2.4357874393463135 1.863669753074646 7.4797682762146 77 68 59
-2.4399945735931396 1.3339163064956665 7.524603843688965 87 82 85
-2.3905081748962402 2.9999403953552246 7.371944904327393 55 46 38
-2.4628567695617676 2.832862377166748 7.590029716491699 115 104 96
-2.4055190086364746 -2.2005717754364014 7.436493873596191 34 21 14
-1.8905231952667236 3.259185552597046 5.845400333404541 71 67 60
-1.7525553703308105 3.3099610805511475 5.479974746704102 112 108 101
-1.745670199394226 3.3194868564605713 5.4040608406066895 73 68 60
-2.4193809032440186 2.5477497577667236 7.487222194671631 62 55 49
-2.409181833267212 2.2607247829437256 7.466897964477539 91 82 74
-2.2900993824005127 -2.4817214012145996 7.103301525115967 101 99 104
-1.6872961521148682 3.339366912841797 5.240938663482666 78 71 64
-1.9094445705413818 3.24776291847229 5.905542850494385 60 56 49
-1.9094445705413818 3.24776291847229 5.905542850494385 60 56 49
-1.9249614477157593 3.2247631549835205 6.0011467933654785 122 117 110
-1.9249614477157593 3.2247631549835205 6.0011467933654785 122 117 110
-2.515167474746704 0.5535898804664612 7.822354316711426 132 122 117
-2.3839111328125 0.9846013784408569 7.413845539093018 88 78 69
-2.3655025959014893 1.599586009979248 7.39404296875 96 85 78
-2.412093162536621 -2.0892553329467773 7.508211135864258 78 65 53
-2.7274274826049805 -0.49968281388282776 8.494847297668457 91 87 91
-2.410853385925293 2.543294668197632 7.5233635902404785 111 102 96
-2.256884813308716 -3.0231707096099854 7.048153877258301 103 101 101
-2.4118900299072266 2.8157362937927246 7.545584678649902 124 113 107
-1.6603927612304688 3.3541579246520996 5.197576999664307 78 71 64
-2.412856101989746 2.616763114929199 7.562941551208496 66 58 52
-1.92447030544281 3.2241005897521973 5.999657154083252 122 117 110
-2.3919527530670166 2.2778236865997314 7.555784225463867 83 75 67
-2.3771355152130127 2.98695969581604 7.506527900695801 98 88 79
-2.382690191268921 -1.8910914659500122 7.489273548126221 128 114 104
-1.6549865007400513 3.3484222888946533 5.213849067687988 106 100 92
-2.7488532066345215 0.2462342381477356 8.660279273986816 138 130 130
-2.0180366039276123 3.172365188598633 6.357113361358643 76 73 66
-2.387096643447876 2.546799898147583 7.523024082183838 77 70 62
-2.3804049491882324 2.553673267364502 7.506832599639893 61 54 46
-2.3919565677642822 2.2778306007385254 7.55580472946167 83 75 67
-2.3269617557525635 0.8372565507888794 7.370509147644043 74 64 56
-2.380164384841919 -1.4439899921417236 7.543481349945068 42 28 16
-2.318206548690796 1.6120631694793701 7.429120063781738 119 110 99
-1.6123100519180298 3.362342357635498 5.114651203155518 90 78 69
-2.3676629066467285 2.785994052886963 7.534884452819824 111 101 95
-2.386648416519165 -1.8097484111785889 7.509903430938721 92 81 69
-2.389939546585083 -1.088958740234375 7.563924312591553 30 15 9
-2.365856647491455 1.8417870998382568 7.5303425788879395 108 98 90
-1.6280115842819214 3.356288433074951 5.190073490142822 149 142 132
-2.365701198577881 2.6390159130096436 7.540198802947998 84 74 69
-2.4655892848968506 0.4464191198348999 7.865087985992432 59 60 73
-2.365776777267456 2.746875286102295 7.5487589836120605 93 84 77
-2.3679394721984863 -1.3766783475875854 7.569167613983154 68 53 44
-2.062826633453369 3.113537549972534 6.544631481170654 113 108 101
-2.343104124069214 1.9859845638275146 7.496318340301514 122 113 104
-2.333031415939331 -2.1585938930511475 7.48308801651001 71 56 46
-2.348538637161255 2.482959032058716 7.54323673248291 88 81 76
-1.7149900197982788 3.29447865486145 5.5113983154296875 58 54 48
-2.3021719455718994 1.354408621788025 7.406255722045898 35 29 33
-2.3054051399230957 1.095682978630066 7.41701078414917 110 103 100
-2.0181734561920166 3.14286732673645 6.507569789886475 115 109 102
-2.6838934421539307 -0.7723641991615295 8.560455322265625 121 126 143
-2.3112454414367676 1.4304836988449097 7.448873996734619 51 45 48
-2.3307669162750244 1.05014169216156 7.4284348487854 37 29 23
-2.3367936611175537 -1.2379357814788818 7.540668487548828 38 25 17
-2.2901103496551514 1.5240745544433594 7.467423439025879 67 57 54
-2.1900599002838135 -2.8611655235290527 7.086945533752441 98 95 100
-1.6703159809112549 -1.5016582012176514 5.409215450286865 76 60 50
-1.95858895778656 3.1948091983795166 6.345204830169678 62 59 53
-2.3657212257385254 2.432380199432373 7.603975296020508 25 18 13
-2.2955782413482666 1.6380887031555176 7.432669639587402 116 107 97
-2.4245500564575195 0.39013782143592834 7.864986896514893 76 74 81
-2.327434778213501 2.5378355979919434 7.544942855834961 32 25 23
-2.326979875564575 2.4821112155914307 7.5437211990356445 32 28 25
-1.8088765144348145 3.2580885887145996 5.865536212921143 68 64 58
-1.8930916786193848 3.1803853511810303 6.147162437438965 115 111 105
-2.312486171722412 -1.5002740621566772 7.585189342498779 124 110 100
-2.3439736366271973 0.6772767305374146 7.686094760894775 125 115 108
-2.317085027694702 0.8054238557815552 7.498715400695801 89 80 71
-2.293489456176758 1.5964421033859253 7.473625659942627 129 119 108
-1.7350027561187744 3.3827288150787354 5.596125602722168 106 101 93
-1.7350027561187744 3.3827288150787354 5.596125602722168 106 101 93
-1.7985584735870361 3.2234749794006348 5.896299362182617 139 135 128
-2.288142681121826 1.6966845989227295 7.474621772766113 132 122 113
-1.735256314277649 3.285482883453369 5.67142391204834 108 102 95
-2.640193223953247 -0.8556773066520691 8.608793258666992 109 103 104
-2.640193223953247 -0.8556773066520691 8.608793258666992 109 103 104
-2.1354517936706543 -1.5772782564163208 6.982156276702881 83 70 58
-2.3150317668914795 -1.13188636302948 7.624178409576416 54 41 33
-2.2074263095855713 3.0913829803466797 7.244482040405273 62 56 47
-2.275509834289551 1.386124849319458 7.468907833099365 66 62 66
-2.275509834289551 1.386124849319458 7.468907833099365 66 62 66
-2.2809579372406006 0.5610455870628357 7.51090145111084 108 98 92
-2.1546287536621094 -2.7304046154022217 7.09584903717041 87 85 94
-2.1246628761291504 -2.721083641052246 7.080811977386475 92 89 98
-2.2883238792419434 2.330188035964966 7.548570156097412 103 94 86
-2.2599985599517822 1.638469934463501 7.46161413192749 109 98 89
-2.275080680847168 3.051846981048584 7.52979850769043 62 50 40
-1.7387542724609375 -1.4125099182128906 5.759645462036133 74 59 49
-2.5863142013549805 -0.36829158663749695 8.651812553405762 106 100 101
-1.6798269748687744 3.3010945320129395 5.589542388916016 69 65 58
-2.23826003074646 -1.1051925420761108 7.4523773193359375 54 41 33
-2.134783983230591 -3.7169082164764404 7.130487442016602 78 72 62
-2.1379528045654297 -2.5789198875427246 7.131219863891602 97 96 105
-2.2422730922698975 2.6664092540740967 7.526224136352539 52 47 42
-2.251903533935547 -1.606696605682373 7.51532506942749 38 24 16
-2.236280918121338 0.9555628895759583 7.429285049438477 84 74 64
-1.8033721446990967 3.229919910430908 6.042949199676514 82 78 72
-2.2290074825286865 1.366076111793518 7.479547023773193 37 33 38
-2.221501111984253 1.1908345222473145 7.464968681335449 43 40 46
-2.223499298095703 1.5638319253921509 7.49645471572876 140 130 121
-2.596707820892334 0.11546710133552551 8.774206161499023 254 254 254
-2.2038421630859375 0.932775616645813 7.449253082275391 86 77 66
-2.199453115463257 0.7713657021522522 7.434305191040039 71 62 53
-2.201237678527832 1.0486407279968262 7.45854377746582 37 29 21
-1.559358835220337 3.3600339889526367 5.283465385437012 59 53 44
-2.2249128818511963 2.3506264686584473 7.545989990234375 78 70 62
-1.6388459205627441 3.3089418411254883 5.519192695617676 67 63 56
-2.1862125396728516 1.674485445022583 7.516371726989746 105 93 83
-2.0271177291870117 3.113616466522217 6.9138712882995605 59 56 51
-2.1759274005889893 1.1406692266464233 7.48785924911499 50 45 46
-2.1899893283843994 1.1850496530532837 7.471945762634277 71 67 72
-2.1809945106506348 -1.0772467851638794 7.4958930015563965 40 26 19
-2.1689507961273193 1.8817782402038574 7.451685428619385 78 69 60
-2.5336973667144775 0.4813082814216614 8.664153099060059 67 68 82
-2.1712043285369873 1.1854588985443115 7.434944152832031 66 63 68
-1.6251161098480225 3.2869913578033447 5.581580638885498 68 64 57
-2.2329518795013428 -1.1302368640899658 7.63724946975708 66 54 44
-2.155841827392578 1.4224827289581299 7.46673059463501 54 48 52
-2.1879208087921143 2.038698196411133 7.542324066162109 70 62 54
-2.175032615661621 1.5885100364685059 7.504680156707764 78 67 58
-2.170354127883911 1.2924139499664307 7.504306316375732 84 80 87
-2.183161497116089 2.0780725479125977 7.54482364654541 76 68 60
-2.2049190998077393 0.6212120056152344 7.629471302032471 73 61 56
-2.5317840576171875 -0.37123730778694153 8.658086776733398 110 104 106
-2.1767418384552 1.1409465074539185 7.4896697998046875 50 45 46
-2.147068500518799 1.5394803285598755 7.53660249710083 107 97 90
-1.9642528295516968 3.158935070037842 6.87075662612915 81 75 70
-1.4906940460205078 -1.271210789680481 5.196059703826904 79 66 56
-1.6508870124816895 -1.389699935913086 5.802000522613525 112 100 88
-2.1796011924743652 2.996882677078247 7.600992202758789 113 101 91
-2.1651341915130615 2.174055337905884 7.552420616149902 35 28 22
-2.070953845977783 1.6856142282485962 7.321869373321533 56 45 40
-1.7298486232757568 3.230095148086548 6.073000907897949 103 99 93
-1.4764602184295654 3.365612506866455 5.164844989776611 88 77 68
-1.5352544784545898 3.298953056335449 5.3770670890808105 125 119 111
-2.151763677597046 3.1183221340179443 7.4714035987854 70 62 54
-2.1464829444885254 2.1835713386535645 7.55267858505249 33 25 21
-2.1464829444885254 2.1835713386535645 7.55267858505249 33 25 21
-2.145477533340454 -1.4051222801208496 7.5907769203186035 130 117 105
-2.1517229080200195 2.4527268409729004 7.580130100250244 60 56 53
-2.1358113288879395 1.901260256767273 7.531159400939941 84 76 67
-2.1298274993896484 1.677725911140442 7.510444164276123 68 57 47
-2.129504442214966 1.479705810546875 7.519324779510498 43 36 37
-2.0997908115386963 -2.4492201805114746 7.416583061218262 45 35 31
-1.6806329488754272 3.2288076877593994 5.898887634277344 67 62 55
-2.0806989669799805 1.9346858263015747 7.374560832977295 71 62 55
-1.7980122566223145 3.178539276123047 6.375171661376953 71 65 59
-2.0802557468414307 0.7126843929290771 7.4293293952941895 121 113 107
-2.1657094955444336 0.6236745119094849 7.699606418609619 78 66 61
-1.7243837118148804 3.31396222114563 6.052877426147461 56 50 43
-2.202907085418701 -0.9928603768348694 7.845606327056885 28 27 40
-2.218536615371704 0.4350316524505615 7.908597946166992 69 71 85
-1.5501363277435303 3.4044039249420166 5.5231428146362305 109 104 97
-2.1090312004089355 1.040938377380371 7.503716945648193 42 34 28
-1.995757818222046 -3.3358957767486572 7.189248561859131 63 59 58
-1.4940305948257446 3.3303213119506836 5.348031044006348 68 64 56
-2.1956379413604736 0.3840322494506836 7.950960159301758 90 88 98
-1.48853600025177 3.3356916904449463 5.332902431488037 73 69 61
-2.0905568599700928 2.9609010219573975 7.54237699508667 127 116 105
-2.0905568599700928 2.9609010219573975 7.54237699508667 127 116 105
-1.9928414821624756 -3.261866569519043 7.142154216766357 80 75 76
-1.5228065252304077 3.2952635288238525 5.556934833526611 78 73 66
-2.085672616958618 -2.0800557136535645 7.526801109313965 71 57 45
-2.072768211364746 1.1211259365081787 7.482304096221924 61 56 61
-2.0768933296203613 1.5492914915084839 7.498398303985596 135 124 116
-2.0731728076934814 1.091164469718933 7.486494064331055 43 36 36
-2.0487732887268066 3.113600492477417 7.306681156158447 128 123 117
-2.0737805366516113 1.2266895771026611 7.498682498931885 46 43 56
-1.6934632062911987 -1.7304878234863281 6.167117118835449 107 94 84
-1.5155702829360962 3.3218367099761963 5.494595050811768 71 66 59
-1.576276421546936 3.279330253601074 5.71455717086792 72 67 60
-2.0536768436431885 -2.303989887237549 7.44647216796875 102 86 73
-2.0536768436431885 -2.303989887237549 7.44647216796875 102 86 73
-2.4378952980041504 0.21276040375232697 8.783533096313477 169 164 166
-2.0999629497528076 2.4323387145996094 7.6338725090026855 25 18 15
-2.1645429134368896 3.0646798610687256 7.808913707733154 118 107 96
-1.9054738283157349 3.0906808376312256 6.946796417236328 63 61 58
-2.0899808406829834 -1.9060851335525513 7.617101192474365 156 142 131
-1.5816713571548462 -1.4427443742752075 5.764571189880371 153 140 128
-1.9652304649353027 -2.7645089626312256 7.173365116119385 92 90 96
-2.0648937225341797 0.7067738771438599 7.537404537200928 111 104 97
-2.0605502128601074 1.4645723104476929 7.521790504455566 41 33 33
-1.9524483680725098 -2.661052703857422 7.138885498046875 118 119 126
-2.04707407951355 1.231505036354065 7.4856085777282715 39 36 48
-1.4548704624176025 3.3349950313568115 5.336514949798584 66 62 54
-1.4023008346557617 3.361851215362549 5.136290550231934 151 138 128
-1.4023008346557617 3.361851215362549 5.136290550231934 151 138 128
-1.9268183708190918 -3.5262489318847656 7.106503009796143 54 45 40
-2.0744621753692627 2.9560019969940186 7.656875133514404 55 45 37
-2.235961675643921 -2.190242290496826 8.258879661560059 80 66 54
-1.5241838693618774 3.2967405319213867 5.559769153594971 78 73 66
-1.3752472400665283 3.342315435409546 5.116552829742432 126 113 103
-1.9921244382858276 1.0225309133529663 7.416920185089111 45 38 31
-1.8533191680908203 3.105623483657837 6.868025779724121 74 71 68
-2.074679136276245 2.77097487449646 7.704207897186279 81 70 61
-2.05289888381958 2.6810765266418457 7.624624252319336 73 63 54
-2.0385210514068604 2.144566774368286 7.574116230010986 113 103 94
-1.9598681926727295 0.3945382833480835 7.288274765014648 73 75 88
-2.0168466567993164 0.9890866279602051 7.504433631896973 103 94 84
-1.9726077318191528 -1.653733491897583 7.342199325561523 130 117 107
-2.0146775245666504 1.117136836051941 7.5037455558776855 63 58 59
-2.359290361404419 0.22890953719615936 8.81359577178955 103 98 99
-1.8999584913253784 -3.5219929218292236 7.1049981117248535 54 47 41
-1.8290890455245972 3.138979911804199 6.83474588394165 107 103 97
-2.044766426086426 2.748215913772583 7.679048538208008 92 81 73
-1.999070167541504 1.5332179069519043 7.51138162612915 96 85 80
-2.0018529891967773 0.711376428604126 7.5541558265686035 122 115 108
-1.9131659269332886 -2.608546257019043 7.23264741897583 98 96 105
-2.0099189281463623 2.1342997550964355 7.599002361297607 71 60 53
-2.168982744216919 -1.290881633758545 8.294565200805664 144 129 119
-2.183520555496216 -1.4935144186019897 8.26554012298584 77 63 51
-1.8908884525299072 -2.74501895904541 7.175638675689697 96 94 103
-1.9067713022232056 -2.863401412963867 7.248607158660889 87 85 94
-1.3977168798446655 3.3162930011749268 5.386224746704102 125 121 113
-1.429304838180542 -1.3006422519683838 5.445336818695068 89 76 64
-1.3634182214736938 -1.3415204286575317 5.185194492340088 72 58 47
-1.082879662513733 -0.955588161945343 4.120738983154297 50 36 24
-1.9664357900619507 1.2721868753433228 7.503025531768799 46 42 51
-2.0100278854370117 1.4146416187286377 7.670053958892822 82 76 76
-1.8581699132919312 -3.0247249603271484 7.132447719573975 137 132 132
-1.9684290885925293 1.423914909362793 7.547369480133057 125 118 114
-1.5308005809783936 3.25803804397583 5.92880392074585 105 100 93
-2.0267155170440674 3.0047450065612793 7.680711269378662 77 68 57
-1.9952499866485596 2.9638655185699463 7.670039176940918 45 36 29
-1.9864591360092163 2.580929756164551 7.635859966278076 63 54 47
-1.8583966493606567 -3.288388252258301 7.150729656219482 59 56 51
-1.9519259929656982 1.0436335802078247 7.524886131286621 29 21 14
-1.9378485679626465 0.8168489933013916 7.494822025299072 70 61 53
-1.434137225151062 3.31172513961792 5.571785926818848 113 110 104
-1.434137225151062 3.31172513961792 5.571785926818848 113 110 104
-1.997235655784607 2.5102710723876953 7.746301174163818 77 70 64
-1.9283889532089233 1.0459539890289307 7.488265514373779 54 46 39
-1.9703313112258911 -1.754046082496643 7.651065349578857 81 67 55
-1.8472479581832886 -2.9009850025177 7.183379173278809 105 102 109
-1.9458684921264648 1.6940377950668335 7.568833827972412 134 124 116
-1.848379135131836 -2.665030002593994 7.206002235412598 128 130 139
-1.995944857597351 2.6285927295684814 7.68138313293457 73 64 57
-2.246312141418457 0.16526590287685394 8.78618049621582 231 226 226
-1.7018070220947266 3.1429896354675293 6.64887809753418 59 53 47
-1.9306261539459229 1.5611472129821777 7.5638041496276855 112 102 96
-1.8245655298233032 -3.13804292678833 7.148874282836914 127 123 128
-2.0719339847564697 -2.2151660919189453 8.200155258178711 132 118 105
-1.9365746974945068 1.8078607320785522 7.599719047546387 138 128 119
-1.559217929840088 3.287257194519043 6.128177165985107 102 98 91
-1.559217929840088 3.287257194519043 6.128177165985107 102 98 91
-1.9176095724105835 1.1673736572265625 7.538751602172852 43 37 40
-1.8086936473846436 3.0598390102386475 7.163311958312988 61 55 47
-1.1309112310409546 -1.0714969635009766 4.501359939575195 106 92 82
-1.1309112310409546 -1.0714969635009766 4.501359939575195 106 92 82
-1.8709734678268433 1.808631181716919 7.4401445388793945 114 105 95
-1.3625692129135132 3.3708882331848145 5.30230188369751 140 134 125
-1.8021408319473267 -3.2940256595611572 7.1368584632873535 58 54 50
-1.907711148262024 1.3652429580688477 7.576447010040283 49 44 47
-1.243097186088562 -1.2002023458480835 4.936938285827637 37 24 13
-1.9228291511535645 2.3507604598999023 7.640072345733643 54 48 45
-1.8993929624557495 1.1189721822738647 7.553514003753662 92 84 83
-1.8993929624557495 1.1189721822738647 7.553514003753662 92 84 83
-1.9197988510131836 2.908867835998535 7.655825614929199 62 54 48
-1.918556809425354 -2.051483154296875 7.593234062194824 133 120 107
-1.345827341079712 3.3302876949310303 5.388697624206543 66 62 54
-1.7737516164779663 -3.02888822555542 7.104358673095703 33 28 28
-1.3185607194900513 3.359163284301758 5.289444923400879 73 67 58
-1.9878216981887817 0.5805762410163879 7.979821681976318 112 101 97
-1.125266432762146 -1.0980839729309082 4.517235279083252 76 62 50
-1.125266432762146 -1.0980839729309082 4.517235279083252 76 62 50
-2.0002520084381104 0.47779470682144165 7.967691421508789 200 204 213
-1.4704793691635132 3.242349863052368 5.913286209106445 70 66 60
-1.529772162437439 3.2084152698516846 6.16030740737915 81 77 70
-1.8667525053024292 0.7654720544815063 7.521417140960693 84 75 67
-1.893977403640747 2.4480319023132324 7.705615520477295 71 64 60
-1.893977403640747 2.4480319023132324 7.705615520477295 71 64 60
-1.857491374015808 1.1178078651428223 7.530379772186279 91 85 84
-1.8705687522888184 2.3696134090423584 7.61604642868042 53 48 44
-1.3923661708831787 3.286562204360962 5.673457622528076 66 62 55
-1.8603700399398804 1.5123305320739746 7.578984260559082 89 79 76
-1.7239515781402588 -1.6992738246917725 7.127849102020264 126 112 100
-1.8444852828979492 1.601278305053711 7.550789833068848 124 112 104
-1.8714165687561035 1.3251088857650757 7.627163887023926 26 23 27
-1.747595191001892 -3.109495162963867 7.190948486328125 85 82 87
-1.4348256587982178 3.25412917137146 5.904261589050293 140 136 129
-1.8689442873001099 1.7521297931671143 7.677099227905273 54 42 33
-1.7424583435058594 -3.008368968963623 7.188111305236816 100 96 100
-1.3342489004135132 3.3173604011535645 5.461414337158203 137 133 126
-1.85606050491333 2.505446195602417 7.666587829589844 78 72 65
-1.8288941383361816 1.2252628803253174 7.565066814422607 43 37 44
-1.5968248844146729 -1.548148512840271 6.617368221282959 49 34 24
-1.8281946182250977 1.6756936311721802 7.582221508026123 157 145 135
-1.8551985025405884 1.9516551494598389 7.628850936889648 71 61 52
-1.750632405281067 1.3652366399765015 7.4024200439453125 59 53 55
-1.8227229118347168 1.5747212171554565 7.602100372314453 124 114 106
-1.8494493961334229 2.429884195327759 7.71549654006958 30 23 19
-1.8143203258514404 1.498521327972412 7.587966442108154 90 80 77
-1.6687856912612915 3.134831428527832 6.976700305938721 103 100 95
-1.8363666534423828 -1.317244291305542 7.710865020751953 80 66 53
-1.751775860786438 1.1951158046722412 7.379461765289307 54 49 55
-1.68817937374115 3.0691373348236084 7.114369869232178 76 60 46
-1.7807687520980835 1.3997968435287476 7.532169818878174 57 49 51
-1.1980880498886108 3.3097777366638184 5.131750106811523 127 115 104
-1.4772400856018066 3.210446357727051 6.265725135803223 66 62 56
-1.7469987869262695 -3.618598461151123 7.31898832321167 64 61 54
-1.7727504968643188 -1.281737208366394 7.657073974609375 137 122 111
-1.792892336845398 2.0213303565979004 7.618216037750244 122 112 103
-1.7971333265304565 1.9555394649505615 7.638923645019531 54 44 36
-1.9436615705490112 -2.275663137435913 8.264018058776855 85 70 57
-1.2226568460464478 3.325967311859131 5.202589511871338 131 122 113
-1.8078042268753052 -1.4465997219085693 7.688205718994141 90 74 61
-1.3357888460159302 3.307981491088867 5.617404460906982 173 169 162
-1.2502257823944092 3.3090779781341553 5.329755783081055 61 56 48
-1.1974172592163086 3.3683178424835205 5.102961540222168 143 131 120
-1.8107060194015503 2.3850057125091553 7.724689483642578 67 60 55
-1.7064141035079956 0.8846268653869629 7.385268688201904 92 83 74
-1.2997463941574097 3.3033270835876465 5.563692569732666 126 122 115
-1.7558131217956543 1.0855129957199097 7.564580917358398 150 143 140
-1.7558131217956543 1.0855129957199097 7.564580917358398 150 143 140
-1.7990529537200928 2.8137543201446533 7.723754405975342 68 59 53
-1.7691843509674072 2.1079742908477783 7.601224422454834 127 117 109
-1.3706457614898682 3.254500150680542 5.8905720710754395 71 66 60
-1.783666968345642 2.7369894981384277 7.67478084564209 75 65 57
-1.9568113088607788 -0.36821436882019043 8.381636619567871 101 92 96
-1.771828532218933 1.8526902198791504 7.589618682861328 123 113 104
-1.6572262048721313 -1.5600755214691162 7.161652088165283 138 122 112
-1.7369073629379272 2.15513277053833 7.580761432647705 39 28 26
-1.772933006286621 2.676516056060791 7.696549892425537 67 57 49
-1.1764048337936401 3.3700408935546875 5.118281841278076 94 82 71
-1.2110799551010132 3.354156017303467 5.268126487731934 97 90 81
-1.2110799551010132 3.354156017303467 5.268126487731934 97 90 81
-1.7441221475601196 1.4482169151306152 7.596474647521973 45 37 37
-1.7441221475601196 1.4482169151306152 7.596474647521973 45 37 37
-1.5441815853118896 -1.7878385782241821 6.6431193351745605 136 122 109
-1.7412776947021484 2.0942468643188477 7.632667064666748 130 121 111
-1.723914623260498 1.1463552713394165 7.573383331298828 45 38 40
-2.030517578125 0.13613475859165192 8.873753547668457 112 106 104
-1.6257476806640625 -3.482509136199951 7.162387371063232 71 66 63
-1.6476610898971558 1.8756266832351685 7.354742527008057 37 27 20
-1.3838670253753662 3.222710609436035 6.12075138092041 64 60 54
-1.7142813205718994 1.3655688762664795 7.596277713775635 81 75 76
-1.6116281747817993 -3.5030651092529297 7.118632793426514 61 57 52
-1.7350423336029053 -1.450117588043213 7.70363712310791 94 77 64
-1.7031015157699585 1.3587697744369507 7.5655598640441895 76 70 71
-1.6129258871078491 -3.5644538402557373 7.176726341247559 81 77 71
-1.712853193283081 1.6718485355377197 7.629402160644531 143 132 122
-1.7270623445510864 0.6942572593688965 7.701665878295898 122 116 110
-1.794738531112671 0.3906814157962799 8.0197114944458 96 96 101
-1.7199485301971436 1.9598205089569092 7.67820930480957 35 25 19
-1.7199485301971436 1.9598205089569092 7.67820930480957 35 25 19
-1.7038373947143555 1.823279619216919 7.629426002502441 112 103 95
-1.6795722246170044 0.7702975273132324 7.535734176635742 78 70 61
-1.6953035593032837 -1.2844984531402588 7.677942752838135 145 128 114
-1.6953035593032837 -1.2844984531402588 7.677942752838135 145 128 114
-1.7597061395645142 -1.01456618309021 7.914294242858887 79 66 64
-1.2261204719543457 3.384500741958618 5.52889347076416 102 97 89
-1.2088377475738525 3.324371576309204 5.462432861328125 103 98 90
-1.691977858543396 1.857276439666748 7.6295084953308105 118 108 103
-1.683058738708496 2.5402166843414307 7.692922115325928 75 66 58
-1.6081570386886597 -2.724761962890625 7.260401725769043 105 103 107
-1.584793210029602 -2.48610258102417 7.170753002166748 112 110 112
-1.6888982057571411 1.8528586626052856 7.6542887687683105 104 96 91
-1.7601954936981201 0.412405401468277 7.9994940757751465 116 115 122
-1.346930980682373 3.2258565425872803 6.129668235778809 91 86 80
-1.6938140392303467 -1.257943868637085 7.712210655212402 63 45 32
-1.6795547008514404 1.8287545442581177 7.6579508781433105 127 119 114
-1.745302677154541 3.046344041824341 7.90892219543457 89 81 73
-1.6946368217468262 -2.053118944168091 7.629715919494629 139 124 110
-1.6946368217468262 -2.053118944168091 7.629715919494629 139 124 110
-1.353652000427246 3.1729915142059326 6.154876708984375 134 130 124
-1.6750155687332153 -1.1051579713821411 7.69918966293335 55 40 29
-1.6742855310440063 -2.181964635848999 7.660006523132324 84 67 54
-1.6742855310440063 -2.181964635848999 7.660006523132324 84 67 54
-1.655909538269043 -2.242833137512207 7.581752300262451 43 27 15
-1.669777750968933 1.7580015659332275 7.646336078643799 167 158 152
-1.6846256256103516 2.542865514755249 7.697597026824951 75 66 58
-1.6846256256103516 2.542865514755249 7.697597026824951 75 66 58
-1.3853473663330078 3.180957317352295 6.352832794189453 52 48 42
-1.3853473663330078 3.180957317352295 6.352832794189453 52 48 42
-1.3120770454406738 3.209446907043457 6.008152484893799 94 90 83
-1.676546335220337 -1.3990812301635742 7.719440460205078 92 73 58
-1.3970555067062378 3.271965265274048 6.350586891174316 79 75 69
-1.5419187545776367 -2.8315155506134033 7.124640941619873 88 86 89
-1.5613360404968262 -3.106234312057495 7.233165264129639 89 86 91
-1.5613360404968262 -3.106234312057495 7.233165264129639 89 86 91
-1.6596529483795166 2.3630526065826416 7.689946174621582 106 97 90
-1.634645938873291 2.9184906482696533 7.596597671508789 97 89 81
-1.6495832204818726 1.9101330041885376 7.6544928550720215 137 129 124
-1.6443220376968384 1.5681617259979248 7.633822917938232 145 135 128
-1.6508612632751465 2.2385640144348145 7.703585147857666 114 106 98
-1.6837669610977173 2.7096800804138184 7.726963996887207 52 42 34
-1.6147476434707642 -2.0435187816619873 7.607031345367432 99 83 68
-1.6147476434707642 -2.0435187816619873 7.607031345367432 99 83 68
-1.6192195415496826 0.8688794374465942 7.569549083709717 98 89 80
-1.6299197673797607 1.6153696775436401 7.620820045471191 133 124 115
-1.6118578910827637 -1.7262293100357056 7.609175682067871 76 59 43
-1.6329022645950317 -1.2056716680526733 7.707627296447754 163 145 132
-1.3003703355789185 3.179966449737549 6.153786659240723 130 126 120
-1.6116384267807007 -1.9670966863632202 7.600821018218994 98 82 67
-1.6116384267807007 -1.9670966863632202 7.600821018218994 98 82 67
-1.6141093969345093 -1.2741092443466187 7.650113582611084 136 116 100
-1.220266342163086 3.2806873321533203 5.751612663269043 62 59 52
-1.220266342163086 3.2806873321533203 5.751612663269043 62 59 52
-1.1918398141860962 3.2190306186676025 5.618780612945557 120 116 109
-1.6460180282592773 0.502573549747467 7.8867506980896 99 94 92
-1.6332268714904785 2.2990243434906006 7.716075897216797 84 75 68
-1.6332268714904785 2.2990243434906006 7.716075897216797 84 75 68
-1.5311342477798462 -3.540126085281372 7.240985870361328 57 50 44
-1.5311342477798462 -3.540126085281372 7.240985870361328 57 50 44
-1.6067322492599487 1.452073574066162 7.636080741882324 53 47 51
-1.6111942529678345 0.7252989411354065 7.674056529998779 106 100 92
-1.3347986936569214 3.177600145339966 6.401126384735107 67 63 56
-1.616011619567871 2.931684970855713 7.7735676765441895 54 47 39
-1.6593011617660522 -1.0087565183639526 7.858797550201416 155 139 131
-1.5488232374191284 2.219295024871826 7.473300933837891 86 77 71
-1.588489055633545 1.897926926612854 7.663841724395752 141 131 126
-1.5823947191238403 1.5721514225006104 7.643587589263916 117 107 102
-1.5838794708251953 1.717496395111084 7.650835990905762 38 28 23
-1.6456669569015503 2.378289222717285 7.900108814239502 88 80 72
-1.5832703113555908 1.950305700302124 7.698990345001221 36 27 21
-1.1420365571975708 3.3085720539093018 5.556080341339111 140 134 126
-1.5025382041931152 -2.4973182678222656 7.313574314117432 109 110 120
-1.5857404470443726 1.5355972051620483 7.74444580078125 43 35 36
-1.573622226715088 1.8764245510101318 7.672065258026123 133 124 120
-1.056730031967163 3.3691978454589844 5.154552936553955 90 78 67
-1.2086163759231567 3.253926992416382 5.940462589263916 69 66 59
-1.476266622543335 -2.7828404903411865 7.270290374755859 100 98 106
-1.1419516801834106 3.282958507537842 5.662371635437012 127 123 117
-1.1419516801834106 3.282958507537842 5.662371635437012 127 123 117
-1.3075790405273438 3.1609740257263184 6.450987815856934 87 82 76
-1.5807667970657349 0.6016839146614075 7.8153605461120605 74 62 55
-1.5549415349960327 1.9579110145568848 7.699831008911133 82 72 67
-1.452560544013977 -3.5627331733703613 7.198389530181885 78 73 64
-1.5699542760849 0.6014416813850403 7.783580303192139 74 62 55
-1.2060632705688477 3.2455646991729736 5.989983558654785 67 63 57
-1.553268551826477 2.2950549125671387 7.731472015380859 109 100 92
-1.5423872470855713 1.8716422319412231 7.679167747497559 122 113 107
-1.612346887588501 0.5326951146125793 8.031024932861328 113 102 94
-1.0014079809188843 3.342996120452881 5.061791896820068 106 95 84
-1.5288257598876953 0.45452335476875305 7.78926944732666 119 108 98
-1.4979114532470703 1.48384690284729 7.488395690917969 36 28 28
-1.4980336427688599 -2.2575762271881104 7.536064147949219 75 59 44
-1.4540537595748901 -2.5821118354797363 7.304008483886719 100 98 110
-1.4540537595748901 -2.5821118354797363 7.304008483886719 100 98 110
-1.513003945350647 1.8373386859893799 7.620970726013184 135 126 118
-1.513003945350647 1.8373386859893799 7.620970726013184 135 126 118
-1.5396093130111694 2.4537770748138428 7.760337829589844 69 61 55
-1.529305100440979 2.988480567932129 7.717401027679443 75 67 58
-1.15251886844635 3.2676124572753906 5.826811790466309 77 73 67
-1.15251886844635 3.2676124572753906 5.826811790466309 77 73 67
-1.513506293296814 1.4732033014297485 7.658278465270996 91 85 87
-1.513506293296814 1.4732033014297485 7.658278465270996 91 85 87
-1.5030145645141602 0.7847414612770081 7.608931064605713 82 73 63
-1.4974451065063477 -2.256948947906494 7.533980846405029 75 59 44
-1.493094801902771 0.7782361507415771 7.578996181488037 82 74 64
-1.0222938060760498 3.302962064743042 5.2018585205078125 154 144 134
-1.507872223854065 1.8575979471206665 7.682837009429932 141 133 125
-1.5197186470031738 2.738152027130127 7.751704692840576 61 54 47
-1.1054325103759766 3.302903890609741 5.556161880493164 59 54 47
-1.1400243043899536 3.2635045051574707 5.838606834411621 126 122 115
-1.1400243043899536 3.2635045051574707 5.838606834411621 126 122 115
-1.0818132162094116 3.3131027221679688 5.5439934730529785 154 149 141
-1.4958336353302002 2.1351139545440674 7.726712226867676 133 122 112
-1.5005478858947754 1.2674373388290405 7.7555623054504395 43 41 49
-0.9908487200737 3.368617057800293 5.134364604949951 145 134 123
-1.4952179193496704 2.621722459793091 7.758383750915527 77 69 63
-1.4906976222991943 2.9758243560791016 7.773901462554932 131 122 114
-1.4768303632736206 2.993706703186035 7.706775665283203 67 59 51
-1.3151135444641113 3.117042303085327 6.890166282653809 64 60 53
-1.4630452394485474 1.5906661748886108 7.67488431930542 135 125 120
-1.394025444984436 0.6986168026924133 7.467411041259766 76 69 61
-1.4522138833999634 1.0232110023498535 7.556797981262207 24 18 13
-1.4522138833999634 1.0232110023498535 7.556797981262207 24 18 13
-0.998380184173584 3.3080666065216064 5.270179748535156 108 100 89
-1.4497696161270142 1.677150011062622 7.651949405670166 128 118 112
-1.4662421941757202 2.493879556655884 7.761518955230713 33 24 19
-1.447450041770935 1.411902904510498 7.668664932250977 47 42 48
-1.4383083581924438 0.9871143102645874 7.6374287605285645 66 57 50
-1.0949002504348755 3.193189859390259 5.857926368713379 103 99 93
-1.4478904008865356 1.3680753707885742 7.697509765625 44 39 44
-1.0551331043243408 3.217252731323242 5.7483296394348145 97 93 86
-1.4479650259017944 2.3182971477508545 7.7718186378479 63 54 48
-1.4479650259017944 2.3182971477508545 7.7718186378479 63 54 48
-1.3394392728805542 -3.253868341445923 7.2340874671936035 81 77 77
-1.434912919998169 2.7709202766418457 7.79459285736084 88 79 72
-1.0216854810714722 3.3098225593566895 5.591098308563232 52 48 41
-1.4172264337539673 2.358065128326416 7.759476184844971 121 111 105
-1.43840491771698 2.570880651473999 7.843603610992432 102 92 86
-1.4150612354278564 2.5105185508728027 7.775914669036865 112 102 96
-1.3836467266082764 1.6450847387313843 7.745735168457031 125 115 108
-1.1183325052261353 3.173861503601074 6.343571662902832 52 47 41
-1.3950189352035522 2.45770001411438 7.75393533706665 114 103 96
-1.0021864175796509 3.3122000694274902 5.624777793884277 113 108 101
-1.0340458154678345 3.285769462585449 5.756407737731934 72 68 62
-1.369853138923645 0.9403858780860901 7.640862941741943 58 50 43
-1.3841540813446045 1.6932408809661865 7.720496654510498 141 131 124
-1.3798049688339233 2.009699583053589 7.7030720710754395 86 76 68
-1.3902705907821655 2.784334182739258 7.800530433654785 55 46 41
-1.287061333656311 -3.241455078125 7.226983547210693 82 78 78
-1.3461962938308716 2.091878890991211 7.707017421722412 132 121 111
-0.9637770056724548 3.3832497596740723 5.376762390136719 186 177 167
-0.9637770056724548 3.3832497596740723 5.376762390136719 186 177 167
-1.2273799180984497 2.9642632007598877 7.099674701690674 139 131 122
-1.1953967809677124 3.1300504207611084 6.778067588806152 73 69 62
-1.0862104892730713 3.227754592895508 6.185263633728027 83 77 70
-1.0680269002914429 3.236636161804199 6.08207893371582 63 57 51
-1.3838586807250977 0.5525052547454834 7.894704341888428 78 67 59
-1.0798523426055908 3.2407641410827637 6.1636528968811035 149 143 137
-1.0798523426055908 3.2407641410827637 6.1636528968811035 149 143 137
-1.0798523426055908 3.2407641410827637 6.1636528968811035 149 143 137
-1.3489387035369873 1.8509941101074219 7.736011981964111 121 112 104
-1.385170340538025 1.7120509147644043 7.9679155349731445 140 129 122
-1.1759178638458252 3.085871458053589 6.883067607879639 42 37 31
-1.3433363437652588 1.5877851247787476 7.7338948249816895 148 139 131
-0.9165688753128052 3.371725559234619 5.333549499511719 129 119 109
-0.9336122274398804 3.382171392440796 5.384678840637207 145 137 127
-0.9292693734169006 3.3200786113739014 5.421229839324951 95 88 80
-0.9292693734169006 3.3200786113739014 5.421229839324951 95 88 80
-1.3419655561447144 0.5166849493980408 7.8786773681640625 99 89 80
-0.9460029006004333 3.3165340423583984 5.574615001678467 142 138 131
-0.9460029006004333 3.3165340423583984 5.574615001678467 142 138 131
-1.3589895963668823 -0.4382372796535492 8.005393981933594 255 254 254
-1.297745704650879 1.3162457942962646 7.680684566497803 70 67 75
-1.312989354133606 2.456875801086426 7.787195205688477 78 68 62
-1.312989354133606 2.456875801086426 7.787195205688477 78 68 62
-1.36342453956604 0.3695630133152008 8.086004257202148 254 253 252
-1.3314604759216309 2.984732151031494 7.869202613830566 99 90 81
-0.9687714576721191 3.2826311588287354 5.75433349609375 137 132 125
-1.2970274686813354 1.8678983449935913 7.744209289550781 134 125 117
-0.9819912910461426 3.2801921367645264 5.866039752960205 78 74 67
-1.0561003684997559 3.1946520805358887 6.384774208068848 62 57 51
-0.898502767086029 3.3329594135284424 5.437335014343262 64 56 49
-1.298656702041626 2.7826907634735107 7.869832515716553 60 50 45
-1.2742376327514648 1.7535814046859741 7.825272083282471 52 41 36
-1.2742376327514648 1.7535814046859741 7.825272083282471 52 41 36
-1.2692612409591675 1.5428073406219482 7.719454765319824 73 64 65
-1.2859580516815186 1.596922755241394 7.720065593719482 101 91 83
