ply
format ascii 1.0
element vertex 716
property float x
property float y
property float z
property uchar red
property uchar green
property uchar blue
end_header
-0.4025120437145233 1.3208109140396118 9.413798332214355 77 69 79
-2.0153746604919434 -1.4893265962600708 8.850582122802734 55 57 65
-0.7646243572235107 -1.4998505115509033 8.949509620666504 168 170 180
-1.160132884979248 -0.9761601090431213 8.99837589263916 129 131 141
-1.430779218673706 -0.9826406836509705 9.077903747558594 114 115 125
-2.644530773162842 -2.2824697494506836 8.534765243530273 144 146 155
-0.2390269637107849 1.1644539833068848 9.468740463256836 81 71 75
-0.1335557997226715 0.9429796934127808 9.219172477722168 75 69 70
-2.6001245975494385 -1.4866626262664795 8.71021842956543 72 74 82
-3.9653587341308594 1.093056321144104 8.540823936462402 46 44 48
-1.8214263916015625 0.9997266530990601 9.229327201843262 36 36 39
-1.1864993572235107 -0.5590004324913025 9.23757266998291 62 62 73
-1.2973052263259888 -4.651276111602783 8.400157928466797 84 88 92
-1.0399988889694214 1.0015186071395874 9.287782669067383 179 173 184
-1.9635980129241943 -2.032409906387329 8.75151252746582 17 21 30
-0.6287158131599426 0.4917556643486023 9.327802658081055 61 60 78
-2.7579922676086426 -4.590085029602051 8.237733840942383 92 93 99
-1.3412545919418335 -0.9754292368888855 8.96911907196045 32 34 44
-1.3765867948532104 -3.9351160526275635 8.344998359680176 84 87 103
-1.3603861331939697 -5.048813819885254 8.37504768371582 89 91 91
-1.6335761547088623 3.524575710296631 9.565533638000488 70 68 66
-0.7182968258857727 1.135512113571167 9.383662223815918 73 61 57
0.4539588391780853 -1.226129412651062 5.260826587677002 198 190 184
-1.7277672290802002 2.124128818511963 9.333483695983887 40 43 59
-1.8926228284835815 -0.33220693469047546 8.9288911819458 112 113 127
-1.3919826745986938 2.4583001136779785 9.403186798095703 97 93 96
-0.537025511264801 -4.0032453536987305 8.541202545166016 97 92 94
-1.6789586544036865 1.6403247117996216 9.266839027404785 129 126 150
-0.3873303234577179 1.0088046789169312 9.352128982543945 51 41 40
-1.9533039331436157 -1.4484862089157104 8.652828216552734 40 43 52
0.5817731618881226 1.8189603090286255 5.774272441864014 14 9 12
-1.8907971382141113 -1.0218479633331299 8.943381309509277 100 101 111
-0.5344540476799011 1.3894096612930298 9.388814926147461 28 22 29
-1.9501358270645142 0.01222989335656166 9.045698165893555 13 14 26
-2.1118853092193604 0.5375799536705017 9.066634178161621 184 183 193
0.9307181239128113 2.0423901081085205 5.594385147094727 54 48 44
-0.7113550901412964 1.0855985879898071 9.386210441589355 58 47 44
-3.144536018371582 1.5724767446517944 8.944344520568848 174 172 174
-2.5869808197021484 -1.4402174949645996 8.751974105834961 108 110 118
-2.604687452316284 -3.457334041595459 8.417981147766113 52 57 63
-1.5002374649047852 -5.04785680770874 8.324713706970215 92 94 95
-1.3070203065872192 -3.9235024452209473 8.488944053649902 29 31 42
-0.6797360181808472 1.367362141609192 9.353330612182617 37 28 29
-1.579384446144104 1.8303428888320923 9.34862232208252 143 139 160
-0.46996310353279114 -0.03822602331638336 9.23764705657959 103 100 111
-0.13477103412151337 1.4228966236114502 9.44046401977539 43 36 36
-0.11154919117689133 1.4231716394424438 9.463027954101562 107 100 100
-1.414448618888855 1.929390549659729 9.00565242767334 122 121 141
-2.6334726810455322 -0.9086373448371887 8.862669944763184 123 125 135
0.7364518642425537 2.588745355606079 4.237070560455322 128 122 117
0.38911697268486023 2.157698631286621 6.246513843536377 152 147 141
-0.5981836915016174 -3.0748589038848877 8.725136756896973 52 50 48
-0.9609081149101257 1.1378360986709595 9.775493621826172 136 127 135
-0.6381747126579285 1.1491681337356567 9.389150619506836 67 56 54
-1.835335373878479 -0.4879998564720154 8.937936782836914 22 21 34
-1.6037392616271973 1.0172053575515747 9.216522216796875 29 26 33
-1.2686668634414673 -2.606471061706543 8.79432201385498 43 44 60
-1.2034106254577637 1.0204718112945557 9.2820405960083 6 6 14
-0.6096169948577881 -4.499680995941162 8.517202377319336 29 27 28
-2.738093852996826 0.5629265904426575 8.954933166503906 30 28 37
0.5246837735176086 -0.9812576174736023 5.272670269012451 138 126 122
-1.963123083114624 -5.10637903213501 8.236360549926758 103 102 103
-1.1877878904342651 1.0294448137283325 9.564532279968262 93 90 98
0.7178231477737427 2.5683884620666504 4.429097652435303 102 94 90
-0.7694567441940308 1.1977757215499878 9.337922096252441 104 94 95
-3.2364697456359863 -0.9310243129730225 8.61913013458252 39 40 49
-1.1953125 -1.5142099857330322 8.929664611816406 151 154 160
-1.4133365154266357 1.9962551593780518 9.370567321777344 78 77 98
-1.478082537651062 2.4699110984802246 9.380297660827637 69 64 63
-1.4071012735366821 1.768490195274353 9.265822410583496 94 89 110
-1.5283684730529785 -0.9951099753379822 9.173541069030762 48 49 59
-0.8761103749275208 1.1296718120574951 9.349989891052246 144 137 145
-1.4262089729309082 1.5982921123504639 9.339234352111816 118 115 139
-0.5146433711051941 -0.3767368495464325 9.163537979125977 70 70 83
-1.2536559104919434 1.765463948249817 9.379698753356934 128 126 155
0.33421599864959717 2.0848941802978516 6.487599849700928 58 55 51
-0.007094313856214285 1.8116780519485474 8.145553588867188 134 126 119
-1.1514283418655396 0.48082825541496277 9.187817573547363 20 19 24
-3.9488046169281006 -0.443974107503891 8.685805320739746 18 17 24
-2.6102025508880615 -1.5547901391983032 8.675868034362793 49 51 60
-1.2891725301742554 -4.6065545082092285 8.427804946899414 72 75 80
1.0005083084106445 2.1710546016693115 4.829752445220947 92 86 84
-4.172627925872803 1.6607037782669067 8.97693920135498 154 152 154
-2.6979517936706543 -3.4975345134735107 8.326313972473145 93 95 101
1.0016337633132935 2.10746169090271 4.9288010597229 88 83 81
-1.2049925327301025 1.9732543230056763 9.342823028564453 100 101 113
-0.611984133720398 1.0070947408676147 9.319024085998535 163 156 156
-0.2013046145439148 1.9621903896331787 7.189110279083252 104 99 94
-1.2888175249099731 -4.994375228881836 8.251876831054688 34 33 33
-1.016111969947815 3.877224922180176 9.699724197387695 33 30 31
-1.7144497632980347 2.180797815322876 9.374752044677734 62 65 85
-1.7328622341156006 2.2038447856903076 9.337759017944336 39 42 56
-0.6177366971969604 0.3638930916786194 9.233667373657227 46 42 66
-1.0902799367904663 1.2609764337539673 9.233366012573242 15 12 21
-3.288851499557495 0.36093568801879883 8.834019660949707 166 164 177
-0.13800299167633057 0.4492599070072174 9.082311630249023 50 45 45
-1.6337511539459229 1.990568995475769 9.287766456604004 178 175 189
-0.9049273133277893 2.1876375675201416 9.31275463104248 45 38 37
-0.7363874912261963 1.0343763828277588 8.959349632263184 85 77 78
-3.6324634552001953 -2.8872015476226807 8.383869171142578 34 36 42
-2.0988824367523193 0.3387512266635895 9.015593528747559 157 155 175
-0.708964467048645 1.3118295669555664 9.431084632873535 87 75 74
-1.996315360069275 -1.759605884552002 8.699773788452148 180 184 200
-2.274653673171997 3.486513614654541 9.507124900817871 94 93 93
-0.5983083248138428 0.3395184874534607 9.224709510803223 34 30 49
-0.366441547870636 1.2554608583450317 9.428619384765625 52 43 48
-2.3853466510772705 3.481083869934082 9.457374572753906 107 107 107
-0.5104861259460449 -4.480467319488525 8.5508394241333 68 65 71
-0.4699729382991791 -0.038229990750551224 9.237818717956543 103 100 111
-3.8701956272125244 3.556504726409912 9.235320091247559 97 92 94
-0.9253969788551331 1.0697658061981201 9.25446891784668 160 154 164
-1.4260189533233643 1.6514652967453003 9.186044692993164 76 71 95
-1.640484094619751 2.9240365028381348 9.479888916015625 71 66 65
-3.108132839202881 2.0276339054107666 9.138160705566406 54 51 53
-1.7693535089492798 2.258922576904297 9.366303443908691 38 42 56
-2.0052073001861572 -2.032802104949951 8.671506881713867 124 128 137
-3.283252239227295 -0.8943772315979004 8.682491302490234 71 73 80
-0.32136422395706177 0.4754859209060669 9.227150917053223 45 40 39
-2.5857491493225098 -2.425663471221924 8.409699440002441 30 31 37
-1.4148151874542236 1.8657277822494507 9.372644424438477 93 90 111
0.7383249402046204 2.075683355331421 5.310730457305908 17 10 7
0.5987975001335144 -0.01940928027033806 5.460549831390381 38 37 44
-1.1771845817565918 1.423956036567688 9.301725387573242 117 116 127
-0.8943674564361572 2.2116963863372803 9.365310668945312 78 70 69
-2.7549149990081787 -3.5737226009368896 8.503226280212402 88 90 96
-1.8272945880889893 1.5252805948257446 9.208272933959961 103 103 113
0.7364523410797119 2.5887086391448975 4.237011909484863 128 122 117
-4.202777862548828 0.9170129299163818 8.848851203918457 133 131 139
-2.444488525390625 2.5166547298431396 9.36133861541748 86 82 81
-0.13494105637073517 2.0231406688690186 7.103782653808594 65 61 54
-1.4964262247085571 2.051449775695801 9.343184471130371 118 119 147
0.7096793055534363 -1.2671146392822266 5.2754082679748535 143 132 128
-1.3510299921035767 -4.5623064041137695 8.509617805480957 109 112 113
-1.870371699333191 1.0215508937835693 9.137027740478516 58 60 68
-3.3751158714294434 -1.4616342782974243 8.538216590881348 23 22 33
0.7682469487190247 2.187821626663208 4.7963337898254395 148 139 134
-1.7694358825683594 1.8824396133422852 9.300333976745605 10 9 16
-1.3693392276763916 1.5564675331115723 9.27567195892334 114 111 135
0.9131235480308533 2.010197877883911 5.881640434265137 125 119 114
0.8696374893188477 1.9865003824234009 5.812171936035156 189 182 178
-1.1001510620117188 1.4243817329406738 9.361222267150879 134 129 139
-1.0700808763504028 2.440840482711792 9.549418449401855 19 13 12
-3.967203378677368 3.045836925506592 9.063486099243164 95 91 92
-3.227658748626709 0.6368266344070435 8.887487411499023 23 22 27
-4.1344170570373535 1.694271445274353 8.994751930236816 22 19 21
-3.140500545501709 1.7001547813415527 9.085539817810059 18 16 21
-0.5313141942024231 -3.0441462993621826 8.71521282196045 29 24 21
0.5321943163871765 -1.0573136806488037 5.271491527557373 234 225 221
-3.186983585357666 0.6151139140129089 8.845000267028809 178 176 182
-0.5087229013442993 -0.04905003309249878 9.237833976745605 76 74 84
-3.1404929161071777 1.7001371383666992 9.085548400878906 18 16 21
-3.7478601932525635 3.513897657394409 9.254201889038086 22 16 17
1.0040518045425415 1.859763264656067 5.942081928253174 130 123 129
-3.767350196838379 3.061506748199463 9.169778823852539 42 36 38
-2.9997963905334473 3.5259995460510254 9.360404014587402 38 36 34
-2.5048866271972656 2.0429704189300537 9.235807418823242 101 100 102
-3.9671597480773926 3.045809268951416 9.063400268554688 95 91 92
-0.6265324950218201 1.6930946111679077 9.268925666809082 135 129 127
0.8836590647697449 1.7013615369796753 5.8806538581848145 64 65 80
-3.7657320499420166 3.060439109802246 9.166669845581055 42 36 38
-1.2889801263809204 -4.606141567230225 8.426980972290039 72 75 80
-1.8192405700683594 0.71443110704422 9.137418746948242 72 75 95
-4.125627517700195 1.1333099603652954 8.887192726135254 101 100 104
-1.639316439628601 2.9229655265808105 9.47553539276123 51 46 45
-3.292569875717163 -0.384461909532547 8.772562980651855 51 51 60
1.0393391847610474 1.8365315198898315 5.937724590301514 154 148 153
0.9520427584648132 2.0844130516052246 5.715106964111328 88 81 77
0.47725534439086914 -1.6345425844192505 5.156867027282715 91 85 82
-1.6956298351287842 3.461038589477539 9.549099922180176 78 75 76
0.4875490367412567 -1.6094955205917358 5.180063724517822 87 82 79
-3.1497411727905273 1.5996289253234863 9.072575569152832 15 12 17
-0.47208550572395325 0.5296593904495239 9.275875091552734 14 10 16
0.6702454686164856 -1.2158873081207275 5.284231662750244 113 102 98
-3.3273587226867676 -1.9577604532241821 8.477173805236816 32 34 39
-3.774076223373413 1.5850650072097778 8.928312301635742 26 22 25
-1.9640218019485474 -2.032714605331421 8.75273323059082 17 21 30
-1.9909274578094482 -4.0472493171691895 8.458321571350098 148 150 163
0.4952927827835083 -1.24515962600708 5.249222755432129 125 121 119
-1.7023671865463257 2.033334493637085 9.344583511352539 31 31 50
-1.1028392314910889 0.9966158270835876 9.191540718078613 83 79 87
-1.1098487377166748 1.9869236946105957 9.44479751586914 33 28 32
-1.1027730703353882 0.9965927004814148 9.191235542297363 83 79 87
-1.0761492252349854 1.0391677618026733 9.308392524719238 55 51 60
-1.1025385856628418 1.0574027299880981 9.30911636352539 159 157 164
-1.5793057680130005 1.8303142786026 9.348511695861816 143 139 160
-1.7188116312026978 1.9704605340957642 9.323240280151367 35 33 40
-0.4981255829334259 0.4818054735660553 9.25820255279541 127 125 137
0.49183449149131775 -1.4249705076217651 5.2163987159729 126 119 112
-0.7724559307098389 1.0911753177642822 9.380443572998047 121 113 113
-2.453585147857666 1.5098227262496948 9.142386436462402 22 21 30
-0.6234472393989563 1.3531501293182373 9.368340492248535 171 161 163
-2.4776198863983154 1.1024125814437866 9.102522850036621 20 18 28
-3.4054672718048096 -2.441509485244751 8.473785400390625 48 51 56
-3.4344992637634277 -2.376199722290039 8.474628448486328 113 117 125
-0.9611764550209045 2.903458595275879 9.555343627929688 17 13 13
-1.9772875308990479 -2.45967698097229 8.604228019714355 30 33 41
-3.8056797981262207 1.110018014907837 8.832077980041504 23 21 26
-0.4981234669685364 0.48179322481155396 9.258232116699219 127 125 137
-1.4832675457000732 1.5045876502990723 9.292290687561035 146 142 162
-1.63225257396698 1.9886670112609863 9.277786254882812 178 175 189
-1.8665211200714111 -1.0262360572814941 8.835981369018555 17 18 28
-3.896911382675171 -0.436991810798645 8.583823204040527 16 16 22
-2.3957912921905518 3.9599945545196533 9.526777267456055 38 34 33
-2.396261215209961 3.960629463195801 9.528340339660645 38 34 33
-0.4971868395805359 1.450040340423584 9.377203941345215 125 119 121
-2.586885929107666 -1.440169334411621 8.75167465209961 108 110 118
-2.533153533935547 -0.9140579700469971 8.775479316711426 45 46 56
-2.5870580673217773 -1.4402471780776978 8.75216007232666 108 110 118
0.9633949995040894 2.0886383056640625 5.227699279785156 119 109 104
-1.6649513244628906 2.464588165283203 9.338272094726562 17 13 14
0.96340012550354 2.088665246963501 5.227769374847412 119 109 104
-4.021017074584961 3.601072311401367 9.19951057434082 138 133 132
-3.998105049133301 3.578261375427246 9.284467697143555 38 32 32
-2.5937836170196533 -1.547061562538147 8.636510848999023 49 51 60
-1.9085851907730103 -3.011596918106079 8.491131782531738 36 39 47
-2.5471718311309814 -0.42747655510902405 8.921427726745605 126 126 133
-1.5002778768539429 -5.048097133636475 8.325010299682617 92 94 95
-0.3664396405220032 1.2554476261138916 9.42867374420166 52 43 48
-1.335736632347107 -5.036086082458496 8.408781051635742 92 91 91
-0.39723047614097595 1.4671214818954468 9.447370529174805 68 61 62
-0.6234158873558044 1.3531209230422974 9.368173599243164 171 161 163
-2.107243537902832 0.5475646257400513 9.177294731140137 162 161 170
0.5247107744216919 -0.98128741979599 5.272823810577393 138 126 122
-2.533176898956299 -0.9140671491622925 8.775537490844727 45 46 56
-1.98630952835083 0.5360007882118225 8.817946434020996 115 115 126
-1.528469443321228 -0.9951738119125366 9.174145698547363 44 45 55
-2.098938226699829 0.5456733107566833 9.140681266784668 162 161 170
-0.5322351455688477 1.2770408391952515 9.425375938415527 119 109 111
-2.1144492626190186 0.5401856899261475 9.072787284851074 184 183 193
-0.6234479546546936 1.353151798248291 9.3683500289917 171 161 163
-1.40022611618042 1.760441780090332 9.219429016113281 94 89 110
-1.40022611618042 1.760441780090332 9.219429016113281 94 89 110
-2.7579901218414307 -4.590085029602051 8.237730026245117 92 93 99
-1.0801587104797363 1.4719828367233276 9.39719295501709 79 75 85
-1.6393178701400757 2.922974109649658 9.475531578063965 51 46 45
-1.1662466526031494 1.4263216257095337 9.331535339355469 104 102 114
-0.6096315383911133 -4.499702453613281 8.517241477966309 29 27 28
-0.5981150269508362 -3.0747036933898926 8.724743843078613 52 50 48
-2.1117584705352783 0.5375645160675049 9.066296577453613 184 183 193
-1.9014450311660767 0.05349068343639374 8.999678611755371 50 52 65
-0.5196788907051086 -0.4982149600982666 9.147356033325195 60 61 72
-1.0701135396957397 2.4409148693084717 9.549708366394043 19 13 12
-1.990114688873291 -4.047054290771484 8.455768585205078 148 150 163
-0.5196835398674011 -0.49823370575904846 9.147488594055176 83 84 95
-3.409796714782715 -2.9541163444519043 8.416903495788574 93 97 101
-3.9088988304138184 0.6051927804946899 8.768467903137207 13 11 17
-0.4474703073501587 0.5255889892578125 9.292815208435059 116 110 114
-1.1552413702011108 1.5163754224777222 9.513668060302734 110 109 131
-1.7607940435409546 0.5994322299957275 9.017260551452637 60 62 82
-1.099012851715088 1.3965868949890137 9.351572036743164 133 129 139
-3.886286973953247 0.584933340549469 8.517142295837402 106 104 110
-1.4325299263000488 1.8233962059020996 9.29830551147461 137 133 154
1.0430463552474976 2.1936707496643066 4.8171772956848145 138 133 131
-1.1514354944229126 0.4808293879032135 9.187844276428223 20 19 24
1.0005054473876953 2.1710293292999268 4.829669952392578 92 86 84
-4.1119585037231445 1.738901138305664 8.959879875183105 81 79 81
-1.5793482065200806 1.8303139209747314 9.348472595214844 143 139 160
-3.055866003036499 3.5343666076660156 9.359277725219727 117 114 114
-4.100332260131836 1.7776154279708862 8.957919120788574 131 129 132
-4.146919250488281 1.6555227041244507 8.931510925292969 128 125 127
-1.6404286623001099 2.923936367034912 9.479578018188477 71 66 65
0.9638780355453491 1.8570090532302856 5.9220147132873535 38 33 39
-0.7133617997169495 1.1325141191482544 9.35681438446045 73 61 57
-3.9087908267974854 0.6051760315895081 8.768279075622559 13 11 17
-2.003375768661499 -2.409294366836548 8.604121208190918 124 127 134
-1.489045262336731 2.018683433532715 9.435015678405762 112 112 133
-1.2122634649276733 -2.5233161449432373 8.70529842376709 177 180 195
-0.6381927728652954 1.1491769552230835 9.389155387878418 67 56 54
-0.026527108624577522 1.7548363208770752 8.146323204040527 165 160 154
-1.298570156097412 -2.519890546798706 8.710826873779297 129 133 151
-1.104085087776184 -2.545804262161255 8.764233589172363 129 130 150
0.9132932424545288 1.996690273284912 5.778234958648682 194 188 182
-1.0791391134262085 1.1121535301208496 9.334080696105957 60 56 66
-0.8647380471229553 1.0819543600082397 9.302618980407715 109 100 107
-0.8647444844245911 1.0819576978683472 9.302651405334473 109 100 107
0.8650625348091125 2.004340648651123 5.778147220611572 138 130 126
-2.5856497287750244 -2.4255924224853516 8.409462928771973 25 26 32
-0.7723408937454224 1.0910751819610596 9.380568504333496 121 113 113
-1.2641812562942505 -2.598757743835449 8.764599800109863 43 44 60
0.5934207439422607 -1.3356059789657593 5.252097129821777 170 166 160
-1.2865768671035767 -2.9927611351013184 8.738571166992188 70 71 84
-1.8718206882476807 1.0236117839813232 9.14289665222168 58 60 68
-1.9846793413162231 1.009136438369751 9.143436431884766 27 28 49
-1.9852646589279175 1.0093241930007935 9.14516830444336 27 28 49
-1.321663498878479 1.5487910509109497 9.24609661102295 25 24 44
-2.24542498588562 -2.9254887104034424 8.481400489807129 168 170 178
-1.6393139362335205 2.922966718673706 9.475508689880371 51 46 45
-1.047947883605957 1.0078991651535034 9.358319282531738 155 150 161
-1.8808289766311646 0.9891538023948669 9.191583633422852 163 166 178
-0.5234929323196411 -2.096057176589966 8.929464340209961 13 11 17
-2.245457887649536 -2.9255306720733643 8.481514930725098 168 170 178
-3.5316967964172363 1.5770195722579956 9.043309211730957 52 48 53
-0.1335582733154297 0.9429908394813538 9.219269752502441 75 69 70
0.4539567828178406 -1.22615385055542 5.2608819007873535 198 190 184
-3.386371612548828 -1.9574015140533447 8.48205280303955 65 67 72
-1.1999375820159912 -2.869088888168335 8.40510368347168 129 130 143
-1.986417531967163 -2.0487027168273926 8.848040580749512 40 44 53
-1.6147714853286743 -1.9092044830322266 8.665994644165039 40 43 53
-1.2371387481689453 -2.0025925636291504 8.811187744140625 113 117 126
-1.6786863803863525 1.6401716470718384 9.265877723693848 129 126 150
-3.3312649726867676 -1.9333410263061523 8.556147575378418 84 84 91
0.5524036884307861 -1.6850425004959106 5.167546272277832 142 131 129
0.5056921243667603 -1.671341896057129 5.150994777679443 84 72 70
0.4747641682624817 -1.6668615341186523 5.142029285430908 153 141 138
-1.6147547960281372 -1.909180760383606 8.665905952453613 40 43 53
-1.8353838920593262 -0.48802441358566284 8.938117027282715 22 21 34
-3.972644090652466 -1.897312045097351 8.474220275878906 115 118 121
-2.27467679977417 3.4865550994873047 9.507246017456055 94 93 93
-1.1491315364837646 1.4264124631881714 9.33533000946045 25 24 33
-1.9448165893554688 0.01077196467667818 9.044922828674316 40 41 52
-3.9256157875061035 -0.4002779424190521 8.686690330505371 43 43 50
-0.4481271803379059 1.456101417541504 9.34909725189209 127 122 122
-4.131158351898193 2.072716236114502 8.987407684326172 127 125 126
-3.699709415435791 -1.4396862983703613 8.531147956848145 86 90 96
-3.7249155044555664 -0.8154942393302917 8.206061363220215 95 97 105
-3.9583375453948975 -0.855880856513977 8.608083724975586 74 76 83
-2.6334340572357178 -0.9086256623268127 8.86257553100586 123 125 135
-2.013558864593506 -1.488390564918518 8.842852592468262 70 72 80
-0.4699634313583374 -0.03822895884513855 9.237651824951172 103 100 111
-1.865593433380127 -0.9463230967521667 8.856560707092285 28 30 39
0.10159503668546677 2.282745838165283 5.679130554199219 138 133 131
-0.9269970059394836 2.4258241653442383 9.513891220092773 29 23 22
-2.4847443103790283 -1.423924446105957 8.679828643798828 125 128 136
-1.4310228824615479 -0.9827451109886169 9.078811645507812 114 115 125
-3.2364513874053955 -0.9310187101364136 8.619086265563965 39 40 49
-1.341444730758667 -0.9751916527748108 8.969947814941406 32 34 44
-1.5283938646316528 -0.9951257109642029 9.173672676086426 48 49 59
-0.5087246298789978 -0.049050621688365936 9.237868309020996 76 74 84
-0.40251368284225464 1.3208357095718384 9.413846969604492 77 69 79
-1.964185118675232 -1.0291043519973755 8.86508846282959 82 83 92
-3.418206214904785 -3.4350194931030273 8.279269218444824 84 85 91
-4.137689113616943 0.7401796579360962 8.770413398742676 10 7 13
0.994455873966217 2.1272339820861816 5.509055137634277 171 163 156
-0.4497033655643463 0.8461462259292603 9.316232681274414 42 35 38
-1.2471182346343994 -4.9548187255859375 8.398489952087402 51 47 50
-1.2594033479690552 -1.5556440353393555 8.877717971801758 45 47 58
-3.8702588081359863 3.5565433502197266 9.235441207885742 97 92 94
-2.405708074569702 -1.8669538497924805 8.637699127197266 25 27 36
-2.010770559310913 -2.030705690383911 8.671521186828613 120 124 132
-1.1841211318969727 1.0285649299621582 9.547840118408203 93 90 98
0.6012381315231323 1.858293890953064 5.764932155609131 74 69 68
-0.3898797333240509 1.012938141822815 9.379549980163574 51 41 40
-1.608136534690857 1.0182292461395264 9.24383544921875 29 26 33
-1.2590421438217163 -2.5973775386810303 8.642853736877441 120 121 138
-0.7117311358451843 1.0686897039413452 9.33533763885498 175 165 161
-2.6444342136383057 -2.28235125541687 8.534435272216797 144 146 155
-1.4780668020248413 2.469898223876953 9.380247116088867 69 64 63
-2.755983829498291 -3.5777945518493652 8.507808685302734 86 88 95
-0.5605196356773376 0.3370925188064575 9.257981300354004 68 64 82
-0.6514087319374084 -3.058156728744507 8.696768760681152 39 37 40
-0.36644652485847473 1.2554640769958496 9.428643226623535 52 43 48
0.5745507478713989 1.6342023611068726 5.710510730743408 6 4 13
-3.583984851837158 -0.9139273762702942 8.565104484558105 113 113 124
-1.9192047119140625 -3.0269815921783447 8.537476539611816 36 39 47
-1.3604007959365845 -5.048834800720215 8.375082015991211 89 91 91
-0.50918048620224 -1.074802279472351 9.098254203796387 50 50 55
-0.5370720028877258 -4.00341796875 8.541546821594238 97 92 94
-3.870232343673706 3.5565271377563477 9.23538589477539 97 92 94
-1.1469861268997192 -0.9739713668823242 8.973294258117676 128 131 140
-0.5322344899177551 1.2771003246307373 9.425844192504883 119 109 111
-1.7144792079925537 2.180800199508667 9.374939918518066 62 65 85
-0.925940990447998 1.0731042623519897 9.287145614624023 162 156 166
-2.535200834274292 0.5476741194725037 9.01249885559082 24 23 30
-2.4444143772125244 2.516602039337158 9.361138343811035 86 82 81
-0.49812209606170654 0.48180776834487915 9.258171081542969 127 125 137
-0.47619813680648804 0.5320778489112854 9.3080472946167 13 8 15
-3.205821990966797 1.066451072692871 8.955535888671875 61 60 64
-2.0664174556732178 -1.5276944637298584 9.169891357421875 125 128 138
-3.799962282180786 2.5589802265167236 9.124748229980469 20 14 14
-3.8408725261688232 2.0906567573547363 9.044732093811035 22 18 22
-0.6264535784721375 1.6927809715270996 9.268084526062012 135 129 127
-4.039342880249023 2.08512282371521 8.956579208374023 26 23 25
-3.774418830871582 1.5852307081222534 8.929121017456055 26 22 25
-2.534853219985962 0.547605037689209 9.011602401733398 24 23 30
-3.79996919631958 2.5589845180511475 9.12479305267334 20 14 14
-1.6667453050613403 2.4662468433380127 9.344476699829102 17 13 14
-3.1081387996673584 2.027637004852295 9.138179779052734 54 51 53
-2.466980457305908 2.0088319778442383 9.082555770874023 128 126 130
-2.474226236343384 1.0990962982177734 9.070984840393066 55 53 64
-1.6907272338867188 2.052258253097534 9.365461349487305 146 145 171
-2.431199312210083 3.962789535522461 9.500667572021484 106 104 102
-4.125574111938477 1.1333105564117432 8.887106895446777 101 100 104
-3.4540677070617676 -4.468718528747559 8.124483108520508 84 85 88
-3.815505027770996 2.5209505558013916 9.131767272949219 93 88 87
-1.6196467876434326 1.9107252359390259 8.977486610412598 18 15 22
-1.7189056873321533 1.9705168008804321 9.323528289794922 35 33 40
0.5322371125221252 -1.060768485069275 5.280478000640869 226 217 213
-1.1098450422286987 1.9869182109832764 9.444784164428711 33 28 32
-3.867356538772583 1.1505205631256104 8.874208450317383 160 159 164
-3.838202476501465 1.1551246643066406 8.87419605255127 30 27 33
-1.9901305437088013 -4.047069549560547 8.455810546875 148 150 163
-1.8336924314498901 0.6287959814071655 9.138553619384766 33 37 56
-3.7488088607788086 4.049860954284668 9.303518295288086 18 15 14
-1.964147925376892 -2.032802104949951 8.753131866455078 17 21 30
-1.9260249137878418 -3.3750758171081543 8.496535301208496 119 120 133
-1.9482818841934204 -1.469764232635498 8.81975269317627 122 125 135
-0.5086497068405151 -0.049047935754060745 9.237387657165527 76 74 84
-0.6234387755393982 1.353126883506775 9.368233680725098 171 161 163
-1.8731465339660645 0.03690185770392418 9.073843002319336 62 64 78
-3.291618585586548 -0.38438940048217773 8.77051067352295 44 46 54
-3.3182713985443115 -0.3856630027294159 8.71313190460205 85 86 96
-4.102236747741699 1.6816818714141846 8.92841911315918 36 33 35
-4.124439239501953 1.641626000404358 8.867688179016113 157 155 156
-1.107143759727478 1.0579266548156738 9.330920219421387 159 157 164
-3.967193365097046 3.0458314418792725 9.063467025756836 95 91 92
-3.926931858062744 -0.4006213843822479 8.6890230178833 43 43 50
-0.626558244228363 1.6931852102279663 9.269166946411133 135 129 127
1.0461894273757935 1.8135067224502563 5.938735485076904 130 126 130
-1.908629298210144 -3.011655807495117 8.491289138793945 36 39 47
-0.5313124060630798 -3.0441436767578125 8.715195655822754 29 24 21
-3.757174491882324 3.102553129196167 9.138118743896484 62 57 59
0.8884713053703308 1.7863601446151733 5.909632205963135 37 39 53
-2.577110767364502 0.09615683555603027 8.82924747467041 162 163 171
0.8691369295120239 1.9928253889083862 5.829831600189209 188 182 178
0.834536612033844 1.986079216003418 5.772888660430908 109 102 98
-1.0680954456329346 1.037074089050293 9.27092170715332 55 51 60
0.47473257780075073 -1.6667389869689941 5.141693592071533 153 141 138
0.4450416564941406 -1.6412203311920166 5.169213771820068 163 155 152
0.477312833070755 -1.6272168159484863 5.136446475982666 81 75 72
-1.2984530925750732 -2.519674062728882 8.71005916595459 129 133 151
-1.8232368230819702 0.6205517053604126 9.18097972869873 177 181 201
-1.298444390296936 -2.519665479660034 8.710030555725098 129 133 151
-3.405500650405884 -2.441518783569336 8.473860740661621 48 51 56
-3.4054956436157227 -2.4415197372436523 8.473849296569824 48 51 56
-1.9772948026657104 -2.45969820022583 8.604255676269531 30 33 41
-4.023634433746338 2.5949645042419434 9.063267707824707 53 47 48
-3.7479987144470215 3.513995409011841 9.254472732543945 22 16 17
-1.1186953783035278 1.4242504835128784 9.344320297241211 101 97 107
-1.1028424501419067 0.9966175556182861 9.191558837890625 83 79 87
0.8129152059555054 -1.4480797052383423 5.256742000579834 167 156 152
-1.901160478591919 0.9953523278236389 9.26384449005127 144 146 159
-1.8214390277862549 0.9997248649597168 9.229348182678223 36 36 39
-3.13871431350708 1.603785753250122 9.045473098754883 7 4 9
-1.0980751514434814 1.4243234395980835 9.34863567352295 134 129 139
0.49529194831848145 -1.2451616525650024 5.249231338500977 125 121 119
-3.9982852935791016 3.5784008502960205 9.284793853759766 38 32 32
-3.386554718017578 -1.9575088024139404 8.482468605041504 65 67 72
-0.49719032645225525 1.450054407119751 9.377306938171387 125 119 121
-0.49808427691459656 0.4817897379398346 9.257956504821777 127 125 137
-1.7502199411392212 1.5171058177947998 9.243093490600586 97 97 107
-0.9154084920883179 1.076817512512207 9.29997730255127 123 116 126
-0.6818988919258118 1.069046974182129 9.263116836547852 79 67 64
-2.638235569000244 1.579126238822937 9.632410049438477 14 13 22
-1.500231146812439 -5.047852039337158 8.324705123901367 92 94 95
-1.5002679824829102 -5.048104763031006 8.325007438659668 92 94 95
-1.3356914520263672 -5.0359787940979 8.408642768859863 92 91 91
-1.7693229913711548 2.2589075565338135 9.366209983825684 38 42 56
-0.6900321245193481 1.1154512166976929 9.366819381713867 145 134 130
1.0037204027175903 2.094160318374634 5.346360683441162 162 154 148
-1.866066575050354 1.5108906030654907 9.203978538513184 48 46 54
-0.6407982707023621 1.0720914602279663 9.26403522491455 35 23 21
-0.007090167608112097 1.8116596937179565 8.145536422729492 134 126 119
-3.107154130935669 2.0268235206604004 9.135424613952637 54 51 53
-2.5868284702301025 -1.4401401281356812 8.751484870910645 108 110 118
-1.8175815343856812 0.7117236852645874 9.131057739257812 72 75 95
-3.4527876377105713 -4.467520236968994 8.1221923828125 84 85 88
0.5066214799880981 -1.6687732934951782 5.142093658447266 84 72 70
-1.3516985177993774 -4.565446376800537 8.515183448791504 109 112 113
-0.555787980556488 -4.529599189758301 8.586606979370117 109 104 109
-3.9270143508911133 -0.4006426930427551 8.689142227172852 43 43 50
-2.7171294689178467 -3.961336374282837 8.317041397094727 91 93 100
-3.958275318145752 -0.8558641672134399 8.607946395874023 74 76 83
-1.39205801486969 2.4583847522735596 9.403521537780762 97 93 96
-0.36644628643989563 1.2554627656936646 9.428672790527344 52 43 48
-3.785548448562622 3.995302438735962 9.182106971740723 112 110 111
-2.5351147651672363 0.5476540327072144 9.012282371520996 24 23 30
-1.9772891998291016 -2.4596729278564453 8.604228973388672 30 33 41
-2.6684982776641846 -1.8983148336410522 8.642248153686523 46 49 54
-2.254793405532837 0.558117687702179 9.481412887573242 141 140 151
-3.3383145332336426 -1.9333102703094482 8.566414833068848 88 88 95
-1.3603758811950684 -5.048781394958496 8.374994277954102 89 91 91
-3.2953267097473145 -1.3597644567489624 8.498590469360352 95 97 101
-3.531604051589966 1.5769871473312378 9.043126106262207 52 48 53
-2.4847757816314697 -1.4239383935928345 8.679906845092773 125 128 136
-3.2959511280059814 -1.3600006103515625 8.499833106994629 95 97 101
-1.9864026308059692 -2.0486738681793213 8.84798812866211 40 44 53
-2.6335089206695557 -0.9086555242538452 8.862775802612305 123 125 135
-1.2157399654388428 -0.9299371838569641 9.047412872314453 32 34 43
0.45396101474761963 -1.2261182069778442 5.260802268981934 198 190 184
-0.23706045746803284 0.9157357215881348 9.374038696289062 113 105 106
-1.9636017084121704 -2.032411575317383 8.751527786254883 17 21 30
0.7673963904380798 2.083801031112671 5.345098972320557 47 39 35
-0.5235223770141602 -2.096095561981201 8.929633140563965 13 11 17
0.9709868431091309 2.069084644317627 5.373583793640137 179 171 164
-1.3266797065734863 -2.532536268234253 8.725433349609375 106 110 130
-3.4219415187835693 -2.3643643856048584 8.462274551391602 101 105 114
-1.9792553186416626 -1.0394765138626099 8.913078308105469 84 86 95
-1.9851295948028564 1.0092698335647583 9.144700050354004 27 28 49
-0.5728444457054138 -2.5345585346221924 8.894964218139648 33 33 35
-0.7721952199935913 1.0909761190414429 9.379928588867188 121 113 113
-1.341436743736267 -0.9751567244529724 8.96992015838623 32 34 44
-1.884864330291748 1.0294561386108398 9.183196067810059 67 69 77
-1.150161862373352 1.4255174398422241 9.341280937194824 28 26 36
-1.3266844749450684 -2.532543420791626 8.72541332244873 106 110 130
-0.772282063961029 1.091032862663269 9.380326271057129 121 113 113
-1.2128936052322388 -2.423539161682129 8.387319564819336 149 151 168
-2.4584872722625732 1.0168265104293823 8.94367504119873 49 48 59
-0.926937997341156 2.425752878189087 9.513567924499512 29 23 22
-1.286566972732544 -2.992734670639038 8.73850154876709 70 71 84
-2.2454466819763184 -2.925509214401245 8.48148250579834 168 170 178
-1.2865163087844849 -2.9925994873046875 8.738152503967285 70 71 84
-2.2454545497894287 -2.925525188446045 8.481505393981934 168 170 178
-0.5981817841529846 -3.074852705001831 8.725110054016113 52 50 48
-1.9085915088653564 -3.0116121768951416 8.491164207458496 36 39 47
-0.559312641620636 -0.4962688386440277 9.130227088928223 108 109 123
-0.6234725713729858 1.3531631231307983 9.368429183959961 171 161 163
-1.9268953800201416 0.04789439216256142 9.088737487792969 71 72 85
-0.5613382458686829 -3.481199026107788 8.66678524017334 67 64 63
-1.2865768671035767 -2.9927611351013184 8.738571166992188 70 71 84
-3.888209104537964 -0.3644906282424927 8.690263748168945 65 64 72
-1.2641507387161255 -2.5987162590026855 8.76447868347168 43 44 60
-3.457658290863037 -3.9907801151275635 8.280594825744629 64 66 71
-2.0165319442749023 -2.419949769973755 8.638054847717285 117 120 127
-3.950047254562378 1.6795471906661987 8.680109024047852 123 121 124
-0.6252607107162476 1.3119972944259644 9.345541954040527 66 54 55
-0.40251395106315613 1.320824146270752 9.413859367370605 77 69 79
0.5746891498565674 1.822463035583496 5.769893646240234 13 9 10
-0.5304239392280579 -0.04782818257808685 9.621134757995605 105 102 113
0.6012483835220337 1.8583455085754395 5.765083312988281 74 69 68
-1.5793302059173584 1.8303407430648804 9.348654747009277 143 139 160
0.5878235697746277 1.8350385427474976 5.770422458648682 116 110 111
-0.5322317481040955 1.2770406007766724 9.42537784576416 119 109 111
-1.335697889328003 -5.0359954833984375 8.408665657043457 92 91 91
0.9753704071044922 2.0671117305755615 5.439308166503906 170 162 156
-0.5465370416641235 0.49503231048583984 9.26852035522461 130 128 147
-2.111950397491455 0.5375733971595764 9.06692123413086 184 183 193
-0.36644643545150757 1.2554576396942139 9.428837776184082 52 43 48
-1.431033730506897 -0.9827486872673035 9.078842163085938 114 115 125
-3.238030195236206 1.0370688438415527 8.898982048034668 134 134 139
-1.0977553129196167 1.1741842031478882 9.278580665588379 27 23 32
0.9223092198371887 2.3593106269836426 3.8407795429229736 93 87 85
-1.8186007738113403 1.9569363594055176 9.265910148620605 78 77 80
-1.3110065460205078 -3.947866201400757 8.420402526855469 102 105 115
-1.769283652305603 2.258847713470459 9.36601448059082 38 42 56
-1.6081279516220093 1.0182183980941772 9.243809700012207 29 26 33
-1.3202922344207764 -2.4855337142944336 8.726829528808594 24 29 53
-0.5605149269104004 0.3371047377586365 9.258034706115723 68 64 82
-3.391615152359009 -0.9488175511360168 8.700095176696777 82 83 93
-0.13476763665676117 1.4228895902633667 9.440482139587402 43 36 36
-3.3698811531066895 -1.276323914527893 8.549118041992188 108 110 120
0.5327705144882202 -1.0686800479888916 5.286637783050537 224 216 212
0.9862410426139832 2.136566162109375 5.350660800933838 105 95 90
-1.4832688570022583 1.5045788288116455 9.292308807373047 146 142 162
-1.5002715587615967 -5.0481038093566895 8.325008392333984 92 94 95
-3.959754467010498 0.5815362334251404 8.746538162231445 98 96 102
0.5032558441162109 -1.6676770448684692 5.130947589874268 93 81 79
-0.026507405564188957 1.75493586063385 8.147406578063965 165 160 154
-2.6663036346435547 -2.9690120220184326 8.500212669372559 92 96 100
-1.3044852018356323 -4.733546257019043 8.451979637145996 127 128 132
-3.454077959060669 -4.468729019165039 8.124503135681152 84 85 88
-1.8308240175247192 1.9549808502197266 9.330907821655273 69 68 72
-0.6447721123695374 -4.56889533996582 8.508912086486816 60 59 59
-0.6462345719337463 1.0744191408157349 9.316558837890625 41 29 27
-1.7078145742416382 2.0175952911376953 9.280387878417969 27 27 44
-1.6779612302780151 2.030813217163086 9.318649291992188 47 48 71
-3.4753706455230713 -4.003147602081299 8.242064476013184 19 21 26
-2.5194525718688965 2.035064697265625 9.221126556396484 70 68 71
-0.3972400426864624 1.4671134948730469 9.447601318359375 68 61 62
-0.4971863627433777 1.4500395059585571 9.377201080322266 125 119 121
-1.0835431814193726 1.3881155252456665 9.285956382751465 103 99 109
-0.6381937265396118 1.1491832733154297 9.389267921447754 67 56 54
-3.3921077251434326 -3.467329978942871 8.316417694091797 33 35 40
-1.7172220945358276 4.423274040222168 9.68221378326416 99 97 95
1.0430397987365723 2.1936593055725098 4.8171563148498535 138 133 131
-0.5613319873809814 -3.4812827110290527 8.666828155517578 67 64 63
0.7875138521194458 2.178720474243164 4.830197811126709 85 77 71
-1.9050250053405762 -3.388477325439453 8.483987808227539 62 63 78
-2.563941240310669 -3.0840461254119873 8.464985847473145 168 170 182
-1.9085899591445923 -3.0116124153137207 8.49116325378418 36 39 47
-0.5981763005256653 -3.0748229026794434 8.72507095336914 52 50 48
-0.651402473449707 -3.058143138885498 8.696731567382812 39 37 40
-3.8408634662628174 2.0906498432159424 9.044716835021973 22 18 22
-1.2865830659866333 -2.99277925491333 8.738621711730957 70 71 84
-3.8831698894500732 2.1578288078308105 9.121420860290527 28 25 27
0.4710855484008789 -1.6410911083221436 5.161424160003662 105 98 95
-2.5868747234344482 -2.4884843826293945 8.428199768066406 99 101 107
-1.2442845106124878 -2.5157666206359863 8.658560752868652 120 122 137
0.9359822869300842 2.3742239475250244 3.93437123298645 151 144 139
-3.4439775943756104 -2.441810131072998 8.465167999267578 140 143 150
-1.3266581296920776 -2.5325512886047363 8.72553825378418 106 110 130
-2.0871684551239014 -2.5505568981170654 8.919424057006836 51 55 62
-1.9773024320602417 -2.4597153663635254 8.604283332824707 30 33 41
-1.9853414297103882 -2.4228761196136475 8.634129524230957 14 16 24
0.49183374643325806 -1.4249677658081055 5.216394424438477 126 119 112
-2.381166696548462 3.8823137283325195 9.309847831726074 103 100 98
-0.6275649070739746 1.3574192523956299 9.390752792358398 165 155 157
-1.7189217805862427 1.9705249071121216 9.323617935180664 35 33 40
-1.6322579383850098 1.9886319637298584 9.27764892578125 178 175 189
-3.3274312019348145 -1.9577974081039429 8.477303504943848 32 34 39
-0.7722285985946655 1.0909996032714844 9.3800687789917 121 113 113
-0.7723828554153442 1.0911011695861816 9.380844116210938 121 113 113
-0.6265575289726257 1.693184494972229 9.269163131713867 135 129 127
-1.6620018482208252 3.8114190101623535 9.509957313537598 54 52 51
-2.671192169189453 -1.9012864828109741 8.663723945617676 42 46 51
-0.40251415967941284 1.3208354711532593 9.413851737976074 77 69 79
-1.1027960777282715 0.9965997338294983 9.19133472442627 83 79 87
-0.6788958311080933 1.0664007663726807 9.247661590576172 79 67 64
-3.9972708225250244 3.5775628089904785 9.282486915588379 38 32 32
-1.9148393869400024 0.997650146484375 9.308650016784668 119 121 134
-1.8214541673660278 0.9997278451919556 9.229398727416992 36 36 39
0.5000633597373962 -1.0662286281585693 5.295416355133057 70 62 58
0.6774701476097107 2.0540788173675537 5.356647968292236 46 40 37
-3.8091468811035156 2.5159220695495605 9.120588302612305 93 88 87
-3.747891426086426 3.5139286518096924 9.254254341125488 22 16 17
-1.0744822025299072 2.4019227027893066 9.546642303466797 101 96 93
-3.2056989669799805 1.066418170928955 8.955248832702637 61 60 64
-0.8647629022598267 1.0819746255874634 9.302790641784668 109 100 107
0.6586729288101196 2.033729076385498 5.506984710693359 76 69 68
-2.5869195461273193 -1.4401918649673462 8.75180721282959 108 110 118
-3.5196633338928223 -1.4516243934631348 8.8887939453125 95 97 102
-1.9483332633972168 -1.4697885513305664 8.819940567016602 122 125 135
-3.2953379154205322 -1.3597639799118042 8.498583793640137 95 97 101
0.9533405303955078 2.0409128665924072 5.594525337219238 148 142 137
-3.1682827472686768 0.6626090407371521 8.842961311340332 151 149 154
-0.36644279956817627 1.2554517984390259 9.428717613220215 52 43 48
-3.908858299255371 0.6051836609840393 8.768406867980957 13 11 17
-3.2090375423431396 0.6186789870262146 8.923979759216309 165 164 169
-1.7849040031433105 0.618358850479126 9.095100402832031 181 184 205
-0.36641472578048706 1.2554200887680054 9.428376197814941 52 43 48
-3.799914598464966 2.558950424194336 9.124664306640625 20 14 14
-1.9599860906600952 -1.032096266746521 8.832029342651367 81 83 92
-1.8266489505767822 0.5563965439796448 9.066829681396484 149 152 171
-1.926985263824463 -1.018453598022461 8.880228042602539 53 54 62
-1.43965744972229 -0.9591842293739319 8.85416030883789 24 24 34
-0.4851488173007965 0.5440695881843567 9.384218215942383 22 17 25
0.8836582899093628 1.701369047164917 5.880728244781494 64 65 80
-0.19212841987609863 0.4775523245334625 9.290909767150879 83 77 78
-3.8483316898345947 1.158904790878296 8.89730453491211 21 19 24
-1.1217385530471802 -0.4899187982082367 8.99069881439209 80 82 91
-0.5196905732154846 -0.49822258949279785 9.14742374420166 60 61 72
0.3095523715019226 2.112855911254883 6.470463275909424 129 127 123
-0.5728630423545837 -0.4891073703765869 9.149816513061523 106 108 122
-0.7351924777030945 1.1277036666870117 9.323359489440918 116 105 102
-1.735947847366333 2.4853947162628174 9.355945587158203 87 84 86
-3.3182480335235596 -0.3856561779975891 8.71308422088623 85 86 96
-2.4564638137817383 1.1052613258361816 9.034058570861816 76 74 85
0.9781920313835144 1.7774420976638794 5.800420761108398 109 109 119
1.021693229675293 1.7794487476348877 5.8347015380859375 147 143 152
-2.5507302284240723 0.1281394064426422 8.852514266967773 56 55 64
-1.0503404140472412 2.922696828842163 9.614250183105469 24 20 20
-2.5818727016448975 0.09815292060375214 8.84003734588623 162 163 171
-2.562570095062256 0.0846642404794693 8.983375549316406 170 169 178
-0.5303986668586731 -0.04782898724079132 9.62096881866455 105 102 113
-1.9168258905410767 0.036931704729795456 9.025938034057617 69 70 83
0.9702246189117432 1.834565281867981 5.912689208984375 122 121 130
0.9280734062194824 2.0456912517547607 5.605652809143066 83 77 73
-1.6393153667449951 2.9229676723480225 9.475521087646484 51 46 45
-1.1995488405227661 1.4294415712356567 9.413610458374023 91 91 102
-0.44866999983787537 0.4993990361690521 9.396020889282227 110 106 108
-0.13841234147548676 0.451616495847702 9.080041885375977 37 32 31
-3.416626214981079 -2.9820103645324707 8.315064430236816 88 93 100
-1.9181233644485474 -2.3803062438964844 8.538787841796875 68 72 83
-2.534982681274414 0.5476275682449341 9.011951446533203 24 23 30
-2.0329325199127197 -2.4324610233306885 8.684405326843262 117 120 127
-1.9072966575622559 0.5619174242019653 9.438652992248535 148 151 170
-0.44027793407440186 0.5166983008384705 9.211987495422363 96 91 93
-1.392045259475708 2.458369016647339 9.40345287322998 97 93 96
-0.9042580723762512 1.0676056146621704 9.2532377243042 169 162 171
-3.5316696166992188 1.5770108699798584 9.043255805969238 52 48 53
-1.6233502626419067 4.382959842681885 9.702191352844238 21 17 15
-2.1197657585144043 -5.281341552734375 8.471888542175293 80 80 84
-0.523496150970459 -2.0960590839385986 8.929485321044922 13 11 17
-1.8655076026916504 1.5106139183044434 9.202190399169922 38 37 45
0.7673929929733276 2.0838024616241455 5.345087051391602 47 39 35
-1.5792346000671387 1.8302407264709473 9.348114013671875 143 139 160
-0.2321529984474182 0.9029447436332703 9.336225509643555 80 72 73
-0.05665672942996025 1.7210299968719482 8.60163402557373 105 101 95
-2.7676563262939453 -4.526721477508545 8.263784408569336 78 79 85
-1.2505239248275757 -2.58764910697937 8.622241020202637 120 121 138
-0.5777398347854614 1.4171438217163086 9.437407493591309 73 66 71
-1.1246027946472168 -4.858996391296387 7.940683364868164 66 63 65
-2.8153927326202393 -5.043110370635986 8.251326560974121 54 56 60
-2.8206818103790283 -4.969963550567627 8.150296211242676 88 90 96
-1.3603885173797607 -5.048845291137695 8.375093460083008 89 91 91
-1.297960638999939 -4.652754306793213 8.403763771057129 84 88 92
-2.767652988433838 -4.526721000671387 8.263777732849121 78 79 85
-3.444218873977661 -4.009044647216797 8.216129302978516 44 46 50
-3.4607198238372803 -3.982658624649048 8.194032669067383 19 21 26
-2.7583980560302734 -3.96474289894104 8.244874000549316 43 44 51
-2.7136003971099854 -3.5594277381896973 8.387126922607422 113 114 121
-0.5613323450088501 -3.4812822341918945 8.666829109191895 67 64 63
-1.9346461296081543 -3.3809375762939453 8.549153327941895 113 114 127
-1.9121594429016113 -3.0573339462280273 8.516441345214844 126 127 138
-0.5982033014297485 -3.074878454208374 8.72521686553955 52 50 48
-3.409858226776123 -2.9541592597961426 8.41702938079834 93 97 101
-0.5313098430633545 -3.044133424758911 8.715185165405273 29 24 21
0.4747251272201538 -1.6667200326919556 5.141643524169922 153 141 138
0.4650818407535553 -1.6501133441925049 5.183174133300781 79 71 68
-2.706022024154663 -2.5649335384368896 8.538522720336914 87 91 98
-2.730001211166382 -2.559845209121704 8.61423397064209 65 66 73
-2.022294044494629 -2.4458377361297607 8.569249153137207 107 111 117
-3.3809621334075928 -2.326371431350708 8.327226638793945 103 107 115
0.9633983373641968 2.0886595249176025 5.227754592895508 119 109 104
0.495300829410553 -1.2451813220977783 5.249136447906494 125 121 119
-2.0321755409240723 -2.056403398513794 8.73295783996582 113 117 126
-4.009572505950928 3.5768187046051025 9.146439552307129 133 128 127
0.8491771221160889 2.039668560028076 5.231978416442871 52 44 40
-3.9724767208099365 3.5985636711120605 9.231019973754883 144 138 138
-1.237128734588623 -2.002578020095825 8.811144828796387 113 117 126
-2.6556503772735596 -1.8836829662322998 8.59776782989502 44 48 53
0.8555623888969421 2.0497238636016846 5.334774494171143 113 107 105
-3.7478225231170654 3.513883352279663 9.254115104675293 22 16 17
-3.6872398853302 3.5106117725372314 9.226859092712402 30 25 24
0.5326289534568787 -1.069791555404663 5.275472640991211 225 217 213
-3.7479665279388428 3.513969898223877 9.254412651062012 22 16 17
-2.9997904300689697 3.5260019302368164 9.360404968261719 38 36 34
-3.6217732429504395 3.3606131076812744 8.95545768737793 86 80 84
-3.755838632583618 3.4552738666534424 9.214125633239746 61 55 58
-1.8378955125808716 -1.4075887203216553 8.489027976989746 120 124 133
-1.672964334487915 3.5043020248413086 9.597569465637207 23 19 19
-1.9385924339294434 -1.4100209474563599 8.757895469665527 18 22 30
-1.9269968271255493 -1.0184581279754639 8.880256652832031 53 54 62
-3.3582780361175537 -0.9835091829299927 8.759739875793457 57 58 66
-3.744264841079712 3.1043994426727295 9.114727973937988 42 37 40
-1.1399893760681152 -0.4910418391227722 9.064982414245605 85 87 96
-0.5713926553726196 -0.4924977123737335 9.125618934631348 127 129 143
