ply
format ascii 1.0
element vertex 717
property float x
property float y
property float z
property uchar red
property uchar green
property uchar blue
end_header
0.9698765873908997 -1.1723532676696777 4.8414225578308105 115 112 117
0.9597275257110596 -1.440721869468689 4.863987445831299 126 124 123
1.0144898891448975 0.2995259761810303 4.970778465270996 90 87 92
0.9367478489875793 -2.4033963680267334 4.698498725891113 93 87 91
0.9712092280387878 -2.1014649868011475 4.784114837646484 75 69 69
1.0489211082458496 1.324668288230896 5.107810020446777 91 88 89
1.012447476387024 -0.16704139113426208 4.911208629608154 118 113 115
0.97942054271698 -2.08310866355896 4.7161688804626465 81 75 76
0.9783419370651245 -1.9998425245285034 4.703497886657715 114 114 117
0.9821093678474426 -0.8838595151901245 4.713056564331055 100 97 103
0.9821093678474426 -0.8838595151901245 4.713056564331055 100 97 103
1.0677568912506104 1.74588143825531 5.094438076019287 56 50 50
1.0794931650161743 1.6152530908584595 5.191195487976074 65 58 62
1.00925874710083 -1.137669324874878 4.785412311553955 99 96 102
1.1050233840942383 3.118638753890991 5.21496057510376 84 75 69
1.0810118913650513 1.4002212285995483 4.997829437255859 82 78 79
1.0542030334472656 0.6388018131256104 4.972940444946289 36 30 31
1.0467705726623535 0.30614563822746277 4.907705783843994 75 66 77
0.9990736842155457 -1.905044674873352 4.686395168304443 125 127 135
1.0260884761810303 -0.8862806558609009 4.771594524383545 100 97 103
1.0350719690322876 -0.715116024017334 4.807259559631348 142 147 148
1.0180288553237915 -1.337823748588562 4.728086948394775 110 108 116
1.0535424947738647 0.08294987678527832 4.870017051696777 96 95 101
1.0481616258621216 0.008828493766486645 4.832988739013672 89 82 87
1.0532313585281372 0.0358000211417675 4.792057991027832 72 67 68
1.0416007041931152 -0.8331187963485718 4.760383129119873 98 95 97
1.0487619638442993 -0.6619500517845154 4.7718658447265625 130 135 138
1.1106791496276855 1.8280048370361328 5.032586574554443 59 53 54
1.1212607622146606 2.256561040878296 5.056153774261475 41 36 36
1.095513939857483 1.0089950561523438 4.931224822998047 95 92 92
1.039554476737976 -1.534207820892334 4.706771373748779 127 129 139
1.1056736707687378 1.1336795091629028 4.932623386383057 77 70 74
1.0738375186920166 -0.13221579790115356 4.759054660797119 95 91 97
1.1473604440689087 2.48171329498291 5.080509185791016 46 42 42
1.1318436861038208 1.738987922668457 5.011086940765381 40 34 35
1.0826034545898438 -0.018327688798308372 4.786431789398193 83 77 86
1.122657299041748 1.5389310121536255 4.966277122497559 69 63 63
1.1158391237258911 1.045819878578186 4.917503356933594 101 96 98
1.075391411781311 -1.1113176345825195 4.737645149230957 120 121 122
1.1599098443984985 2.285163164138794 5.110320568084717 49 44 44
1.120912790298462 1.0962148904800415 4.922597408294678 115 109 113
1.0632673501968384 -1.3299514055252075 4.670161247253418 109 108 117
1.1297794580459595 1.3123873472213745 4.956315517425537 104 100 104
1.1297794580459595 1.3123873472213745 4.956315517425537 104 100 104
1.10267174243927 1.2950679063796997 4.824625015258789 88 84 86
1.1107854843139648 0.4024326205253601 4.831215858459473 64 59 62
1.0878150463104248 -0.5211871862411499 4.728387355804443 84 80 86
1.071765661239624 -2.105855703353882 4.6385321617126465 100 94 93
1.1607533693313599 1.6650512218475342 4.9665985107421875 20 15 15
1.1088618040084839 -0.056570377200841904 4.771810054779053 54 49 60
1.0857534408569336 -0.9944734573364258 4.67156457901001 97 92 92
1.088861107826233 -0.8181589841842651 4.671072483062744 116 113 115
1.0940462350845337 -0.7962285280227661 4.674838066101074 37 33 35
1.0940462350845337 -0.7962285280227661 4.674838066101074 37 33 35
1.1633543968200684 1.30326509475708 4.959959983825684 57 52 56
1.2088693380355835 2.4938390254974365 5.148633003234863 45 40 40
1.0717835426330566 -2.0076866149902344 4.562255382537842 126 123 125
1.1660033464431763 0.791534423828125 4.9356584548950195 86 85 84
1.0910968780517578 -1.7510615587234497 4.595273971557617 112 109 110
1.0939762592315674 -1.8593816757202148 4.566404819488525 107 102 103
1.0847629308700562 -1.3043286800384521 4.552896499633789 107 109 112
1.0911085605621338 -1.7510900497436523 4.595355987548828 112 109 110
1.1182010173797607 -1.1315430402755737 4.654566764831543 80 75 80
1.2521620988845825 2.9074819087982178 5.209190845489502 52 44 40
1.1014490127563477 -2.008659839630127 4.564186096191406 86 81 83
1.083754539489746 -1.9046034812927246 4.493962287902832 95 91 94
1.0934770107269287 -1.5923271179199219 4.530788421630859 46 42 41
1.093991994857788 -1.859523057937622 4.5660719871521 107 102 103
1.093991994857788 -1.859523057937622 4.5660719871521 107 102 103
1.2647957801818848 2.8511993885040283 5.2306742668151855 50 43 41
1.2144335508346558 1.1831146478652954 4.982076644897461 53 47 49
1.2014589309692383 0.57325279712677 4.909337997436523 64 56 60
1.2027217149734497 -0.0340401753783226 4.8487701416015625 59 53 60
1.218314290046692 0.9367451667785645 4.949951648712158 57 52 56
1.2492083311080933 1.7266796827316284 5.075344085693359 52 49 49
1.132818341255188 -2.0063154697418213 4.543690204620361 61 52 53
1.2920520305633545 2.8618714809417725 5.218939304351807 79 72 65
1.1842772960662842 -0.436992883682251 4.768198013305664 77 75 80
1.2139159440994263 0.21269170939922333 4.876132488250732 57 53 57
1.1835867166519165 -0.33788856863975525 4.731736183166504 63 59 68
1.289891242980957 2.3841731548309326 5.155272006988525 45 40 40
1.2062196731567383 -0.250054270029068 4.813086986541748 63 57 65
1.1143449544906616 -2.086982011795044 4.445078372955322 108 103 104
1.200209140777588 -0.6407084465026855 4.7693867683410645 78 73 76
1.282893419265747 1.6317098140716553 5.093105316162109 45 44 48
1.3281515836715698 2.846693515777588 5.265834331512451 58 52 45
1.2035188674926758 -0.43817904591560364 4.761471271514893 77 73 77
1.2035188674926758 -0.43817904591560364 4.761471271514893 77 73 77
1.3269925117492676 2.798330545425415 5.229952335357666 56 50 44
1.313511848449707 2.577468156814575 5.107738494873047 69 64 58
1.3048862218856812 1.7637823820114136 5.127522945404053 53 48 47
1.2687073945999146 0.5103012919425964 4.964035511016846 66 59 59
1.177677035331726 -1.4565268754959106 4.589357376098633 81 74 80
1.2487523555755615 -0.11849275976419449 4.847185134887695 85 79 83
1.3447545766830444 3.0476715564727783 5.223502159118652 77 72 65
1.3150123357772827 1.0632139444351196 5.052664756774902 119 113 104
1.2112195491790771 -1.6106595993041992 4.668331146240234 100 96 97
1.2578659057617188 -0.3595026433467865 4.838785648345947 89 86 92
1.3618351221084595 2.904698371887207 5.247491836547852 95 89 78
1.2864556312561035 0.894169807434082 4.972877502441406 90 82 77
1.3300520181655884 1.6315864324569702 5.092733383178711 70 64 57
1.3615962266921997 2.4734573364257812 5.199446201324463 102 95 84
1.3046637773513794 0.978157103061676 4.988372802734375 96 88 79
1.2947657108306885 0.27558138966560364 4.9497480392456055 81 75 70
1.2963942289352417 0.5764564871788025 4.973324298858643 80 71 65
1.380814790725708 3.053413152694702 5.243156433105469 62 57 48
1.380814790725708 3.053413152694702 5.243156433105469 62 57 48
1.2960158586502075 0.37626585364341736 4.901883602142334 107 99 90
1.3017069101333618 -0.3568345606327057 4.911642074584961 84 77 73
1.3017069101333618 -0.3568345606327057 4.911642074584961 84 77 73
1.3218960762023926 0.43550896644592285 4.941064357757568 116 107 94
1.2725937366485596 -0.6843218803405762 4.7971510887146 84 78 80
1.2702795267105103 -0.7682174444198608 4.783923625946045 76 72 70
1.2310736179351807 -2.058041572570801 4.62943172454834 39 31 30
1.2754454612731934 -0.7344521880149841 4.786239147186279 90 85 85
1.3114348649978638 -0.19261184334754944 4.885295391082764 125 116 103
1.2639658451080322 -1.3405693769454956 4.731316089630127 99 100 101
1.2697622776031494 -0.9781699776649475 4.7525458335876465 84 78 75
1.2958979606628418 -0.22447450459003448 4.848151206970215 113 104 95
1.3438817262649536 1.0758252143859863 5.021165370941162 128 122 108
1.3761106729507446 2.199079751968384 5.137744903564453 99 91 77
1.2851580381393433 -0.804282009601593 4.810033798217773 132 125 117
1.3293191194534302 0.21721909940242767 4.919680595397949 132 124 111
1.296180009841919 -0.30546829104423523 4.8339643478393555 124 115 107
1.2483160495758057 -1.906052827835083 4.6135573387146 79 74 72
1.3732486963272095 1.926295280456543 5.118634223937988 108 100 86
1.2840707302093506 -1.0167499780654907 4.745923042297363 107 101 92
1.2809152603149414 -1.4656245708465576 4.726537227630615 91 85 81
1.2798112630844116 -1.627495288848877 4.692525386810303 146 137 128
1.2765324115753174 -1.6017091274261475 4.7032012939453125 101 96 91
1.3558027744293213 1.0712602138519287 4.993484020233154 124 116 103
1.281301498413086 -1.7336729764938354 4.6929521560668945 115 111 107
1.3109748363494873 -1.2351075410842896 4.745883941650391 103 94 82
1.2796169519424438 -1.9528166055679321 4.731846332550049 72 66 63
1.2882647514343262 -1.5629067420959473 4.704885005950928 141 132 120
1.307648777961731 -0.9831975698471069 4.775604248046875 135 127 111
1.3509801626205444 0.4448583126068115 4.91383695602417 135 127 112
1.3200021982192993 -1.3256845474243164 4.764610290527344 167 159 142
1.3524467945098877 0.29564568400382996 4.891716480255127 141 133 116
1.3170019388198853 -0.9051862955093384 4.772497653961182 150 141 124
1.3450514078140259 -0.14143003523349762 4.844235420227051 150 143 125
1.3145723342895508 -1.5207887887954712 4.717056751251221 99 89 71
1.3016067743301392 -2.0162770748138428 4.644744873046875 56 50 44
1.322595238685608 -1.9060384035110474 4.650211334228516 63 55 43
1.5093860626220703 2.668593168258667 5.269754886627197 84 79 64
1.3708151578903198 -0.5609714984893799 4.753843307495117 167 158 141
1.3410438299179077 -1.8399786949157715 4.644785404205322 169 158 139
1.3410438299179077 -1.8399786949157715 4.644785404205322 169 158 139
1.5121572017669678 2.936216115951538 5.186239242553711 99 93 80
1.4326708316802979 0.536698579788208 4.902430534362793 103 97 81
1.3568528890609741 -1.8950397968292236 4.605471611022949 175 166 151
1.3674006462097168 -1.295200228691101 4.670629024505615 153 144 127
1.4746077060699463 0.9741030931472778 4.9819464683532715 103 96 82
1.5326292514801025 2.6126210689544678 5.129847049713135 78 73 59
1.4025273323059082 -1.8982720375061035 4.661910533905029 73 66 51
1.395521640777588 -1.8760671615600586 4.616816997528076 72 65 51
1.4866341352462769 0.451756089925766 4.8950419425964355 134 128 114
1.4866341352462769 0.451756089925766 4.8950419425964355 134 128 114
1.2868834733963013 -2.1195099353790283 4.22592306137085 94 88 89
1.4346330165863037 -1.8540239334106445 4.623934745788574 69 62 50
1.5035736560821533 -0.2689751088619232 4.803102493286133 105 95 80
1.4638675451278687 -1.7802331447601318 4.647976875305176 174 164 147
1.6703870296478271 2.9990077018737793 5.201763153076172 98 91 78
1.6954565048217773 2.683516502380371 5.206069469451904 96 87 73
1.3721072673797607 -2.0745341777801514 4.066288471221924 114 109 113
1.865546464920044 3.0747692584991455 5.325314998626709 82 74 64
1.778649091720581 -0.14947082102298737 5.029150485992432 98 91 73
1.4210554361343384 -2.053356170654297 3.98453426361084 122 118 123
1.795127034187317 0.6904446482658386 4.996810436248779 57 47 34
1.8229870796203613 0.20424006879329681 5.024007797241211 31 24 8
1.7976932525634766 0.7309569120407104 4.922024250030518 59 48 36
1.8967586755752563 0.9447216987609863 5.140573024749756 116 110 97
1.8903512954711914 0.6338850855827332 5.068576812744141 141 132 117
1.580019474029541 -2.0463616847991943 4.200595855712891 60 55 49
1.8967119455337524 0.2825397849082947 5.037802696228027 139 131 116
1.905408501625061 0.33679795265197754 5.03372049331665 99 91 76
1.905408501625061 0.33679795265197754 5.03372049331665 99 91 76
1.9054068326950073 0.33679795265197754 5.0337138175964355 99 91 76
1.9054068326950073 0.33679795265197754 5.0337138175964355 99 91 76
1.9173049926757812 0.96629798412323 5.005512714385986 112 105 89
1.9485857486724854 0.8951506614685059 5.102364540100098 56 51 41
1.9219191074371338 0.40019235014915466 5.037166595458984 139 131 114
1.9219191074371338 0.40019235014915466 5.037166595458984 139 131 114
1.9281100034713745 0.6323156952857971 5.039315700531006 69 58 44
1.6185539960861206 -2.0693130493164062 4.211575031280518 52 45 42
1.6433918476104736 -1.9386615753173828 4.2408294677734375 60 54 42
1.9315322637557983 0.057015687227249146 4.951229095458984 66 59 43
1.9307200908660889 0.03317051753401756 4.941484451293945 59 52 36
1.9622918367385864 0.5159363746643066 5.0067291259765625 132 124 109
1.9363101720809937 0.1719728410243988 4.937183380126953 161 155 139
1.9284710884094238 -0.2192908674478531 4.9159722328186035 55 48 31
1.9162633419036865 0.4609818458557129 4.859671115875244 55 49 36
1.9278874397277832 -0.2562260627746582 4.901604652404785 172 165 147
1.947899580001831 0.09751003235578537 4.936831474304199 120 113 97
1.9350186586380005 0.03227892145514488 4.916477680206299 108 101 85
1.9634853601455688 0.43399861454963684 4.965284824371338 66 60 46
1.9655463695526123 0.38382771611213684 4.942675590515137 130 124 110
1.645040512084961 -2.0616278648376465 4.144237995147705 54 50 43
1.92320716381073 0.0275270976126194 4.781417369842529 133 126 108
1.975874662399292 0.27863645553588867 4.908125877380371 119 112 99
1.9813379049301147 0.4494633972644806 4.920135021209717 145 139 124
1.9751309156417847 0.03084607422351837 4.892368793487549 141 134 116
2.032205820083618 0.5108530521392822 5.073840618133545 83 76 62
2.003850221633911 0.6282625794410706 4.9261980056762695 139 131 117
2.0058646202087402 0.45651519298553467 4.911297798156738 77 70 55
1.9818719625473022 0.23758605122566223 4.848230838775635 161 154 138
1.9860482215881348 0.32162368297576904 4.779428958892822 46 41 30
2.0008130073547363 0.47769996523857117 4.811443328857422 141 134 121
2.013942003250122 0.2854079008102417 4.799386501312256 122 116 102
1.9901657104492188 0.506260097026825 4.718207836151123 95 91 80
2.072664260864258 0.6452780961990356 4.811864376068115 74 68 57
2.0726635456085205 0.6452789306640625 4.811862945556641 74 68 57
2.1174745559692383 0.5248624682426453 4.774560928344727 72 67 55
2.090998411178589 0.4436960220336914 4.723970890045166 82 75 68
2.144437313079834 0.46080660820007324 4.843053340911865 80 74 65
2.1311798095703125 0.4468715190887451 4.722537994384766 86 80 68
2.1775662899017334 0.2578682601451874 4.627102851867676 122 117 104
0.4281720519065857 -0.2866162657737732 5.9046735763549805 80 75 77
0.0402592197060585 0.2205025553703308 6.63744592666626 92 87 89
1.9077943563461304 0.41516995429992676 4.888654708862305 85 78 64
2.1174769401550293 0.5248610973358154 4.774564743041992 72 67 55
0.20386600494384766 2.9576261043548584 5.717751979827881 98 89 85
0.6569975018501282 3.000020742416382 5.643504619598389 135 129 123
0.012293010018765926 3.062944173812866 5.434520721435547 174 168 164
1.3109949827194214 -1.235133409500122 4.745979309082031 103 94 82
-2.510582685470581 -1.6829609870910645 10.74597454071045 183 178 179
0.4642954468727112 3.042515277862549 5.562493801116943 68 61 57
0.2360341101884842 3.0753402709960938 5.784136772155762 94 85 81
1.9437562227249146 0.6224799752235413 4.953718185424805 88 78 65
0.46534010767936707 3.034888744354248 5.549431324005127 76 70 66
0.3637121021747589 3.006078004837036 5.4935479164123535 143 134 130
-3.5117077827453613 -2.3376450538635254 12.39228630065918 40 39 48
-2.9025721549987793 0.23960742354393005 10.926828384399414 204 192 180
0.57724928855896 0.548783540725708 5.77561092376709 18 13 14
1.997678279876709 0.5118134617805481 4.9041571617126465 59 51 38
0.9791445136070251 1.443681240081787 5.202420234680176 120 116 116
0.8533351421356201 1.4151945114135742 5.424052715301514 20 15 14
-2.5210864543914795 -2.203713893890381 10.676507949829102 26 23 25
1.3114362955093384 -0.19261088967323303 4.88530969619751 125 116 103
-3.2076287269592285 0.28673461079597473 10.748188018798828 46 27 20
1.339350700378418 1.2514503002166748 5.0533928871154785 98 90 80
-3.302665948867798 0.2943395972251892 10.756793022155762 63 48 39
0.9709177017211914 -1.0248308181762695 4.90403413772583 63 58 57
-2.80700945854187 0.29234713315963745 10.757208824157715 195 180 169
0.9883982539176941 1.2512524127960205 5.194782257080078 114 109 110
1.3114216327667236 -0.19261135160923004 4.885227680206299 125 116 103
-2.6771087646484375 0.3029273450374603 10.878058433532715 204 194 186
-3.2379798889160156 0.3181232810020447 10.705753326416016 76 58 47
1.3146653175354004 0.014247020706534386 4.884518146514893 91 82 73
0.9771050810813904 0.42351263761520386 5.071053981781006 23 19 19
-2.7146823406219482 0.3220923840999603 10.675174713134766 40 25 19
1.2927215099334717 -0.6088058352470398 4.786323547363281 84 75 67
-5.411434650421143 -2.3880422115325928 15.653924942016602 29 22 23
0.43490609526634216 0.5057999491691589 6.003911972045898 120 115 116
0.22492505609989166 3.0472280979156494 5.439830303192139 47 40 36
0.6955223083496094 0.37210699915885925 5.537525653839111 20 15 17
0.8494493365287781 1.1968938112258911 5.377933979034424 121 117 118
0.18231505155563354 3.060790777206421 5.530033588409424 107 99 95
0.8369665741920471 0.20279650390148163 5.297954082489014 113 110 111
-2.8899097442626953 0.2788247764110565 10.665853500366211 81 65 52
-3.0212392807006836 0.3465767502784729 10.716404914855957 73 55 44
1.912781834602356 0.28172746300697327 5.02764892578125 46 38 24
0.5610421299934387 0.3399960994720459 5.774295806884766 123 118 119
0.8444699048995972 0.6096645593643188 5.334622859954834 15 9 11
-2.9623143672943115 0.37935441732406616 10.638298034667969 81 63 53
1.3015044927597046 -1.8507393598556519 4.682109832763672 126 117 102
-3.2900309562683105 -1.5151411294937134 12.483649253845215 118 114 110
-2.8183770179748535 0.3806332051753998 10.64561939239502 101 86 80
-5.349256992340088 -1.9575153589248657 15.626565933227539 21 15 20
0.012335301376879215 3.0627260208129883 5.434088230133057 174 168 164
1.8356940746307373 0.6593813300132751 4.9473490715026855 183 175 164
-3.280360698699951 -0.7165625095367432 12.622576713562012 49 44 41
-2.7146475315093994 0.32209423184394836 10.675081253051758 40 25 19
-7.707175254821777 -3.76552677154541 16.254318237304688 187 157 143
-5.3688154220581055 -0.9262710809707642 15.780874252319336 125 120 126
0.5772613883018494 0.5487939119338989 5.775662422180176 18 13 14
-2.0786454677581787 -1.8050366640090942 9.979949951171875 25 19 20
-5.422386646270752 -0.8017733097076416 15.944202423095703 53 47 55
1.2727446556091309 -0.5884751081466675 4.775182247161865 124 119 115
1.9744791984558105 0.6688641309738159 5.052245616912842 154 146 133
-2.6640961170196533 -0.7010557651519775 11.147377014160156 7 3 4
0.17397145926952362 1.230206847190857 6.5530829429626465 132 127 128
1.8334180116653442 0.1846938133239746 5.041261196136475 99 92 76
-2.504713296890259 -1.8556278944015503 10.697911262512207 16 12 12
-3.1173059940338135 0.3871585726737976 10.256851196289062 22 7 3
0.24949274957180023 3.0814640522003174 5.470674991607666 91 83 79
0.3044707477092743 1.8683106899261475 6.39970064163208 95 90 91
0.9741684794425964 0.21799969673156738 5.053489685058594 143 138 139
0.5729231238365173 2.9525930881500244 5.658639907836914 110 103 98
-5.43713903427124 -2.2509303092956543 15.724655151367188 56 48 50
-2.5290720462799072 -2.379058361053467 10.67052936553955 21 15 20
1.3197311162948608 -0.8353751301765442 4.8012518882751465 113 105 91
-2.5290029048919678 -2.379018545150757 10.670324325561523 21 15 20
0.27252182364463806 2.9980340003967285 5.611979961395264 166 157 153
-2.505004644393921 -1.8558377027511597 10.699209213256836 16 12 12
0.707341194152832 0.9672030210494995 5.607936382293701 134 129 130
0.9521477222442627 -1.6174315214157104 4.807113170623779 139 136 136
2.021519660949707 0.43097248673439026 4.7427215576171875 145 139 125
1.944371223449707 0.21569772064685822 4.904912948608398 113 107 91
-2.5609564781188965 1.770713210105896 10.458499908447266 34 25 21
-0.1998385339975357 3.0615832805633545 5.115949630737305 121 113 108
0.9741678833961487 0.21799814701080322 5.05347204208374 143 138 139
-2.108159303665161 -2.1639583110809326 9.998056411743164 60 53 55
1.8655954599380493 0.220296710729599 5.036197185516357 119 111 94
1.9246610403060913 0.2038443237543106 4.912972450256348 175 169 153
1.333058476448059 0.632658064365387 4.968546390533447 80 74 60
1.2851489782333374 -0.8042677640914917 4.809948921203613 132 125 117
1.3330504894256592 0.6326422691345215 4.968486785888672 80 74 60
-2.1143243312835693 -1.6857948303222656 10.059002876281738 21 13 13
0.17642217874526978 2.970545768737793 5.546446800231934 101 94 90
1.2964577674865723 -0.3948577046394348 4.8385329246521 35 29 21
1.9446065425872803 0.21574099361896515 4.905805587768555 113 107 91
1.2840511798858643 -1.0167386531829834 4.745847702026367 107 101 92
0.9741788506507874 0.2180071473121643 5.0535078048706055 143 138 139
1.3354531526565552 0.8299317359924316 4.985011100769043 145 137 126
1.3293229341506958 0.21721890568733215 4.919728755950928 132 124 111
2.062628984451294 0.2925701141357422 4.626763820648193 76 71 60
1.3330528736114502 0.6326468586921692 4.968504428863525 80 74 60
-0.047180723398923874 3.0772173404693604 5.368652820587158 68 62 57
0.9818933010101318 0.8378936648368835 5.1343865394592285 24 18 20
-0.5135077238082886 2.9710264205932617 5.742639064788818 61 52 47
0.981863796710968 0.8378725051879883 5.134300231933594 24 18 20
-3.507829189300537 1.8098132610321045 11.347256660461426 63 53 46
1.2866488695144653 -1.4300669431686401 4.7156596183776855 115 106 97
1.944637656211853 0.6236332654953003 4.955631256103516 88 78 65
0.22394703328609467 3.0010716915130615 5.635096549987793 169 161 157
0.3399672210216522 3.02768874168396 5.59697151184082 144 135 131
0.9741060137748718 0.21791136264801025 5.053056716918945 143 138 139
-5.449972152709961 -2.5425870418548584 15.719520568847656 34 27 28
1.090174913406372 -2.0435903072357178 4.562917232513428 67 62 60
1.0896742343902588 -2.0381453037261963 4.549938678741455 67 62 60
1.2798126935958862 -1.627484679222107 4.692499160766602 146 137 128
-3.4651293754577637 -0.5361897349357605 12.517278671264648 29 29 37
0.8308277726173401 -0.8354498744010925 5.155721187591553 116 111 112
1.3218538761138916 0.43548932671546936 4.940909385681152 116 107 94
-3.526433229446411 1.8922683000564575 11.515936851501465 68 58 52
-5.348891735076904 -1.6614164113998413 15.639925956726074 29 22 24
0.43719711899757385 0.894152045249939 6.037822246551514 104 99 101
-5.3293776512146 -1.7954764366149902 15.58486557006836 31 24 27
0.9718857407569885 0.021356230601668358 5.011382102966309 56 51 52
-3.2912960052490234 -2.1642515659332275 12.424379348754883 195 187 178
0.10172291100025177 2.982959270477295 5.585474491119385 114 108 103
1.9304773807525635 0.3505309820175171 4.8683762550354 92 85 72
0.1283070296049118 3.068199396133423 5.298194885253906 104 98 94
-3.4015679359436035 0.1157224178314209 12.454139709472656 128 122 126
0.578446090221405 2.976158857345581 5.793769836425781 142 135 129
-3.2851903438568115 -1.709122657775879 12.470961570739746 144 140 132
1.3369370698928833 0.36600369215011597 4.939528465270996 63 54 40
0.9709058403968811 -1.0248215198516846 4.904001235961914 63 58 57
0.2066752314567566 3.015547752380371 5.5922441482543945 133 125 121
-0.02317766472697258 3.0538010597229004 5.060734272003174 118 112 106
-0.6367396712303162 2.878012180328369 6.295619010925293 140 133 128
0.18158940970897675 0.6499468684196472 6.470089912414551 16 10 15
0.5780001282691956 1.132760763168335 5.822056770324707 106 99 99
0.5819838643074036 3.003352642059326 5.6870317459106445 148 141 137
1.9367408752441406 -0.21773138642311096 4.909026145935059 77 70 53
1.3555660247802734 -1.9143097400665283 4.5996785163879395 91 83 69
-2.6656813621520996 0.3313640058040619 10.764055252075195 120 106 101
0.4281717538833618 -0.28661471605300903 5.9046502113342285 80 75 77
1.9859743118286133 0.5008219480514526 4.9578704833984375 31 24 13
-0.17365886270999908 3.029538154602051 5.434904098510742 105 96 91
0.7741276025772095 -2.0990989208221436 5.072051525115967 66 62 62
-2.892780065536499 0.34302467107772827 10.518959045410156 188 173 161
0.3318164348602295 3.0509445667266846 5.437027931213379 60 53 48
1.3390345573425293 1.8781219720840454 5.130854606628418 107 98 89
0.2689889073371887 3.0398378372192383 5.455215930938721 155 147 144
0.4034828245639801 3.071920394897461 5.31939697265625 150 141 137
-5.401882648468018 -0.9282575845718384 15.877869606018066 92 86 92
-0.027356145903468132 2.9116625785827637 6.173354148864746 95 85 81
2.008310556411743 0.32030633091926575 4.732909202575684 100 94 81
0.614294707775116 2.993560552597046 5.689449787139893 99 93 87
2.0909950733184814 0.44370412826538086 4.7239580154418945 82 75 68
1.3409854173660278 1.4605588912963867 5.069894790649414 59 51 40
1.3150444030761719 1.0632551908493042 5.052824974060059 119 113 104
1.2727491855621338 -0.5884772539138794 4.775198936462402 124 119 115
1.9246835708618164 0.2038489282131195 4.913043022155762 175 169 153
0.847044825553894 1.8311758041381836 5.482696533203125 63 57 57
0.573866069316864 0.7410330176353455 5.793972492218018 147 141 143
-0.44603750109672546 3.0729312896728516 5.388275146484375 149 141 136
0.971952497959137 -0.3953855335712433 4.960418701171875 25 20 22
0.5570923686027527 -0.46839284896850586 5.655335426330566 58 53 54
-0.640864372253418 3.0305542945861816 5.659195899963379 88 80 75
0.13545337319374084 2.988431930541992 5.787952899932861 148 142 138
1.3100554943084717 0.45556819438934326 4.931614875793457 76 68 54
1.1232483386993408 1.5026122331619263 4.985777378082275 119 114 114
0.8535714745521545 -0.44852104783058167 5.10625696182251 120 114 117
1.1232516765594482 1.5026227235794067 4.985791206359863 119 114 114
0.4500002861022949 3.0608038902282715 5.872102737426758 137 130 127
2.0160605907440186 0.2855772376060486 4.73606014251709 116 109 95
1.9681377410888672 0.2865554392337799 4.919475078582764 74 68 58
1.929846167564392 -0.23426908254623413 4.90114164352417 59 52 35
-3.272826671600342 -1.0329917669296265 12.567089080810547 115 110 103
0.9874163269996643 1.6649017333984375 5.2351837158203125 31 24 25
0.2067880630493164 3.0199015140533447 5.601039409637451 133 125 121
1.3390730619430542 1.8781870603561401 5.131024360656738 107 98 89
-3.477743148803711 -1.187545895576477 12.466540336608887 85 84 95
-3.5012757778167725 1.902093768119812 11.209380149841309 45 35 30
0.979667603969574 2.2777159214019775 5.3071160316467285 98 95 95
-5.450039386749268 -2.542614221572876 15.719655990600586 34 27 28
0.5779722332954407 1.1327073574066162 5.821836948394775 106 99 99
1.2846105098724365 -0.8246942758560181 4.767202377319336 157 150 142
1.3341103792190552 0.6916491389274597 4.976511478424072 133 125 111
-2.755875587463379 0.2676810026168823 10.313751220703125 126 110 97
1.1625275611877441 -1.931998372077942 4.49669075012207 86 80 80
1.826885461807251 0.22786907851696014 5.047380447387695 151 143 127
0.018540501594543457 2.890542984008789 6.354589462280273 144 136 132
-2.0414466857910156 1.8640755414962769 10.431344032287598 122 99 72
0.3064652979373932 1.066809058189392 6.3112969398498535 54 49 50
-2.5751442909240723 1.8921679258346558 10.561832427978516 110 102 99
-2.5152876377105713 1.8552764654159546 10.38440227508545 106 97 94
-5.348150253295898 -1.6612461805343628 15.637765884399414 29 22 24
-2.8502306938171387 1.8565012216567993 10.624859809875488 18 11 8
1.0916765928268433 -1.0208278894424438 4.674745559692383 133 129 129
0.06571263074874878 2.9273924827575684 5.986791610717773 96 86 82
0.3169631361961365 3.0385704040527344 5.772487163543701 89 81 78
-2.8503577709198 1.8566029071807861 10.625354766845703 18 11 8
0.6872551441192627 3.1035356521606445 5.308166980743408 117 111 108
0.22000226378440857 2.9929487705230713 5.742844581604004 66 57 53
-0.5628206729888916 3.0825693607330322 5.304177284240723 124 117 111
-0.301864355802536 3.0209741592407227 5.464930534362793 66 57 53
-0.19701407849788666 2.921110153198242 5.993927955627441 167 158 154
1.9686858654022217 0.411733478307724 4.926599025726318 158 152 138
1.0937281847000122 -0.7726594805717468 4.698967933654785 63 62 66
2.0214931964874268 0.4309556186199188 4.742633819580078 145 139 125
0.30992448329925537 3.0062427520751953 5.605566501617432 41 32 28
-1.0237812995910645 -0.011793329380452633 8.340839385986328 70 63 58
0.5731907486915588 3.0725700855255127 5.443019390106201 158 150 146
1.9593857526779175 0.07358042150735855 4.921055793762207 117 111 94
1.9914965629577637 0.26201707124710083 4.719743251800537 54 48 34
0.842951238155365 0.39169347286224365 5.2881340980529785 94 91 91
-0.05629938840866089 2.9595823287963867 5.965938568115234 113 104 100
0.3562657833099365 2.950838327407837 6.006782054901123 61 55 49
0.12621621787548065 2.973093271255493 5.795019626617432 138 131 127
-0.10435423254966736 2.857311248779297 6.320892333984375 143 134 130
-2.037874221801758 -1.26435124874115 9.928275108337402 10 5 8
-0.6564260721206665 3.0336661338806152 5.487130165100098 81 71 66
-0.22699213027954102 3.0074098110198975 5.843605041503906 130 123 118
0.36215320229530334 2.930755853652954 5.6072587966918945 77 71 67
0.048693105578422546 0.9915542006492615 6.721523284912109 17 11 12
0.34390971064567566 3.0634615421295166 5.38446569442749 117 109 106
-7.732113361358643 0.1689797192811966 19.83643913269043 75 61 51
-2.3626418113708496 -1.5120887756347656 10.557900428771973 30 26 31
-0.3851470649242401 3.0651438236236572 5.447896957397461 98 90 85
1.0939631462097168 -1.8594263792037964 4.566108703613281 107 102 103
1.3504995107650757 2.0726253986358643 5.156503200531006 68 60 51
-5.391566276550293 -1.2205564975738525 15.804452896118164 36 31 36
1.297899603843689 0.832614541053772 5.004004001617432 121 117 111
0.9093931317329407 3.0831587314605713 5.3812947273254395 103 96 91
-0.5066455602645874 2.9961767196655273 5.51533842086792 138 130 124
1.1881805658340454 -2.040053129196167 4.3555426597595215 56 51 50
1.3333276510238647 0.48180583119392395 4.932495594024658 77 69 54
1.930565357208252 0.35057270526885986 4.8687052726745605 92 85 72
-0.6398953199386597 2.668462038040161 7.23402214050293 146 136 131
1.2616900205612183 -1.6282958984375 4.693608283996582 154 149 146
0.3851690888404846 2.9250805377960205 6.164425373077393 97 89 83
1.0805654525756836 -1.6496692895889282 4.5933966636657715 103 98 99
0.06569785624742508 2.9274380207061768 5.986886024475098 96 86 82
-2.714622735977173 0.3220823109149933 10.674956321716309 40 25 19
0.050162214785814285 1.3936203718185425 6.766510486602783 94 88 89
-2.564042329788208 0.3079063296318054 10.810930252075195 59 47 42
-2.7146496772766113 0.3220944106578827 10.675086975097656 40 25 19
0.3141736388206482 1.2736700773239136 6.30893611907959 31 25 24
-2.8929312229156494 0.34386247396469116 10.519415855407715 188 173 161
0.04026856645941734 0.22050024569034576 6.6373724937438965 92 87 89
0.9796670079231262 2.2777082920074463 5.307100296020508 98 95 95
-2.9623804092407227 0.3793551027774811 10.638479232788086 81 63 53
1.089665412902832 -2.038041830062866 4.549684524536133 67 62 60
1.0901726484298706 -2.0435924530029297 4.562922954559326 67 62 60
1.090248942375183 -2.043736219406128 4.563197612762451 67 62 60
-2.8184401988983154 0.38063889741897583 10.645798683166504 101 86 80
1.1917502880096436 -1.980040431022644 4.6117262840271 76 70 69
-0.9587892889976501 1.683725118637085 8.547093391418457 71 65 64
-7.6968865394592285 -1.9092097282409668 19.629745483398438 29 23 27
0.7741643786430359 -2.0991621017456055 5.072227954864502 66 62 62
0.774172842502594 -2.0991830825805664 5.072281360626221 66 62 62
-0.9588267803192139 1.6836795806884766 8.546947479248047 71 65 64
-2.9693779945373535 0.38263559341430664 10.657315254211426 69 50 40
1.0939791202545166 -1.8593851327896118 4.566422462463379 107 102 103
-0.06897027045488358 1.3671103715896606 6.994876384735107 11 6 7
1.3137874603271484 -1.9056389331817627 4.714717864990234 117 108 94
1.0963294506072998 -1.8341057300567627 4.588906288146973 130 125 124
1.2727488279342651 -0.588476836681366 4.775195598602295 124 119 115
0.7119677066802979 1.1805232763290405 5.649960517883301 18 13 13
0.9568317532539368 -1.848061203956604 4.775997638702393 42 37 37
0.9791437983512878 1.4436877965927124 5.20244026184082 120 116 116
0.5779721140861511 1.1327077150344849 5.82183837890625 106 99 99
-0.1929938942193985 2.911283016204834 5.973938465118408 160 151 147
1.9246339797973633 0.20383474230766296 4.91285514831543 175 169 153
1.3616031408309937 2.4734761714935303 5.19948673248291 102 95 84
-3.5084540843963623 -0.38092660903930664 12.690207481384277 101 101 110
0.9790953397750854 1.4431958198547363 5.200771331787109 120 116 116
1.0904783010482788 -1.6275920867919922 4.623939514160156 76 71 71
-3.5024349689483643 -0.8661455512046814 12.560049057006836 31 31 41
0.9741685390472412 0.21799546480178833 5.053463459014893 143 138 139
1.0989876985549927 -0.6027296185493469 4.717998027801514 54 48 49
1.3293251991271973 0.21722149848937988 4.919717788696289 132 124 111
1.9863691329956055 0.49254754185676575 4.896883010864258 131 124 109
0.9521445631980896 -1.617401123046875 4.807036399841309 139 136 136
0.17397145926952362 1.230206847190857 6.5530829429626465 132 127 128
1.94460928440094 0.21573910117149353 4.905813217163086 113 107 91
1.3393481969833374 1.2514476776123047 5.0533833503723145 98 90 80
-2.794858932495117 1.9352110624313354 10.556207656860352 153 147 143
0.356426477432251 2.9503512382507324 6.005557060241699 61 55 49
-2.8072144985198975 0.29071611166000366 10.757819175720215 195 180 169
0.7073463797569275 -1.7393683195114136 6.092047214508057 68 59 49
0.1730291247367859 1.6287044286727905 6.589208126068115 90 84 85
-2.683687448501587 1.86446213722229 10.44216537475586 94 86 81
-2.0415613651275635 1.8641471862792969 10.431750297546387 122 99 72
0.014108921401202679 3.0636749267578125 5.1649298667907715 107 99 94
0.5626622438430786 0.1475059688091278 5.729041576385498 63 57 59
1.1220556497573853 1.2815498113632202 4.957875728607178 120 115 116
-2.8502702713012695 1.856530785560608 10.625020980834961 18 11 8
0.20138287544250488 3.0240375995635986 5.560678482055664 157 150 146
0.17530162632465363 3.0415422916412354 5.583973407745361 128 119 115
0.7073413133621216 0.967202365398407 5.607931137084961 134 129 130
-2.872393846511841 0.22857773303985596 10.625997543334961 69 53 41
0.7073476314544678 0.9672456979751587 5.6081342697143555 134 129 130
1.1026394367218018 0.26013773679733276 4.806424140930176 137 131 138
2.117465019226074 0.5248565673828125 4.774538993835449 72 67 55
1.3390623331069946 1.8781487941741943 5.130921840667725 107 98 89
0.14893412590026855 3.031122922897339 5.51753568649292 159 150 146
0.3064673840999603 1.0668038129806519 6.311249256134033 54 49 50
-2.5608439445495605 1.7706332206726074 10.458171844482422 34 25 21
0.7788245677947998 3.054682731628418 5.534778594970703 111 104 100
0.8393743634223938 -1.2678494453430176 5.125985622406006 72 67 68
0.13583871722221375 2.9517667293548584 5.872101306915283 50 41 37
1.9478827714920044 0.09750809520483017 4.936772346496582 120 113 97
1.9085540771484375 0.2829046845436096 5.018416404724121 56 48 35
0.5610572099685669 0.3399612009525299 5.77381706237793 123 118 119
2.0160558223724365 0.2855782210826874 4.7360429763793945 116 109 95
-0.05975134298205376 2.836369037628174 6.074724197387695 91 84 79
-0.44393765926361084 1.2467211484909058 7.586179733276367 34 29 31
0.981857180595398 0.8378658294677734 5.134262561798096 24 18 20
-3.5078279972076416 1.8098127841949463 11.34725284576416 63 53 46
2.0627944469451904 0.29256340861320496 4.627140045166016 76 71 60
-2.108222484588623 -2.164015531539917 9.9983549118042 60 53 55
1.9593722820281982 0.07354758679866791 4.921009540557861 117 111 94
1.284051537513733 -1.0167338848114014 4.745861530303955 107 101 92
0.57725989818573 0.5487973093986511 5.775694370269775 18 13 14
0.9709177017211914 -1.0248308181762695 4.90403413772583 63 58 57
0.9709045886993408 -1.0248186588287354 4.903987884521484 63 58 57
1.1348700523376465 1.7006120681762695 5.013197422027588 130 125 124
2.074530601501465 0.4662342369556427 4.701993942260742 84 79 69
-2.520906925201416 -2.203585147857666 10.675933837890625 26 23 25
-2.090492010116577 -1.9883918762207031 9.965184211730957 26 21 22
1.9873899221420288 0.07036673277616501 5.027069091796875 83 77 59
0.691938042640686 -1.0617350339889526 5.363898277282715 119 115 115
-0.012033157050609589 3.047123908996582 5.425332069396973 127 121 117
1.3422038555145264 1.4644032716751099 5.077694892883301 33 25 15
2.0610809326171875 0.3295128345489502 4.649196147918701 103 98 89
-2.504194498062134 -2.015953302383423 10.63597583770752 26 21 22
0.9581522345542908 0.06030445173382759 5.034267902374268 32 26 27
1.930472731590271 0.35057395696640015 4.868490695953369 92 85 72
1.9304622411727905 0.3505249321460724 4.868322372436523 92 85 72
-3.5108718872070312 -2.3370320796966553 12.389276504516602 40 39 48
0.711127519607544 0.7876217365264893 5.675887107849121 74 68 73
2.1174678802490234 0.5248599648475647 4.774545192718506 72 67 55
0.3044830858707428 1.868262529373169 6.399552345275879 95 90 91
-2.0786819458007812 -1.8050686120986938 9.980119705200195 25 19 20
-3.291311502456665 -2.164273738861084 12.424427032470703 195 187 178
-2.504667282104492 -1.8555737733840942 10.697752952575684 16 12 12
1.3197091817855835 -0.8353543281555176 4.801162242889404 113 105 91
1.311428189277649 -0.19261418282985687 4.885241508483887 125 116 103
1.9748812913894653 0.668998122215271 5.05327033996582 154 146 133
1.9061481952667236 0.6658765077590942 5.016600131988525 125 113 100
-0.446006715297699 3.072664976119995 5.387821674346924 149 141 136
1.111139178276062 1.4725053310394287 4.9887590408325195 96 93 92
-5.390483856201172 -2.6659202575683594 15.549864768981934 37 28 30
0.6419765949249268 2.3791747093200684 5.9077582359313965 21 17 18
-5.390482425689697 -2.665919303894043 15.549860000610352 37 28 30
-2.1207213401794434 -1.692642331123352 10.08055591583252 22 15 15
2.054603338241577 0.38233694434165955 4.707362174987793 64 58 48
1.884853482246399 0.6546443700790405 4.9621171951293945 153 140 127
1.2851483821868896 -0.8042680621147156 4.8099517822265625 132 125 117
-5.852851390838623 -2.764997720718384 16.492082595825195 59 52 56
-7.732200622558594 0.16897957026958466 19.836637496948242 75 61 51
-1.0297157764434814 0.709505558013916 8.427467346191406 106 98 94
0.14249879121780396 3.0286967754364014 5.85347843170166 126 121 117
1.3236948251724243 0.47580868005752563 4.943521976470947 45 37 24
0.9770511984825134 0.4234859049320221 5.0708208084106445 23 19 19
1.9900524616241455 0.5062527060508728 4.717724323272705 95 91 80
-5.852669715881348 -2.7649035453796387 16.491567611694336 59 52 56
-5.4502105712890625 -2.5427021980285645 15.720101356506348 34 27 28
0.8308275938034058 -0.8354459404945374 5.155712127685547 116 111 112
0.9770994186401367 0.42350855469703674 5.071013927459717 23 19 19
1.123252272605896 1.5026299953460693 4.985813617706299 119 114 114
1.0903414487838745 -0.7610585689544678 4.675088882446289 131 132 136
1.3330621719360352 0.6326653361320496 4.968574047088623 80 74 60
-5.7410736083984375 -2.569767713546753 16.202098846435547 46 39 42
1.907792568206787 0.4151696264743805 4.8886518478393555 85 78 64
0.8470446467399597 1.8311748504638672 5.482697010040283 63 57 57
0.850450873374939 2.2500123977661133 5.539643287658691 24 19 21
1.948529839515686 0.6283039450645447 4.964164733886719 119 110 96
-2.2694175243377686 -1.6407406330108643 10.3286771774292 130 123 125
-3.4653728008270264 -0.5361872911453247 12.517955780029297 29 29 37
1.3218985795974731 0.43551042675971985 4.941078186035156 116 107 94
1.9437237977981567 0.6224612593650818 4.9535980224609375 88 78 65
1.3113538026809692 -0.19264186918735504 4.884634494781494 125 116 103
1.9423999786376953 0.5045971870422363 5.032296657562256 89 81 66
-5.740689754486084 -2.569561243057251 16.201133728027344 46 39 42
0.46897244453430176 3.152876853942871 5.449808120727539 131 122 117
2.0214943885803223 0.4309564530849457 4.742638111114502 145 139 125
0.9718827605247498 0.021329835057258606 5.011300086975098 56 51 52
1.938137412071228 -0.21644622087478638 4.9144062995910645 81 74 57
0.40101224184036255 3.0667245388031006 5.311367511749268 153 144 140
1.9343407154083252 0.43707072734832764 4.916966438293457 138 132 118
2.0030364990234375 0.41977617144584656 4.890007019042969 150 144 129
2.031512498855591 0.5702624917030334 4.75172233581543 106 103 95
-5.411509037017822 -2.388091802597046 15.654107093811035 29 22 23
-5.790976047515869 -2.453784704208374 16.358903884887695 31 25 28
0.8533241748809814 1.4152040481567383 5.424061298370361 20 15 14
0.4314444363117218 1.9130926132202148 6.190725326538086 36 31 32
0.9718668460845947 0.02116551622748375 5.010980129241943 56 51 52
0.08731792122125626 3.0189197063446045 5.631056785583496 120 115 110
2.0215444564819336 0.430966854095459 4.742762565612793 145 139 125
1.9328666925430298 -0.23484553396701813 4.912708759307861 59 52 35
1.8952885866165161 -0.23417162895202637 4.879296779632568 104 96 80
-7.792201519012451 0.019580736756324768 19.90437126159668 55 40 31
0.4281724691390991 -0.28661438822746277 5.904640197753906 80 75 77
-2.6181278228759766 -0.5204172134399414 11.095824241638184 57 55 60
-6.316971778869629 -2.3574845790863037 17.224288940429688 81 74 83
1.3146660327911377 0.014249959960579872 4.884550094604492 91 82 73
-5.747681617736816 -2.149702787399292 16.28439712524414 60 53 60
2.1174685955047607 0.5248637795448303 4.774550437927246 72 67 55
0.7555151581764221 3.043226718902588 5.230191230773926 94 88 84
0.2096029371023178 3.075380325317383 5.273863792419434 150 144 139
0.9636962413787842 -0.6074280142784119 4.811313152313232 61 56 57
-5.696487903594971 -1.9853606224060059 16.13810157775879 34 28 36
0.8533351421356201 1.4151935577392578 5.424049377441406 20 15 14
-5.369491100311279 -0.9263530969619751 15.782896041870117 125 120 126
0.05940571799874306 3.085001230239868 5.266869068145752 111 105 100
1.3205524682998657 2.24092698097229 5.0815887451171875 96 87 80
-2.664074182510376 -0.7010146975517273 11.147307395935059 7 3 4
-0.3028136193752289 2.780897855758667 6.657284736633301 127 118 111
-6.721312046051025 -2.027129650115967 18.05417251586914 56 49 56
0.610746443271637 2.9761226177215576 5.656074523925781 99 93 87
1.9253044128417969 -0.0058480012230575085 4.917064189910889 185 178 161
-0.44836580753326416 3.093958854675293 5.216958999633789 127 119 112
-0.6408898830413818 3.0305709838867188 5.659228801727295 88 80 75
1.1190344095230103 2.11987042427063 5.065120697021484 115 111 111
0.6568843126296997 2.9964122772216797 5.63865852355957 135 129 123
-3.4771816730499268 -1.1873780488967896 12.465023040771484 85 84 95
-2.6199188232421875 -0.8566151857376099 10.976583480834961 111 107 107
-5.340578079223633 -1.3620749711990356 15.661462783813477 66 60 65
1.9333446025848389 -0.010530877858400345 4.914064884185791 161 154 137
-0.8191628456115723 3.1343164443969727 5.227189064025879 116 109 102
-0.12186315655708313 3.0983190536499023 5.149771690368652 61 53 46
1.290427327156067 -0.3936057686805725 4.818093776702881 59 53 47
-0.31157052516937256 2.9669270515441895 5.902362823486328 125 116 112
-3.346637725830078 0.23897065222263336 11.319998741149902 162 147 139
-1.6071434020996094 0.22568638622760773 9.446053504943848 14 10 15
-1.6072090864181519 0.22569146752357483 9.446273803710938 14 10 15
0.6402013301849365 3.0826146602630615 5.380960464477539 111 104 101
0.3370760679244995 3.0376198291778564 5.628539085388184 144 137 132
-3.2897801399230957 -1.9126077890396118 11.83989429473877 39 38 49
0.9741029739379883 0.21790501475334167 5.052976608276367 143 138 139
1.3098691701889038 -0.374378502368927 4.840463638305664 121 114 99
0.2960244417190552 0.2759334444999695 6.192644119262695 106 102 104
-0.6170763373374939 3.064579725265503 5.4419169425964355 95 87 80
0.7036302089691162 1.7832486629486084 5.7158379554748535 98 93 92
1.1265923976898193 1.905029535293579 5.027053356170654 94 90 91
0.7164506316184998 3.0175585746765137 5.340327262878418 102 94 91
-2.6839749813079834 1.8646485805511475 10.44332504272461 94 86 81
1.2929227352142334 0.018974699079990387 4.913736820220947 132 124 119
-2.037769317626953 -1.2642853260040283 9.92792797088623 10 5 8
2.021557569503784 0.43097376823425293 4.742807388305664 145 139 125
1.933574914932251 0.6087324023246765 5.011100769042969 134 125 111
1.9379711151123047 -0.2398810237646103 4.90224027633667 81 74 56
1.1073997020721436 0.8474457859992981 4.820183753967285 35 30 31
0.26008689403533936 2.9485106468200684 5.885739803314209 65 59 55
0.4730987846851349 2.9605865478515625 5.843583583831787 145 137 134
-7.947078704833984 -2.546340227127075 19.977313995361328 129 122 129
1.9316301345825195 0.23464538156986237 4.9929351806640625 131 125 110
0.96720951795578 -1.4517641067504883 4.829576015472412 142 140 139
1.0879483222961426 -1.4195786714553833 4.5939788818359375 35 32 34
-1.031160593032837 -0.736831784248352 8.227027893066406 84 78 74
0.5779997706413269 1.132761836051941 5.82206392288208 106 99 99
1.3197250366210938 -0.8353886604309082 4.8012824058532715 113 105 91
1.9160270690917969 0.014054493047297001 4.950237274169922 79 72 55
0.6268008351325989 3.060199737548828 5.2708539962768555 133 125 121
1.1142363548278809 1.2973040342330933 4.938147068023682 60 56 57
-0.023084763437509537 2.923754930496216 6.188720226287842 90 80 76
1.0942257642745972 0.006077938713133335 4.774356365203857 62 58 63
1.2995386123657227 -0.8284731507301331 4.802001953125 45 40 31
-5.790848731994629 -2.4537596702575684 16.358430862426758 31 25 28
-2.969395637512207 0.3826371729373932 10.657377243041992 69 50 40
-5.747861862182617 -2.1497576236724854 16.284828186035156 60 53 60
0.9883824586868286 1.2512102127075195 5.194642066955566 114 109 110
1.191744089126587 -1.9800336360931396 4.611708641052246 76 70 69
1.093977451324463 -1.8593817949295044 4.566410541534424 107 102 103
1.3137850761413574 -1.9056302309036255 4.7146992683410645 117 108 94
0.9741083383560181 0.21791666746139526 5.0531134605407715 143 138 139
0.2707007825374603 2.9960200786590576 5.604882717132568 146 137 133
-3.4623758792877197 -1.8411858081817627 12.38133716583252 27 27 35
0.9741684198379517 0.21798831224441528 5.053346633911133 143 138 139
1.924667477607727 0.2038455307483673 4.912990093231201 175 169 153
1.8266112804412842 0.22785654664039612 5.046606540679932 151 143 127
0.9521487355232239 -1.6174421310424805 4.80714225769043 139 136 136
1.944638729095459 0.2157491147518158 4.905910491943359 113 107 91
1.3422192335128784 1.464447259902954 5.077816963195801 33 25 15
-2.6837217807769775 1.8644845485687256 10.442312240600586 94 86 81
0.8445731401443481 1.6126317977905273 5.457595348358154 90 83 84
1.2866367101669312 -1.4300434589385986 4.715579032897949 115 106 97
0.9597194790840149 -1.440714955329895 4.8639726638793945 126 124 123
0.7073461413383484 -1.7393696308135986 6.092053413391113 68 59 49
0.03424530103802681 3.0054025650024414 5.632824897766113 116 110 105
-0.10818023979663849 2.903808355331421 6.225192546844482 127 120 115
-2.618518114089966 0.34252116084098816 10.703912734985352 133 121 114
-3.0125956535339355 0.33872899413108826 10.693121910095215 61 42 34
1.310990810394287 -1.2351205348968506 4.745924949645996 103 94 82
0.9770464897155762 0.42348262667655945 5.070793628692627 23 19 19
1.8991589546203613 0.28315645456314087 4.986489295959473 68 60 46
-2.9612276554107666 0.2990971803665161 10.768163681030273 204 187 175
2.0160186290740967 0.2855669856071472 4.73594331741333 116 109 95
2.062795639038086 0.29256412386894226 4.627143859863281 76 71 60
-0.9587111473083496 1.6835968494415283 8.546456336975098 71 65 64
1.097145438194275 -1.0177695751190186 4.653690814971924 55 50 50
