ply
format ascii 1.0
comment Created by Open3D
element vertex 1378
property double x
property double y
property double z
property uchar red
property uchar green
property uchar blue
end_header
-1.52826 1.89432 6.99057 83 77 85
-2.02864 -1.10098 5.9112 72 67 69
-1.59484 -1.223 6.90571 38 33 37
-1.65414 -1.05996 7.03383 54 49 55
-1.66773 -0.745684 7.03238 70 65 72
-1.05978 1.9658 7.77993 18 14 19
-1.47085 -0.681569 6.95203 88 83 84
-1.46469 -0.643505 6.92587 64 59 62
-2.13957 1.27813 5.86842 144 139 142
-2.07567 -0.488918 5.92548 124 120 126
-1.91582 -0.512575 6.19038 117 113 116
-2.20751 1.32274 5.99781 120 116 119
-1.74958 1.49524 6.62151 98 92 96
-1.61431 1.54273 6.85036 21 16 23
-2.04432 1.32372 6.15777 75 71 76
-1.63406 -0.46343 6.65598 37 32 36
-2.10814 -0.322365 5.91497 103 98 103
-1.92926 -0.292189 6.16976 20 14 22
1.33793 -0.349249 11.3312 24 19 24
-1.65814 -0.259301 6.65108 30 26 32
-1.21374 -0.242194 7.34379 22 17 21
1.31 -0.288861 11.1607 45 39 46
-2.17605 1.11229 5.91924 18 13 17
-1.16406 1.51472 7.51653 82 77 81
-1.95279 -0.116391 6.16184 70 65 69
-2.0668 -0.0892216 5.85631 75 70 75
-2.08663 -0.0919981 5.93453 150 146 152
1.43094 0.0379234 11.466 26 21 27
-1.36102 -0.0637977 7.11596 104 98 102
-0.904171 1.58956 8.04122 127 123 127
1.52134 0.230466 11.5071 28 23 33
-1.86107 1.10403 6.31321 63 56 59
-1.51495 0.115425 6.86056 29 23 27
-1.53888 0.144813 6.919 30 25 28
-1.66803 0.137374 6.59878 39 35 39
-1.8989 1.12728 6.40471 17 10 13
1.26281 0.399076 11.3899 27 21 27
-2.02471 1.06324 6.15623 37 32 36
-0.82843 0.367572 7.97881 95 90 93
-1.09825 0.347992 7.52672 88 83 87
-1.31568 1.3541 7.33035 114 110 113
-1.30116 1.31368 7.30472 88 82 87
-1.1687 1.35693 7.50861 39 34 39
-1.97823 0.272376 6.16766 112 108 111
-1.54701 0.353935 6.87608 10 5 10
-1.7326 1.10138 6.63481 103 97 100
1.49361 0.941248 11.4872 16 11 21
1.2742 2.2145 11.3789 61 57 61
1.59758 0.970417 11.7765 15 12 22
-1.66686 0.529912 6.62919 108 103 107
0.412614 1.77408 9.99131 75 73 81
-2.00129 0.915775 6.17144 76 71 76
-1.43749 1.10748 7.08525 94 89 92
-2.00696 0.509549 6.16553 86 82 88
-1.93714 0.557618 6.26883 135 129 136
-1.94211 0.560264 6.28037 123 117 124
-0.97786 0.775272 7.77628 6 3 10
-1.9418 0.587133 6.35093 108 102 108
-1.90615 0.579499 6.29804 111 106 112
-1.85281 0.919461 6.36346 109 104 106
1.5637 2.11096 12.038 19 15 21
-1.4464 0.769269 7.21103 76 70 75
-1.16991 1.14139 7.60956 87 82 86
-1.54585 0.740521 6.83155 39 34 38
-1.86582 0.729141 6.37816 125 119 124
-1.45254 0.954464 7.10463 20 15 19
-1.13792 0.960226 7.46831 94 88 93
-1.54526 1.9148 6.93528 26 23 26
-1.22626 2.16392 7.55408 22 17 20
-1.24066 2.1539 7.48697 107 102 105
-1.64994 1.9452 6.85786 14 10 12
-1.21066 2.31081 7.54781 77 72 78
-1.5165 2.15364 7.08621 16 10 11
-1.20113 2.34844 7.56035 88 84 87
-1.51766 2.18105 7.07896 37 33 35
-2.07829 1.907 6.16706 79 75 79
-1.39394 2.57272 7.37566 114 109 112
-2.24675 1.91846 5.90654 88 83 87
-1.09235 2.74512 7.73266 100 96 99
-0.775159 2.8922 8.08588 56 52 55
-1.68614 2.35342 6.84651 121 117 121
-1.23633 2.74973 7.54058 48 43 47
-2.09189 2.12494 6.1539 38 34 37
-2.09189 2.12495 6.15391 38 34 37
-1.4965 2.49168 6.95256 85 80 84
-1.10235 2.98462 7.81944 23 17 19
-1.96534 2.3449 6.38773 35 31 33
-1.83543 2.55827 6.6136 16 11 14
-1.67625 2.71386 6.73898 39 33 36
-1.71986 2.96488 6.86792 45 40 41
-1.00116 3.54191 7.66491 79 73 69
-0.556361 3.49375 7.43767 93 85 80
-1.97448 2.9905 6.47 67 62 65
-0.886768 3.53487 7.41043 52 43 41
-1.24187 3.6136 7.34414 100 94 91
-2.15843 2.96631 6.12363 22 18 21
-2.12352 2.91199 6.05093 54 50 53
-1.13687 0.427371 7.50741 89 83 90
-1.78443 -0.462677 6.40914 91 86 90
-1.25451 2.57603 7.56982 20 16 19
-1.37418 2.69299 7.15088 59 54 59
-1.84177 0.573777 6.54196 122 117 122
0.210428 2.75391 9.75457 8 6 13
-1.78427 0.81737 6.45688 97 91 102
-0.819078 3.53494 7.38369 138 127 123
-1.80393 0.0260052 6.38835 52 48 52
-0.610199 3.5208 7.58947 92 84 79
-0.810888 3.47201 7.49777 120 111 108
-1.44992 0.462676 6.98889 121 115 122
1.52957 0.794079 11.7956 8 2 12
-1.48334 -0.248001 6.84765 53 47 52
-1.58147 1.53242 6.86355 128 123 130
-1.69875 1.5354 6.75146 46 41 48
-1.50511 2.55759 7.15235 25 21 24
-1.08574 0.385131 7.53882 111 106 110
-1.5789 2.40085 7.16092 131 126 130
-1.16677 0.365366 7.2594 109 104 111
-2.23464 1.17646 9.88514 70 66 70
-1.78023 -0.0795502 6.44763 17 12 16
-1.77725 1.49844 6.46745 57 52 59
-1.77019 1.16238 6.77671 73 68 71
-1.84031 0.721722 6.38032 129 123 128
-1.79175 0.953877 6.66307 138 132 137
-2.16631 0.914073 5.9866 164 158 164
-2.045 -1.53614 5.90249 34 30 31
-2.00358 -1.50188 5.90376 42 37 39
-1.73403 -1.50453 6.40513 38 34 38
-1.63058 -1.49687 6.58244 56 52 55
-1.41762 -1.45316 6.89829 21 16 16
-1.6348 -1.27712 7.0201 77 73 77
-1.65415 -1.05996 7.03386 54 49 55
-1.7087 -0.815671 7.03506 126 121 120
1.64623 -1.12664 11.9939 88 85 90
-1.91405 -0.512675 6.1921 115 111 114
1.37842 -0.881455 11.5364 86 84 88
-1.95597 -0.500553 6.19954 32 27 31
-1.61235 -0.479396 6.63052 102 98 102
-2.10347 -0.322672 5.90388 106 101 107
-2.09102 -0.304202 5.99176 34 29 33
1.36388 -0.421532 11.687 93 90 98
1.33779 -0.34923 11.3301 24 19 24
-1.95281 -0.116374 6.16187 70 65 69
-1.95279 -0.116392 6.16184 70 65 69
-2.09601 -0.0901229 5.95309 109 105 111
-1.36102 -0.0637976 7.11596 104 98 102
0.630952 0.144556 10.2165 29 24 28
-1.80366 0.0246863 6.3879 50 45 49
-1.80965 0.0859919 6.40282 103 98 102
-1.53434 0.141373 6.86517 30 25 27
-1.49116 0.143075 6.89305 32 27 30
1.26275 0.399046 11.3893 27 21 27
-0.828225 0.364206 7.97829 92 87 91
-1.10972 0.37883 7.54281 35 30 34
-1.10967 0.378835 7.54268 35 30 34
-1.16677 0.365366 7.25942 109 104 111
-1.95894 0.282222 6.14634 97 91 95
1.49375 0.941371 11.4885 16 11 21
1.50465 1.12767 11.4759 115 111 123
-1.85723 0.492554 6.36047 101 97 101
-0.977888 0.775295 7.77645 6 3 10
-1.23689 0.75884 7.27657 133 127 132
-1.42996 0.761296 7.14938 31 25 30
-1.54564 0.740496 6.83114 39 34 38
-1.75764 0.934272 6.57017 142 136 142
-1.85281 0.919461 6.36346 109 104 106
-1.86526 0.924248 6.39372 134 129 130
-2.18712 0.902332 5.92495 27 20 26
-2.15616 0.910667 5.96466 152 146 152
-1.67446 1.13198 6.68276 153 148 154
-1.16873 1.35696 7.50869 39 34 39
-2.02471 1.06324 6.15623 37 32 36
-1.3159 1.35428 7.33092 114 110 113
-1.82841 1.08051 6.23285 54 48 52
-1.97641 1.08754 6.10615 41 36 39
-1.88628 1.17218 6.38619 42 35 38
-2.20476 1.11437 5.92512 159 154 159
-1.59286 1.54079 6.89071 155 150 157
1.31223 3.03971 11.7128 22 19 24
-2.20729 1.32262 5.99754 120 116 119
-0.921656 1.95594 7.9884 22 17 23
-1.0598 1.96582 7.77998 18 14 19
-2.03467 1.47265 6.14739 95 91 95
0.22418 2.91272 10.2051 10 8 15
-1.76156 1.72248 6.60475 57 52 58
-1.5238 2.19278 7.09464 40 36 38
-1.66538 2.35491 6.87251 30 26 29
-1.1432 2.76979 7.69671 96 93 97
-2.09189 2.12494 6.1539 38 34 37
-2.09189 2.12495 6.15391 38 34 37
-1.10233 2.98458 7.81935 23 17 19
-1.92982 2.29807 6.30295 96 91 94
-1.9724 2.33517 6.35893 125 121 124
-1.81377 2.53811 6.61038 72 67 70
-2.10645 2.32857 6.17129 39 33 37
-2.26636 2.33894 5.91904 32 26 31
-1.58753 2.90161 6.85303 84 79 82
-1.71987 2.96491 6.86796 50 45 46
-1.00116 3.54191 7.6649 79 73 69
-0.723689 3.59712 7.65578 115 105 100
-2.31437 2.76462 5.8974 68 64 65
-2.03015 -1.52892 5.89229 31 27 28
-2.02866 -1.10099 5.91124 72 67 69
-1.64206 -1.28401 7.03609 73 69 73
-1.65415 -1.05996 7.03386 54 49 55
-2.17205 -0.869809 6.52866 82 81 102
-1.67499 -0.885672 6.90407 45 35 33
-1.44945 -0.863059 6.94021 35 29 32
-1.65665 -0.860232 7.04324 39 34 38
-1.48915 -0.666151 6.92595 47 43 44
-1.94665 -0.500672 6.16888 30 24 30
-1.9089 -0.493883 6.20634 34 29 33
-1.65264 -0.462473 6.60824 11 7 10
-2.07922 -0.302872 5.97694 35 30 34
-1.92927 -0.292189 6.16976 20 14 22
1.36031 -0.422614 11.6448 93 90 97
1.33781 -0.349247 11.3303 24 19 24
-1.80646 -0.0716216 6.40061 85 80 84
-1.36496 -0.0573288 7.06063 29 23 27
-1.45788 -0.0426535 6.74486 31 27 34
-1.80365 0.0246835 6.38789 50 45 49
-1.5389 0.13915 6.87478 27 22 25
-1.37171 0.167452 7.04031 11 7 11
-1.10972 0.378831 7.54283 35 30 34
-1.54704 0.353941 6.87616 10 5 10
-1.46314 0.958942 7.12841 17 11 16
0.42729 1.84866 10.3957 74 72 81
-1.88628 1.17218 6.38619 42 35 38
-2.17604 1.11228 5.91922 18 13 17
-2.19461 1.30221 5.93363 134 129 132
-1.47473 1.74511 7.06532 46 41 45
-2.07834 1.90703 6.16712 79 75 79
-1.80031 2.52386 6.58795 71 66 69
-1.80935 2.49653 6.47843 120 115 118
-1.83377 2.75443 6.62742 114 108 112
-0.693846 3.51648 7.60335 71 63 58
-2.00917 2.96088 6.3934 15 11 14
-2.0272 -1.52825 5.88913 32 28 28
-2.03211 -1.35366 5.92058 111 108 112
-2.02695 -1.10002 5.90901 72 67 69
-1.43375 -1.05157 6.87496 31 28 28
-1.69546 -0.898806 6.94542 47 37 34
-1.44198 -0.863178 6.92586 26 20 23
-1.9429 -0.501712 6.16412 24 19 24
1.38783 -0.890085 11.6346 85 83 87
-2.07593 -0.305854 5.97351 61 57 61
-2.02471 1.06324 6.15624 37 32 36
-2.12232 1.08924 5.85498 67 62 66
-2.25441 1.12734 5.96548 36 31 36
-1.98796 2.13212 6.35663 63 58 61
-1.92534 2.29167 6.29197 97 92 95
-1.79854 2.51683 6.58278 19 15 18
-1.97545 2.5447 6.3998 79 75 76
-1.45228 -1.43183 6.9081 43 39 40
-2.03503 -1.12437 5.92345 21 15 16
-1.6926 -0.828104 6.98364 128 122 120
-2.08159 0.087109 5.95344 43 37 42
-1.26514 0.767297 7.29922 58 53 58
-2.02471 1.06323 6.15624 37 32 36
-1.98802 2.13217 6.35671 63 58 61
-2.12773 2.72953 6.12817 86 82 83
-2.32942 -0.972176 5.78187 40 44 72
-2.26769 0.540686 5.63525 103 101 115
-2.26769 0.540686 5.63525 103 101 115
-2.27704 0.560215 5.63632 61 58 72
-2.19773 -0.33532 5.64532 83 80 94
-2.44054 2.69175 5.65912 36 33 40
-2.24394 0.350987 5.65994 88 83 100
-2.30131 1.14103 5.66379 48 48 61
-2.32319 1.60013 5.64036 58 54 65
-2.39716 2.58455 5.65406 53 51 60
-2.32768 1.66331 5.67298 49 45 56
-2.22321 0.539918 5.66053 71 70 85
-2.1793 -0.301806 5.69982 73 71 85
-2.3909 2.68178 5.66782 47 44 50
-2.36993 2.48347 5.69001 43 40 51
-2.20868 0.32981 5.7157 56 53 70
-2.17341 -0.591938 5.77764 93 91 102
-2.25909 1.14363 5.70386 66 66 81
-2.27376 1.34896 5.73178 51 50 58
-2.18482 0.00796468 5.74076 65 62 75
-2.2549 1.09838 5.71547 59 56 64
-2.18484 0.423211 5.69478 71 69 88
-2.22517 1.05866 5.70233 39 38 46
-2.28178 1.37917 5.73312 14 13 23
-2.23943 0.670928 5.75373 90 89 97
-2.14465 -0.333674 5.74764 79 76 89
-2.19607 0.18425 5.76163 15 14 23
-2.19607 0.18425 5.76163 15 14 23
-2.16746 -0.171224 5.76274 21 19 26
-2.32689 1.96596 5.74175 15 14 19
-2.27375 1.34896 5.73178 51 50 58
-2.28294 1.10959 5.78995 18 16 22
-2.19859 0.520901 5.75455 25 23 31
-2.15624 -0.221735 5.77115 30 28 37
-2.26202 1.0764 5.75221 18 15 23
-2.28051 1.59925 5.74385 44 41 51
-2.20694 0.481859 5.76981 15 13 21
-2.2888 1.97561 5.72631 57 56 63
-2.16506 -0.186419 5.77935 53 52 59
-2.36453 2.81152 5.74596 45 42 49
-2.12033 -0.550099 5.79178 18 16 31
-2.1993 0.502753 5.7857 111 110 117
-2.27269 0.703418 5.84276 61 60 68
-2.3217 2.46248 5.74626 38 36 46
-2.01283 -1.70678 5.78406 29 26 34
-2.14475 0.135456 5.78364 77 77 86
-2.23499 1.39407 5.7718 54 53 68
-2.14364 -0.307147 5.84003 86 84 97
-2.26514 1.89761 5.77224 48 47 60
-2.10954 -0.278824 5.79706 77 75 88
-2.19048 0.679589 5.80937 50 47 58
-1.97471 -2.04136 5.83147 64 64 73
-1.9731 -2.09251 5.84171 60 59 68
-2.17432 0.411418 5.82676 81 79 97
-2.16995 0.540365 5.8285 62 59 73
-2.14856 0.257752 5.84936 66 61 72
-2.2909 2.64473 5.80174 39 38 47
-2.18669 0.843777 5.86086 50 48 66
-2.14238 0.342757 5.85902 54 52 70
-2.19655 1.27207 5.83936 69 66 77
-2.08579 -0.103997 5.84146 92 90 99
-2.19157 1.02444 5.86983 64 61 77
-2.21292 1.58547 5.84381 49 47 58
-2.30558 2.85075 5.84193 87 83 87
-2.24058 2.07311 5.83875 70 64 74
-2.25326 2.06392 5.8611 64 59 68
-2.1109 0.12403 5.87244 70 68 80
-2.30741 -0.981356 6.29904 83 88 126
-2.28146 2.56112 5.86288 56 55 66
-2.19735 2.41854 5.78755 58 57 68
-2.10633 0.0794496 5.89529 49 47 56
-2.19044 1.34235 5.8865 15 13 21
-1.99577 -0.774842 5.86241 90 87 94
-2.19631 1.68493 5.8672 54 52 61
-2.12309 0.51144 5.90717 102 101 110
-2.12309 0.51144 5.90717 102 101 110
-2.07291 -0.0850246 5.90503 88 86 96
-2.201 1.9381 5.87242 64 61 68
-2.15416 1.0373 5.90798 75 72 86
-2.2351 2.45295 5.87505 42 40 51
-2.06335 -0.106939 5.92644 94 94 102
-2.25287 2.6651 5.91781 42 39 47
-2.03423 -0.346319 5.96695 105 104 115
-2.24911 2.85812 5.93711 31 27 31
-2.11739 0.619736 5.99733 64 61 79
-2.23553 2.64252 5.95726 86 84 89
-2.08565 0.21673 5.99765 78 79 91
-2.08365 0.445921 5.9897 76 74 86
-2.52049 -1.08609 6.83583 89 98 136
-2.03084 -0.179844 5.98709 77 74 88
-1.97716 -1.69461 6.09064 21 17 26
-2.29235 2.64429 6.05383 40 37 41
-2.21318 2.48975 5.98154 70 66 74
-2.06438 -0.0564092 6.04823 93 93 101
-2.12679 1.31397 5.99692 15 12 20
-2.03134 -0.0437686 6.01087 60 59 69
-2.14189 1.56743 5.99686 16 14 20
-2.09361 0.937882 6.00516 114 113 117
-2.07261 0.722685 6.02092 94 92 100
-2.02798 -0.0244244 6.01588 84 81 91
-2.1141 1.32544 6.00261 77 76 82
-2.14676 1.76676 6.00785 53 51 58
-2.14248 1.63435 5.997 36 35 43
-2.13073 1.60411 6.0048 97 96 103
-2.07254 0.722683 6.02084 94 92 100
-2.05122 -0.287578 6.07757 65 62 78
-2.02471 0.0437453 6.02696 15 13 21
-2.13346 1.79437 6.00209 52 50 58
-2.15046 2.04562 6.0006 53 50 59
-2.07124 0.770554 6.03063 107 105 113
-2.06057 0.0678731 6.09482 88 87 95
-2.01837 0.0925833 6.03025 66 64 74
-1.89038 -1.69435 6.05094 26 23 31
-2.05289 0.761778 6.0351 68 67 78
-2.10286 1.26866 6.056 49 47 63
-1.95469 -0.59172 6.03888 83 81 91
-1.85111 -1.97993 6.04096 84 82 85
-2.02718 -0.374608 6.10581 33 32 40
-2.16005 2.38532 6.03997 51 49 58
-1.92519 -1.68842 6.14954 37 35 48
-2.10241 1.62453 6.05048 46 45 59
-2.04242 0.79038 6.06248 55 53 68
-2.01151 0.353153 6.06539 66 65 79
-1.94786 -0.308295 6.05809 66 64 78
-1.98778 -0.203025 6.10449 74 70 85
-2.09252 2.03591 6.05218 42 39 49
-2.1051 2.0164 6.07945 53 51 59
-1.92608 -0.258841 6.07977 77 75 90
-1.87064 -1.77697 6.15046 76 75 85
-2.18784 -1.28907 6.64147 30 24 24
-1.96572 -0.0877354 6.15145 13 11 22
-2.10554 2.04355 6.16332 53 52 64
-2.11348 2.66923 6.11871 45 43 51
-1.91709 -0.117164 6.13847 62 60 67
-1.99568 1.43549 6.09784 46 45 63
-2.03722 1.552 6.15436 86 83 93
-2.14076 2.94359 6.17001 38 36 48
-2.06869 2.4458 6.1137 42 39 51
-2.01241 1.32155 6.16703 51 52 70
-2.05411 1.72889 6.22613 47 45 58
-1.8849 -0.209657 6.19504 64 61 77
-1.94502 0.361635 6.23435 65 62 77
-2.00783 1.54338 6.20263 71 69 77
-1.92662 0.43538 6.20734 60 57 69
-1.93945 0.79547 6.19944 47 46 63
-1.9411 0.680326 6.22197 49 47 62
-2.05164 2.43836 6.2087 55 52 60
-2.07731 2.73751 6.20277 38 35 40
-1.91374 0.657887 6.20614 68 66 81
-1.77973 -1.68444 6.24574 49 47 54
-1.92673 0.641872 6.23265 50 48 63
-2.02356 1.76024 6.27213 39 37 50
-2.00474 1.79072 6.23967 19 17 24
-1.96379 1.15382 6.27799 45 43 48
-2.00564 1.85378 6.24953 88 87 96
-1.89157 0.422468 6.22689 58 55 67
-2.00564 1.87948 6.23182 36 35 44
-2.04046 2.41479 6.23383 14 13 18
-1.9351 0.949337 6.24855 40 37 44
-1.99056 1.57362 6.26142 38 37 44
-2.00703 2.0252 6.2424 54 52 60
-1.90482 0.561964 6.24253 76 74 87
-1.91237 0.0474142 6.32279 55 53 68
-2.01973 2.23928 6.25245 52 50 59
-1.83244 -0.583751 6.27481 68 66 78
-1.87328 0.0969201 6.26483 17 16 24
-1.96384 1.15383 6.27805 45 43 48
-1.95032 1.18029 6.27937 63 61 69
-1.86297 0.709032 6.21215 18 15 24
-2.04534 2.727 6.27174 35 33 40
-1.84813 -0.137679 6.28057 17 16 23
-1.88273 0.306118 6.28019 51 49 55
-1.77059 -0.549507 6.24332 23 21 29
-1.95457 1.5449 6.29108 57 54 66
-1.84744 0.114874 6.28206 60 58 66
-1.87966 0.404237 6.3286 57 54 67
-1.92035 1.31888 6.29601 60 59 77
-1.92035 1.31888 6.29601 60 59 77
-1.86101 0.582005 6.28167 55 53 66
-1.86632 0.367297 6.35714 70 68 79
-1.99447 2.90535 6.30225 39 37 50
-1.93735 1.10147 6.42713 42 41 58
-1.91746 1.64481 6.35572 44 42 55
-2.01091 3.01913 6.36565 49 46 57
-1.88662 1.26783 6.35552 44 44 62
-1.94463 2.25121 6.38231 46 43 52
-1.65254 -1.90469 6.36198 65 65 73
-1.98861 2.94886 6.38064 53 50 63
-1.77647 -0.0536095 6.36888 60 57 69
-1.98417 3.08708 6.40504 12 9 12
-1.84746 1.38336 6.3649 88 87 97
-1.95755 2.72063 6.40858 38 34 45
-1.9841 3.08699 6.40494 12 9 12
-1.98412 3.08702 6.40498 12 9 12
-1.81096 0.589221 6.42014 52 49 63
-1.96944 3.03661 6.41948 54 53 58
-1.85181 -1.4044 6.76742 70 69 75
-1.62019 -2.26585 6.43945 22 21 23
-1.96746 3.11446 6.41962 65 63 66
-1.97139 3.17252 6.4236 59 58 61
-1.76573 0.0551427 6.42592 61 58 69
-1.84911 -0.870532 6.73922 68 67 78
-1.94256 2.92354 6.44656 71 69 76
-1.89447 2.14714 6.46696 73 71 79
-1.79951 -1.45533 6.74391 76 75 83
-1.8534 1.53129 6.44657 57 56 72
-1.84769 -0.808693 6.73464 69 68 79
-1.84912 -0.870512 6.73923 68 67 78
-1.8329 -0.99391 6.74942 48 47 55
-1.74528 0.0424907 6.45745 62 59 72
-1.7723 0.49538 6.45277 71 68 80
-1.91116 3.01912 6.39942 12 10 13
-1.96362 3.19667 6.48104 39 35 40
-1.92856 2.99473 6.45135 61 61 69
-1.92856 2.99473 6.45135 61 61 69
-1.84945 1.65335 6.49025 69 68 80
-1.92082 2.63982 6.49013 67 65 70
-1.90044 2.47561 6.49519 90 87 94
-1.85662 1.80108 6.52903 74 72 80
-1.6615 -1.74909 6.56327 58 56 63
-1.72734 -0.0523711 6.48365 66 64 78
-1.90002 2.44215 6.48508 20 19 25
-1.74606 -1.4684 6.70771 77 77 87
-1.92078 3.03559 6.47524 52 50 57
-1.76595 1.34482 6.42629 10 9 14
-1.70672 -0.10921 6.47201 6 4 14
-1.80852 1.16986 6.50718 11 10 15
-1.90424 2.61424 6.511 43 41 49
-1.89647 2.67978 6.49512 45 43 50
-1.73107 0.803368 6.40801 64 62 78
-1.83989 1.72298 6.51486 102 100 111
-1.71049 0.0428333 6.48997 72 70 80
-1.78575 0.947298 6.528 16 15 23
-1.7417 0.514363 6.50411 19 15 22
-1.713 0.0735695 6.51589 84 83 90
-1.73055 0.332965 6.52686 3 1 8
-1.73055 0.332965 6.52686 3 1 8
-1.76519 0.953265 6.52989 53 50 57
-1.80605 1.56182 6.52746 54 52 66
-1.65476 0.100009 6.45139 20 18 24
-1.65476 0.100009 6.45139 20 18 24
-1.79622 1.63754 6.52606 44 44 56
-1.69567 0.075292 6.52789 16 14 21
-1.83128 2.13274 6.53551 48 45 53
-1.79078 1.31552 6.56345 51 50 63
-1.79102 1.63814 6.52027 43 43 55
-1.79079 1.50159 6.54257 44 43 58
-1.64262 -0.319608 6.49829 41 39 47
-1.66025 -0.518571 6.54567 21 20 28
-1.76582 1.19309 6.56176 56 54 63
-1.66118 -0.342951 6.55464 107 105 113
-1.72027 0.625622 6.55324 69 75 91
-1.82165 1.93941 6.59184 46 44 57
-1.82165 1.93941 6.59184 46 44 57
-1.74717 -0.335735 6.71164 82 80 88
-1.64494 -0.956416 6.62049 103 102 108
-1.81661 2.18093 6.5605 69 65 70
-1.641 -0.957875 6.61636 102 101 108
-1.64382 -0.771223 6.59746 33 32 37
-1.86632 3.03445 6.57165 54 54 62
-1.57465 -1.67193 6.59447 64 62 65
-1.6705 0.93521 6.49495 15 14 21
-1.62391 -0.763833 6.61678 18 17 22
-1.62391 -0.763833 6.61678 18 17 22
-1.59672 -1.02909 6.60268 71 71 76
-1.58037 -0.930198 6.5672 69 67 74
-1.83803 3.02692 6.5952 57 54 62
-1.59758 -0.433701 6.55661 60 58 71
-1.58187 -1.0715 6.61123 61 60 67
-1.44324 -2.17117 6.50648 24 22 25
-1.55586 -1.46739 6.60896 51 52 57
-1.58463 -0.76985 6.58807 79 77 83
-1.68496 0.773318 6.5981 56 54 65
-1.67064 0.301667 6.64583 61 59 74
-1.63614 0.171417 6.59271 58 55 66
-1.63614 0.171417 6.59271 58 55 66
-1.65681 0.447512 6.64982 49 47 57
-1.7727 2.69251 6.6057 41 38 52
-1.77531 2.18455 6.70229 51 47 55
-1.78311 2.68499 6.65953 44 42 54
-1.65829 0.792652 6.65909 90 91 103
-1.65829 0.792652 6.65909 90 91 103
-1.65829 0.792652 6.65909 90 91 103
-1.67434 1.02226 6.67884 43 44 64
-1.67434 1.02226 6.67884 43 44 64
-1.53529 -1.06155 6.6609 62 64 75
-1.62569 0.402508 6.69428 50 47 59
-1.61544 0.425993 6.67503 46 44 55
-1.77552 2.66568 6.72726 5 3 10
-1.77552 2.66568 6.72726 5 3 10
-1.54198 -1.2469 6.74422 66 64 72
-1.55203 -0.540547 6.68881 74 72 83
-1.54911 -0.540695 6.6847 74 72 83
-1.67267 1.39455 6.72148 54 51 58
-1.62695 0.782781 6.7079 50 50 61
-1.69654 1.81924 6.7279 14 13 20
-1.59196 0.165351 6.725 64 62 72
-1.7563 2.91732 6.73808 44 43 54
-1.68087 1.65414 6.7493 41 40 54
-1.6654 1.18606 6.79595 33 31 37
-1.65983 1.43202 6.7253 61 59 66
-1.66525 1.50475 6.72782 46 45 55
-1.62359 0.863424 6.74256 51 48 64
-1.75125 3.09527 6.74556 69 67 72
-1.69446 1.95709 6.77872 51 48 59
-1.48127 -1.1448 6.73556 84 87 98
-1.75284 3.11847 6.77195 16 14 21
-1.74087 3.07919 6.76165 11 7 14
-1.74087 3.07919 6.76165 11 7 14
-1.42829 -2.20966 6.78421 47 48 53
-1.62535 1.23658 6.75848 43 41 54
-1.48692 -1.09258 6.77085 74 77 90
-1.51579 -0.868754 6.80833 67 65 76
-1.6264 1.08391 6.79283 46 44 53
-1.52068 -0.543524 6.79256 63 62 70
-1.53743 -0.115335 6.79327 19 16 24
-1.59499 0.748668 6.81267 11 9 16
-1.60822 0.199697 6.87742 50 48 56
-1.52814 -0.105101 6.80372 112 109 117
-1.52814 -0.105101 6.80372 112 109 117
-1.55235 0.294071 6.8061 55 54 60
-1.69066 2.4691 6.82682 45 43 52
-1.56919 0.542189 6.81408 13 10 17
-1.54086 -0.084059 6.82471 13 11 17
-1.48375 -0.517506 6.81748 21 19 27
-1.41766 -1.60799 6.81828 22 21 25
-1.56768 1.14733 6.7903 49 46 54
-1.70378 3.04197 6.85198 60 58 69
-1.4695 -0.624275 6.8118 51 50 58
-1.70194 3.04067 6.84965 62 60 72
-1.42764 -1.19996 6.81792 68 67 75
-1.43034 -1.1458 6.85874 56 55 62
-1.56522 1.2071 6.85979 80 79 87
-1.59485 1.5422 6.89404 44 41 52
-1.65258 2.8956 6.84649 47 46 58
-1.66896 2.97552 6.88726 69 67 80
-1.69248 2.12787 7.07677 58 59 66
-1.48854 0.348872 6.83901 51 51 56
-1.55397 0.972504 6.87407 5 4 11
-1.55381 0.972447 6.87382 5 4 11
-1.522 0.603984 6.89555 88 87 99
-1.5917 1.84907 6.93159 54 53 63
-1.46604 0.0850954 6.88392 48 46 56
-1.48108 0.115628 6.91791 69 67 76
-1.47697 0.116518 6.91079 62 60 69
-1.51104 0.496609 6.94193 44 41 53
-1.64236 2.87951 6.93993 13 11 18
-1.5528 1.37303 6.92995 62 60 70
-1.32366 -2.19696 6.90395 18 15 18
-1.51951 0.869219 6.9468 47 45 63
-1.63682 2.91376 6.93571 26 26 34
-1.55296 2.59017 6.85757 78 76 83
-1.5375 1.04447 7.03276 45 43 53
-1.60242 2.61994 6.97796 90 89 96
-1.58019 2.0409 7.01168 11 11 16
-1.59981 3.03579 6.91706 20 17 22
-1.48383 0.613936 6.99185 41 38 48
-1.59935 2.67051 7.01659 98 95 102
-1.53456 1.41334 7.05876 91 89 96
-1.28721 -2.18603 6.99464 25 22 25
-1.43543 0.177262 6.99506 51 50 61
-1.52024 1.33775 7.02529 46 44 51
-1.24212 -2.35747 6.93742 41 40 45
-1.46721 1.21586 7.00265 48 47 54
-1.41093 0.123047 7.02465 55 54 62
-1.45959 1.00663 7.03123 45 44 54
-1.57986 2.81981 7.102 38 36 50
-1.57986 2.81981 7.102 38 36 50
-1.49776 1.68567 7.06602 42 40 48
-1.37696 -0.29529 7.0544 19 16 24
-1.38507 0.115176 7.05144 87 85 93
-1.41734 0.675141 7.05812 49 46 54
-1.35201 -0.45555 7.0526 19 18 26
-1.23772 -1.4561 6.95104 47 46 57
-1.4747 1.69592 7.07959 45 43 53
-1.53322 2.89654 7.07031 49 50 63
-1.53213 3.02542 7.06232 44 42 53
-1.3144 -1.16948 7.11299 16 14 21
-1.57363 3.59467 7.1299 62 57 56
-1.33621 -0.414579 7.09738 53 51 60
-1.532 3.09666 7.12216 15 13 20
-1.36363 0.645703 7.05318 56 54 63
-1.55346 3.59029 7.12427 32 26 25
-1.41822 1.43364 7.09764 48 49 59
-1.32666 -0.300318 7.11211 69 67 76
-1.43644 1.75629 7.11227 50 49 60
-1.51897 2.94665 7.16445 45 44 57
-1.21321 -2.41291 7.10553 33 33 38
-1.42627 2.09635 7.10525 52 51 62
-1.26796 -0.975053 7.15756 56 55 64
-1.4649 2.66741 7.19815 11 9 15
-1.43659 2.25298 7.2221 11 9 15
-1.34648 1.02156 7.15924 51 49 58
-1.50668 3.22389 7.27055 38 34 41
-1.30556 0.107508 7.18647 50 48 61
-1.51577 2.93951 7.3347 21 19 25
-1.27319 0.868594 7.00626 43 42 54
-1.27319 0.868594 7.00626 43 42 54
-1.3968 1.83461 7.22007 8 5 12
-1.39693 1.8347 7.2204 8 5 12
-1.20242 -1.58209 7.21497 16 14 19
-1.26581 -0.0488751 7.1762 17 17 25
-1.20075 -1.58076 7.21159 16 14 20
-1.41916 2.29886 7.24733 58 56 64
-1.26263 -0.706163 7.24938 54 53 59
-1.31082 1.17838 7.14502 49 47 54
-1.40879 2.72662 7.23735 46 44 52
-1.1168 -2.39665 7.25056 24 21 26
-1.31649 0.964067 7.28129 54 53 63
-1.28083 0.089049 7.28292 60 58 69
-1.28495 0.367305 7.30427 41 38 46
-1.29634 0.613154 7.28508 9 7 13
-1.44887 3.54533 7.29003 71 65 66
-1.42894 3.10297 7.31803 14 12 19
-1.453 3.50203 7.32967 62 58 63
-1.30586 1.09938 7.30196 48 46 55
-1.41704 2.78562 7.38897 43 43 51
-1.10336 -2.44836 7.27762 42 41 48
-1.10845 -2.16949 7.25096 17 15 18
-1.24214 -0.0047607 7.32184 48 46 60
-1.19667 -0.499771 7.28405 52 51 57
-1.17672 -0.681195 7.30897 30 28 34
-1.15272 -1.36302 7.40353 18 16 23
-1.2469 0.609065 7.36534 62 60 67
-1.20219 0.0430344 7.33962 58 55 69
-1.35625 2.72582 7.37071 44 44 52
-1.23199 0.775169 7.30963 20 18 28
-1.24859 0.681132 7.3839 42 39 49
-1.05005 -2.32828 7.26956 35 32 38
-1.15565 -0.655124 7.32814 44 42 50
-1.14053 -0.971401 7.33515 65 65 73
-1.15787 -0.905964 7.3781 58 58 62
-1.15265 -1.36299 7.40335 18 16 23
-1.06831 -2.14075 7.35578 23 21 24
-1.36761 3.64605 7.30379 101 94 93
-1.20121 0.296999 7.3593 39 38 50
-1.34658 2.89986 7.43671 13 10 17
-1.34658 2.89986 7.43671 13 10 17
-1.28466 2.6398 7.39318 71 70 76
-1.15505 0.211501 7.34528 53 50 60
-1.25905 2.28779 7.36534 46 45 55
-1.20222 0.468591 7.50762 40 37 47
-1.32655 3.11446 7.48673 10 7 13
-1.25701 2.05377 7.47417 12 10 17
-1.26349 2.24311 7.47506 58 57 64
-1.27693 2.7079 7.45228 44 42 50
-1.21174 1.42883 7.52165 47 45 54
-1.20896 1.82799 7.4713 87 84 92
-1.21177 1.42884 7.52175 47 45 54
-1.24028 3.19648 7.41396 47 43 52
-1.20898 1.82799 7.47131 87 84 92
-1.18888 2.26257 7.37001 55 54 66
-1.10945 0.261181 7.44245 40 39 52
-1.06202 -0.90156 7.48161 17 14 19
-1.07644 0.571302 7.3666 11 9 16
-1.13279 0.398579 7.52225 14 11 18
-1.18045 1.67023 7.4943 42 39 50
-1.15063 0.182303 7.67134 19 17 23
-1.1972 1.98661 7.54206 42 41 56
-1.01334 -1.56172 7.57833 13 11 16
-1.22662 3.63717 7.38038 53 48 49
-1.07018 -0.24097 7.57528 17 15 22
-1.09696 0.132116 7.54887 101 98 106
-1.12217 0.655348 7.56241 30 28 36
-1.2786 3.2501 7.70129 38 34 42
-1.2786 3.2501 7.70129 38 34 42
-1.10027 0.685196 7.55197 41 39 47
-1.03007 -0.670893 7.59195 32 31 37
-1.22673 3.63646 7.56804 57 48 47
-1.08396 0.623362 7.59422 52 50 57
-1.05084 0.240558 7.5717 37 35 46
-1.21382 3.05193 7.69778 37 35 48
-1.08836 1.35904 7.55082 36 35 49
-1.19673 2.77786 7.70409 45 43 52
-1.19858 3.55263 7.58916 33 24 25
-1.23439 3.4746 7.74163 48 45 51
-1.157 2.42676 7.66673 56 54 64
-1.08923 1.1717 7.66947 56 55 65
-1.0355 -0.0114972 7.61346 47 47 54
-1.08499 1.0924 7.67325 42 41 51
-1.08499 1.0924 7.67325 42 41 51
-1.14237 2.27706 7.72621 11 9 16
-1.02654 0.451581 7.64449 42 40 47
-1.02345 0.454299 7.6366 41 39 46
-1.04439 0.684077 7.70221 42 42 53
-1.07883 1.63228 7.71275 13 12 19
-1.09997 1.92455 7.75269 55 55 64
-1.11477 2.29845 7.7506 49 47 53
-1.04602 1.02369 7.72051 25 23 30
-1.07307 2.32448 7.72413 46 44 52
-1.1348 3.68086 7.67007 58 53 52
-0.972888 0.440116 7.76057 36 34 41
-0.914305 -2.23513 7.9612 19 16 22
-0.914305 -2.23513 7.9612 19 16 22
-0.85869 -1.64015 7.74964 38 36 47
-1.11868 3.01089 7.9343 42 40 53
-1.0795 2.82773 7.82626 36 35 49
-1.23604 3.83569 8.16677 44 37 37
-0.926837 0.238365 7.76499 45 43 50
-0.9298 -0.440379 7.9006 27 27 31
-1.05664 1.83496 8.0083 38 37 48
-1.06957 3.63261 7.72811 48 42 41
-0.983127 1.55676 7.79872 39 37 49
-1.05078 3.64529 7.67663 46 42 41
-1.06636 2.93384 7.93865 6 5 14
-0.864639 -0.675356 7.8028 57 57 63
-1.09444 3.22887 7.99692 35 31 38
-0.850209 -0.870298 7.80108 14 11 19
-0.917148 0.737968 7.85877 41 38 48
-1.03331 2.93134 7.93963 41 39 51
-0.801727 -1.54813 7.86433 37 35 41
-0.869878 -0.117948 7.91578 41 39 48
-0.869878 -0.117948 7.91578 41 39 48
-1.02988 2.72154 8.01825 92 89 97
-1.02991 2.72159 8.01837 92 89 97
-0.860173 -0.040438 7.90846 51 50 61
-0.811166 -0.889854 7.873 43 42 49
-0.966905 3.65533 7.70928 59 56 57
-0.892804 0.858596 7.95565 45 43 52
-0.908639 0.727422 8.04999 42 40 49
-0.847357 -0.116643 8.00058 38 37 48
-0.993711 3.33518 8.00249 60 56 60
-0.950639 3.66112 7.74902 55 51 50
-0.808023 -0.330483 7.94769 38 36 48
-0.901932 1.44144 7.97132 18 16 23
-0.931631 2.14351 8.02537 39 39 51
-0.931631 2.14351 8.02537 39 39 51
-0.866093 1.03609 8.03438 8 7 14
-0.860816 0.826941 8.03103 9 7 14
-0.843882 0.621782 8.03579 36 35 43
-0.784952 0.403365 7.86207 11 8 16
-0.911996 2.06845 8.03293 15 13 21
-0.938717 2.82376 7.99857 32 30 44
-0.80273 -0.0639116 8.03247 52 51 63
-0.80273 -0.0639116 8.03247 52 51 63
-0.860666 1.29554 8.03334 42 38 49
-0.98547 3.24104 8.20928 34 30 37
-0.844061 1.01191 8.03714 40 41 48
-0.774868 -0.210341 8.05248 22 21 27
-0.790814 -0.167498 8.10425 52 52 60
-0.782441 -0.150076 8.06567 66 66 74
-0.803754 0.524667 8.02574 37 35 47
-0.82733 1.06364 8.04557 59 60 73
-0.844911 3.65105 7.60504 59 55 56
-0.934682 3.2243 8.13588 40 36 43
-0.9408 3.65701 8.18862 45 36 35
-0.826443 -0.22808 8.29734 23 22 29
-0.765302 0.477693 7.97905 38 36 49
-0.892673 2.93618 8.11906 33 31 45
-0.803914 3.68093 7.55207 76 69 69
-0.803914 3.68093 7.55207 76 69 69
-0.783728 -0.0445834 8.26123 47 46 54
-0.798539 1.11703 8.11397 38 37 51
-0.750574 -0.0816224 8.1555 37 35 43
-0.921762 3.50155 8.17168 30 25 27
-0.769042 3.67217 7.5221 59 54 54
-0.765194 0.741681 8.1483 39 37 48
-0.86854 2.33208 8.31848 31 31 38
-0.834227 3.6757 7.91392 62 57 58
-0.719522 0.494625 8.14452 36 34 47
-0.602887 -2.01959 8.11802 37 37 45
-0.83218 3.23188 8.16062 34 31 37
-0.797441 3.71281 7.86681 109 106 107
-0.772847 3.64333 7.78608 89 86 87
-0.875795 3.64037 8.32486 49 41 41
-0.705687 0.309583 8.19808 61 60 72
-0.788578 2.72795 8.14109 37 35 49
-0.771474 2.4096 8.17211 47 45 53
-0.683791 0.831355 8.11262 3 2 8
-0.82606 3.6073 8.25661 35 27 26
-0.586031 -1.13624 8.0886 32 31 41
-0.619043 -1.31976 8.34217 37 34 42
-0.755402 2.96162 8.17926 46 45 61
-0.808839 3.16362 8.40566 12 11 19
-0.808839 3.16362 8.40566 12 11 19
-0.70722 1.42951 8.31323 41 40 50
-0.688586 1.1416 8.29391 37 35 47
-0.60459 -0.407177 8.34479 9 7 13
-0.699399 1.74683 8.31267 41 39 52
-0.689201 3.22216 8.09119 52 47 53
-0.610732 -0.227007 8.33206 53 53 63
-0.611327 -0.228306 8.33507 53 53 63
-0.762863 3.49611 8.30905 51 45 49
-0.749467 2.92752 8.38843 65 63 72
-0.599088 -0.618086 8.38432 51 49 55
-0.706484 2.13934 8.34134 42 41 51
-0.747016 3.07577 8.39776 37 36 45
-0.749152 2.92703 8.38742 65 63 72
-0.709229 2.66005 8.39152 51 50 58
-0.61023 3.70545 7.63216 61 56 55
-0.50143 -1.24018 8.21888 17 15 22
-0.626946 0.931347 8.443 34 32 44
-0.712625 3.68558 8.34763 52 45 44
-0.638714 1.6831 8.4482 8 6 16
-0.600764 1.26608 8.44539 30 28 36
-0.641249 3.86346 7.98068 117 111 111
-0.580682 0.860754 8.48603 11 10 18
-0.575145 1.05056 8.45118 12 12 20
-0.718087 3.3412 8.68593 40 37 45
-0.718087 3.3412 8.68593 40 37 45
-0.522941 0.372837 8.40274 47 43 55
-0.635069 2.06782 8.66012 38 34 44
-0.670643 3.48549 8.57996 36 31 35
-0.447851 -1.12459 8.39159 30 29 38
-0.589827 2.20434 8.45711 44 41 55
-0.589827 2.20434 8.45711 44 41 55
-0.623112 3.62175 8.2848 84 78 77
-0.645899 3.08015 8.60483 49 47 61
-0.42574 -0.96621 8.2652 42 42 50
-0.625257 3.6692 8.41318 51 45 44
-0.538309 0.980166 8.58407 37 37 45
-0.639561 3.57756 8.57659 37 32 33
-0.556183 1.65026 8.62611 45 43 55
-0.50397 3.69444 7.77394 66 60 61
-0.334694 -1.90865 8.27186 32 29 36
-0.538305 1.71854 8.63996 42 41 53
-0.627589 3.28285 8.88696 32 30 37
-0.415367 -0.562997 8.54838 40 40 47
-0.588902 2.81804 8.66625 27 24 35
-0.432092 0.390298 8.54992 32 30 38
-0.377752 -1.49144 8.75761 22 20 25
-0.523918 3.64606 8.4079 52 47 48
-0.523918 3.64606 8.4079 52 47 48
-0.410735 -0.0689884 8.6526 31 28 38
-0.468195 1.74229 8.66752 54 56 71
-0.435105 3.67725 7.94551 77 72 73
-0.512505 2.81952 8.77672 34 32 45
-0.406701 3.55342 8.01563 75 68 71
-0.471832 3.43141 8.58116 40 36 40
-0.394233 3.69238 7.78261 85 79 81
-0.516291 3.62151 8.85455 22 15 16
-0.372875 3.72272 7.75873 97 91 94
-0.393726 1.41074 8.71855 51 51 62
-0.447246 2.49147 8.84414 42 41 51
-0.438868 1.43074 9.03266 46 48 59
-0.425932 2.26063 8.85 63 61 70
-0.38676 3.707 8.12422 91 85 87
-0.329482 3.64938 7.85371 92 87 90
-0.329482 3.64938 7.85371 92 87 90
-0.477604 3.60654 8.8905 37 30 31
-0.368738 1.30427 8.77858 69 69 79
-0.282007 -1.48226 8.88541 15 12 17
-0.330454 0.571983 8.86673 34 30 42
-0.475333 2.75687 9.19677 46 47 59
-0.343827 1.24824 8.83081 63 62 72
-0.342959 3.70798 8.07589 51 46 48
-0.396121 2.74464 8.90094 38 37 47
-0.344612 3.66085 8.23555 85 79 80
-0.238883 -0.399369 8.7576 42 39 47
-0.295875 3.68483 8.10533 74 69 70
-0.31584 3.73313 8.23463 108 102 104
-0.368588 3.65678 8.9334 77 70 68
-0.254292 3.65391 8.00047 82 78 79
-0.301571 1.80441 9.0994 31 30 41
-0.258236 0.557876 9.03261 19 17 25
-0.116058 -2.00004 8.86009 18 15 20
-0.226004 3.72108 7.80032 93 90 92
-0.282286 3.5148 8.67089 104 97 96
-0.165549 -0.828902 9.00364 41 41 55
-0.318535 3.6039 9.03765 42 32 33
-0.121488 -2.20676 9.30482 31 30 39
-0.112084 -0.852739 8.704 39 40 55
-0.112084 -0.852739 8.704 39 40 55
-0.226474 3.70926 8.16909 91 85 88
-0.258254 3.6933 8.59219 55 50 50
-0.249325 1.93209 9.1621 40 38 45
-0.210223 2.03028 8.84277 29 27 34
-0.183384 0.484558 9.10816 5 3 10
-0.297914 3.55407 9.20933 32 27 31
-0.17442 0.648957 9.21665 30 29 39
-0.17442 0.648957 9.21665 30 29 39
-0.104328 0.346936 8.98768 33 30 38
-0.216162 3.37824 9.04976 48 44 48
-0.113655 0.377947 9.18624 34 31 39
-0.23067 3.62727 9.24093 34 26 27
-0.121252 1.56768 9.26793 54 55 69
-0.200706 3.64519 9.34245 33 26 27
-0.120804 3.72399 8.52434 118 111 112
-0.18955 3.69044 9.32297 60 51 51
-0.128353 2.12922 9.31982 7 5 13
-0.128353 2.12922 9.31982 7 5 13
-0.131401 3.71287 8.77659 83 77 80
-0.16012 3.38864 9.37551 49 45 52
-0.10678 3.76888 8.5221 62 57 59
-0.17372 3.26964 9.35952 26 24 32
-0.0658656 1.56158 9.26945 36 34 47
0.0349577 -1.39373 9.35271 29 27 30
-0.0385156 1.3246 9.38716 12 10 17
-0.0625334 3.68323 8.53079 93 87 90
0.119585 -3.43704 9.79632 36 39 43
-0.111679 3.27067 9.49585 33 29 37
-0.111679 3.27067 9.49585 33 29 37
-0.0647421 2.44348 9.28499 50 49 60
-0.108388 3.40216 9.47279 40 36 41
-0.0181465 1.65489 9.36616 33 30 44
0.0655707 -0.664457 9.33946 42 40 49
-0.065777 3.38605 9.3299 29 25 29
-0.0317657 3.0133 9.51393 31 30 43
-0.0151885 2.72293 9.48411 21 20 29
0.177309 -3.49798 9.86412 43 45 46
-0.0032655 2.78439 9.46359 33 32 45
0.0881164 0.269625 9.48021 43 42 50
0.0408908 3.7356 8.29445 91 85 88
0.209429 -2.33021 9.1987 14 13 16
0.0935679 0.426228 9.70242 44 42 49
-0.0109183 3.92011 9.10812 88 82 83
0.087381 3.74791 8.00584 101 95 98
0.0126447 3.17519 9.71975 32 30 38
0.0587425 2.83068 9.50384 61 63 76
0.0892868 3.66854 8.73913 100 93 94
0.199651 -0.811564 9.19277 35 35 43
0.028967 3.67998 9.77514 36 29 30
0.0893434 3.75667 8.60973 68 65 68
0.246382 -1.48422 9.2844 29 28 37
0.0933567 2.89215 9.57896 11 11 21
0.0713508 3.56328 9.72738 57 52 55
0.0979752 3.16183 9.83627 9 8 14
0.121664 3.05076 9.72188 33 32 43
0.133388 3.14495 9.81178 14 12 18
0.16215 3.62831 8.77794 101 93 95
0.247207 0.105606 9.59625 37 35 42
0.145043 3.63773 9.86812 32 25 26
0.149745 3.61268 9.81899 31 25 26
0.236448 1.20734 9.61665 66 65 76
0.193935 3.71896 8.41931 67 63 66
0.167556 3.4426 9.88026 54 51 58
0.272748 -0.801679 10.3308 16 14 20
0.19444 3.71938 9.07334 80 73 75
0.273366 1.1216 9.27137 46 45 55
0.30169 0.890374 9.7307 34 33 43
0.245798 2.34181 10.1619 49 48 59
0.236073 3.70022 9.53678 86 81 83
0.259478 2.72311 9.8924 17 15 27
0.263624 3.71803 9.26768 66 61 63
0.351592 0.654499 9.71878 50 48 57
0.342276 1.1674 9.80144 39 36 45
0.322234 1.88914 9.76521 10 9 17
0.400684 -0.224887 9.83732 23 20 28
0.308864 3.07232 10.1023 42 40 53
0.416471 -0.044554 9.85778 48 45 54
0.322181 3.76519 9.38274 79 73 74
0.344861 3.74092 8.73354 60 56 60
0.413533 1.77291 9.90049 38 38 50
0.370323 3.75507 8.1832 86 81 84
0.485661 -0.0203572 10.0273 59 56 67
0.37736 3.73174 9.00635 60 57 60
0.373164 3.80424 9.44854 99 92 94
0.40227 3.74986 8.64628 58 53 57
0.530771 -0.290131 10.0707 41 42 48
0.429208 3.66025 8.64778 55 52 55
0.418906 3.75729 8.1911 63 56 60
0.436647 3.59468 8.51861 69 66 69
0.514514 1.12376 10.0178 66 64 75
0.616379 -1.87047 10.03 22 19 25
0.445232 3.72599 8.41761 90 84 87
0.445232 3.72599 8.41761 90 84 87
0.531754 1.46288 10.0152 46 45 56
0.482233 3.48147 9.7973 78 71 70
0.536193 1.99299 10.1713 41 40 50
0.497724 3.73761 9.37766 85 80 83
0.597526 0.149954 10.0472 20 18 26
0.586989 1.12046 10.0108 10 9 18
0.627288 -0.0025318 10.1771 58 60 70
0.64525 0.116236 10.3125 38 38 50
0.597072 1.83787 10.1119 40 38 48
0.669499 -0.574079 10.2893 42 40 48
0.51659 3.75689 8.34985 66 61 63
0.628584 1.27219 10.2175 36 35 46
0.697306 0.665688 10.2839 60 58 72
0.68811 1.46011 10.2926 41 41 54
0.713375 1.39939 10.2045 42 41 52
0.715388 1.65543 10.4822 35 34 49
0.73316 1.41976 10.5359 41 39 51
0.66082 3.72476 9.80273 61 54 57
0.634049 3.76784 8.52251 82 77 80
0.683627 3.72651 9.75305 79 73 76
0.697934 3.74255 9.76237 97 92 95
0.676505 3.65052 8.66974 72 68 71
0.86632 -0.619133 10.3659 21 20 27
0.683452 3.72514 8.62038 93 88 91
0.683452 3.72514 8.62038 93 88 91
0.731678 3.61612 9.66357 98 93 96
0.721697 3.70656 9.0575 89 84 87
0.8794 1.79256 10.3713 40 38 53
0.784963 3.8964 9.37754 76 73 75
0.732518 3.78156 8.28952 54 49 50
0.838979 3.71267 9.82631 82 79 82
0.867536 3.74169 9.61971 71 66 70
0.879487 3.61221 9.20663 94 90 94
0.871063 3.82021 8.30281 82 76 77
-1.66025 -0.518572 6.54568 21 20 28
-2.14113 0.488506 5.879 7 6 13
-1.74868 2.2463 6.73805 11 10 15
0.116962 3.72047 8.91184 76 69 70
-0.196167 3.66593 8.30072 96 90 91
-1.46214 1.89208 7.39534 78 76 85
-1.34327 1.17339 7.25229 95 94 101
-1.59575 0.555262 6.80196 21 19 25
-1.75463 0.751017 6.50583 20 18 26
-0.813917 1.88041 8.1815 5 3 11
-1.71032 0.735191 6.41848 66 65 74
-1.64223 2.87936 6.93971 13 11 18
-1.92084 2.63983 6.49016 67 65 70
-1.3935 -0.0542496 7.06042 7 6 14
-1.34039 -0.452558 7.03107 17 16 23
-2.14371 1.35534 6.03319 82 79 87
-1.69655 1.81924 6.72792 14 13 20
-1.42941 0.793011 7.03603 33 32 40
-1.75139 1.14327 6.39772 70 68 75
-1.71605 1.99471 6.74943 96 95 102
-0.901102 1.24943 7.98701 9 7 15
-1.61339 2.46666 6.99958 7 6 13
-1.98885 0.549009 6.11293 93 92 100
-2.02393 -0.136445 6.06198 117 114 122
-2.05296 0.32591 6.01135 82 80 88
-1.88855 2.19502 6.50189 84 82 86
-1.88849 2.22276 6.51404 8 5 8
-1.88784 0.932802 6.16767 87 85 91
-0.455462 3.68797 7.99544 119 114 115
-1.58119 2.0418 7.01338 11 11 16
-1.87783 2.59913 6.41461 50 48 55
-2.00472 1.79071 6.23965 19 17 24
-2.14191 1.56742 5.99688 16 14 20
-1.06635 2.93384 7.93863 6 5 14
-2.00476 1.79074 6.23969 19 17 24
-2.06529 0.3158 6.02528 16 15 23
-0.688579 0.421674 8.2636 13 12 20
-2.06429 0.557623 6.23487 56 54 63
-1.30675 0.784064 7.28989 14 13 20
-1.86625 0.279635 6.24293 56 54 61
-1.57487 0.334787 6.78634 14 13 20
-1.84307 1.60268 6.50513 32 31 40
-1.82748 -1.21625 6.74815 60 58 67
-1.22418 1.64432 7.48829 10 8 16
-1.58015 2.04086 7.01158 11 11 16
-2.17668 0.248233 5.73925 61 59 65
-1.49483 2.91428 7.28382 17 15 20
-1.75548 2.44797 6.75181 96 94 101
-1.77547 2.66562 6.72714 5 3 10
-1.22415 1.64427 7.48816 10 8 16
-2.23373 2.63733 5.98451 77 76 79
-1.00701 0.804568 7.74843 10 8 16
-1.73048 0.332984 6.52672 3 1 8
-2.27375 1.34896 5.73178 51 50 58
-1.89621 0.58618 6.2585 112 111 121
-1.54361 -0.105543 6.827 110 108 115
-2.13604 0.0942716 5.91323 74 73 82
-2.26203 1.07641 5.75223 18 15 23
-2.06053 0.557666 6.22879 56 54 63
-1.19552 1.01419 7.57189 49 47 54
-1.61336 2.46663 6.99952 7 6 13
-1.93515 0.949362 6.2486 40 37 44
-1.89807 0.563554 6.28017 50 48 57
-1.33654 0.999828 7.22846 78 76 84
-1.98425 1.39313 6.24808 7 4 11
-1.64237 2.87952 6.93995 13 11 18
-1.7487 2.24631 6.73808 11 10 15
-1.25703 2.05377 7.47422 12 10 17
-2.12901 -0.633883 5.80963 39 37 45
-1.12418 3.13619 7.86866 19 17 23
-1.19425 1.2191 7.48296 24 22 30
-2.51368 -1.05136 6.88274 5 3 7
-2.08595 2.65551 6.21176 17 16 21
-1.10362 1.8572 7.70726 12 9 16
-1.12414 3.13617 7.86863 19 17 23
-2.24017 0.926316 5.74526 8 7 16
-1.13282 0.398674 7.5223 14 11 18
-1.85661 1.80107 6.52902 74 72 80
-1.52404 1.6178 6.9901 76 72 79
-1.42376 1.04021 7.47171 53 50 58
-1.31077 1.17836 7.1449 49 47 54
-1.89096 2.02751 6.50721 12 11 16
-1.69655 1.81925 6.72792 14 13 20
-2.25583 1.73241 5.66393 64 61 66
-2.22852 0.691084 5.78264 73 71 79
-2.18451 2.19286 5.99325 95 94 98
-1.13797 0.792722 7.49799 10 8 17
-1.23019 -0.249132 7.31026 33 33 40
-1.17398 2.69419 7.70928 11 10 18
-1.82786 1.60949 6.51977 52 51 61
-0.780781 3.63767 7.83415 109 105 106
-0.635404 1.85598 8.33883 66 63 71
-1.02987 2.72152 8.01821 92 89 97
-2.27193 1.12762 5.78055 60 58 65
-1.50761 -0.51647 6.8085 106 105 112
-0.673364 2.08191 8.41795 7 6 13
-1.8904 -1.69438 6.05098 26 23 31
-1.74101 3.07944 6.7619 11 7 14
-2.04459 -0.0804369 5.97368 47 47 56
-1.56572 -1.64652 6.62488 35 32 36
-0.850854 1.2072 7.77492 61 59 67
-1.45616 0.542082 7.02582 73 72 79
0.298926 2.33843 9.97097 39 39 47
-0.772875 3.67199 8.14304 122 117 117
-0.918275 1.84281 7.92813 51 49 56
-0.671649 3.69676 8.28683 86 81 80
-1.69283 -0.325053 6.59977 95 93 101
-0.791035 3.69404 7.91563 77 74 74
-1.52696 -0.286153 6.80121 36 32 39
-0.567691 3.69787 7.81539 101 94 95
-0.563464 3.62602 8.30771 84 79 79
-1.49277 3.03092 7.018 39 37 44
0.0045782 2.31388 9.46895 38 37 45
-2.19073 0.0687847 5.75478 98 97 105
-1.70616 0.103008 6.5549 23 23 28
-2.38994 2.64143 5.71012 49 45 51
-1.36813 1.20891 7.18763 101 99 108
-1.33784 1.00391 7.3 40 38 44
-1.3977 0.152327 7.07964 16 15 22
-1.32275 -0.743226 7.0835 32 30 37
-1.58179 2.20925 6.96455 67 64 70
-0.906464 3.67947 7.80814 58 54 54
-0.992213 0.62583 7.76088 5 4 12
-0.526969 2.07354 8.6035 24 22 30
-0.190759 1.67763 8.99476 30 29 38
-1.42119 -1.39463 6.81474 42 40 47
-1.58745 -0.733609 6.58505 91 89 97
-1.67025 -0.762906 6.70688 76 74 82
-1.77822 2.442 6.67683 89 87 94
-1.61819 -0.778483 6.60334 10 8 13
-1.1102 1.92162 7.70557 10 11 19
-2.09831 0.10837 5.82047 100 100 109
-2.06082 0.0678844 6.09521 88 87 95
0.870361 0.58983 10.6531 14 12 19
-1.12406 3.13603 7.86839 19 17 23
-1.6444 -0.991384 6.61519 39 36 43
-2.2368 0.25159 5.7938 37 35 42
-1.31458 -0.93085 7.11224 75 74 81
-0.996064 3.66387 7.61048 123 120 121
-1.72512 0.141074 6.4725 67 67 74
-1.83292 -0.993918 6.74945 48 47 55
-2.02045 2.19984 6.22291 85 82 90
-1.47382 -0.984201 6.86219 13 11 17
-0.744044 1.05192 8.20029 34 32 38
-1.0415 3.65912 7.65188 118 114 115
-0.688505 0.421657 8.26331 13 12 20
-1.23133 0.353844 7.1483 39 38 45
-0.688584 0.421673 8.26367 13 12 20
-0.531116 1.90919 8.71113 16 14 22
-1.67776 1.55143 6.7388 20 18 26
-0.429602 2.51001 8.81649 36 35 44
-0.86935 3.65673 7.94197 120 115 114
-1.51578 0.322604 6.65298 42 42 49
-0.638675 3.67756 8.08535 42 39 40
-1.17673 -0.681201 7.30899 30 28 34
-1.61371 0.730657 6.86243 28 26 36
0.123699 3.71894 9.02612 120 115 116
-1.66163 -0.0769307 6.54907 96 95 104
-1.97065 -0.375466 6.05253 121 120 128
-1.87765 0.741899 6.38525 117 115 123
-0.638715 1.68311 8.44821 8 6 16
-2.15345 -0.153942 5.789 115 114 121
-2.28122 1.38582 5.71868 69 69 79
-1.59579 0.555269 6.80203 21 19 25
-0.774859 -0.210366 8.05244 22 21 27
-1.85625 -0.151366 6.28523 75 75 82
-2.13553 1.19057 5.99406 24 22 30
-2.09831 0.10837 5.82047 100 100 109
-0.33781 3.67864 8.21448 107 101 102
-0.860333 0.826718 8.02908 9 7 14
-1.55569 0.170374 6.76527 95 93 101
-2.01302 2.19419 6.2033 75 73 80
-2.07903 0.26359 5.88109 74 72 82
0.126264 2.5338 9.7264 16 13 21
-0.512543 3.68199 8.11207 88 82 83
-0.0152007 2.72307 9.48446 21 20 29
-0.89548 3.70153 7.74929 44 41 41
-0.497124 3.68873 7.94004 36 31 32
-2.01851 1.34076 6.16866 95 95 106
-0.860763 3.63001 7.89969 99 94 93
-0.507834 3.64357 8.31909 54 49 51
-1.92963 2.24225 6.38514 97 94 103
-1.89721 -1.7159 6.03164 63 61 67
0.322018 1.88996 9.7683 10 9 17
-2.04475 -0.0804486 5.97389 47 47 56
-1.4579 -1.61843 6.82678 51 50 56
-1.57031 -1.42016 6.63247 12 10 14
-2.14137 0.565707 5.93481 104 101 114
-1.75464 2.44183 6.6755 99 98 105
-0.569386 0.872243 8.51511 71 71 78
-1.53116 0.735925 6.85229 33 31 39
-1.19787 3.65581 7.60778 142 136 135
-2.17031 0.537095 5.86688 62 60 72
-2.14618 -0.353427 5.75835 33 32 41
-1.3778 0.356712 6.90753 108 107 115
-1.81388 2.2923 6.60834 92 89 97
-0.340221 3.69594 8.06078 53 48 50
-0.534764 2.28441 8.62859 48 47 55
-1.33206 2.13031 7.69844 14 13 20
-1.78813 -1.69973 6.22303 43 41 47
-1.77972 -1.68443 6.24573 49 47 54
-2.28739 1.52481 5.74383 89 88 94
0.600332 1.92505 10.2502 16 14 22
-1.45789 -1.61843 6.82677 51 50 56
-1.22416 1.64429 7.48821 10 8 16
-0.464137 3.71626 8.03389 116 110 111
-0.778387 3.63121 7.82354 109 105 106
-1.00767 0.804246 7.74999 10 8 16
-1.85662 1.80107 6.52902 74 72 80
-1.56757 1.22846 7.15733 25 23 30
-0.429579 2.50996 8.81639 36 35 44
-1.75141 1.14327 6.39775 70 68 75
-1.65987 1.43203 6.72536 61 59 66
-2.29128 1.54263 5.74571 80 76 83
-1.67278 1.3946 6.72165 54 51 58
-0.866402 0.829653 8.05529 10 8 15
-1.58121 2.04182 7.01342 11 11 16
-0.429623 2.51005 8.81659 36 35 44
-2.30575 -0.964512 6.15532 63 66 88
-1.62189 -0.980929 6.63744 14 12 18
-1.83288 -0.9939 6.74939 48 47 55
-1.47382 -0.984204 6.8622 13 11 17
-1.83286 -0.993893 6.74937 48 47 55
-2.2719 1.1276 5.78051 60 58 65
-1.10364 1.85722 7.70732 12 9 16
-1.36036 1.41297 7.20963 16 15 23
-2.26204 1.07641 5.75223 18 15 23
-1.53458 1.41334 7.0588 91 89 96
-1.19431 1.21912 7.48308 24 22 30
-1.36041 1.413 7.20972 16 15 23
-1.16191 0.572255 7.524 70 68 76
0.0124036 2.46393 9.34277 16 16 24
-1.39419 -1.13167 6.74566 79 76 83
-2.08648 2.79048 6.21009 34 31 37
-1.64378 -0.771214 6.59741 33 32 37
-1.32275 -0.743228 7.08351 32 30 37
-2.14093 0.565654 5.9342 104 101 114
-1.90583 2.82232 6.35698 56 53 58
-0.821649 3.49247 7.43146 93 90 92
-0.772732 3.67153 8.14229 122 117 117
-0.440261 3.68094 8.23713 71 65 68
-2.11093 -0.59794 5.79049 51 48 56
-2.11216 -0.595189 5.79105 44 41 49
-1.15591 2.09941 7.85488 21 19 27
-1.963 2.88974 6.46047 14 11 16
-0.128325 2.12915 9.31959 7 5 13
-2.23373 2.63733 5.9845 77 76 79
-2.16731 1.77542 5.99973 91 88 95
-1.22694 -0.705158 7.46551 44 42 49
-1.66315 3.11008 6.97794 14 12 16
0.117011 3.72027 8.9115 76 69 70
-0.232901 3.72593 8.41292 45 38 41
-1.09712 0.00285186 7.55235 18 17 24
-1.6442 2.16091 6.58629 45 43 50
-1.5162 2.73663 7.33368 63 61 67
-0.674852 3.70932 8.30753 85 80 79
-1.50756 -0.516451 6.80838 106 105 112
-1.28647 0.586179 7.27379 40 38 44
-1.64958 3.0611 6.95452 47 44 51
-1.93203 0.964061 6.27793 40 38 45
-1.78107 0.929004 6.50529 63 62 71
-1.87891 0.927161 6.15188 89 86 93
-1.05828 -0.438228 7.57959 68 67 74
-1.49276 3.03092 7.018 39 37 44
-2.10191 0.092181 5.88007 37 36 45
-2.6604 -1.06415 6.52895 19 20 41
-1.84295 1.60263 6.50498 32 31 40
-1.93509 0.949345 6.24854 40 37 44
-2.13565 -0.351178 5.74926 57 56 65
-2.1445 -0.351381 5.77398 42 42 50
-2.18334 0.0864238 5.74676 42 42 49
-0.638746 1.68314 8.44833 8 6 16
-1.83939 -0.33163 6.30134 32 31 40
-1.42586 0.362103 7.03102 67 65 73
-1.84573 -0.297846 6.31504 10 9 18
-1.20245 -0.495607 7.2878 53 52 59
-1.47261 -0.279847 6.67675 83 81 88
-2.05847 2.62878 6.20142 28 26 32
-1.52695 -0.286138 6.80122 36 32 39
-1.23027 -0.249143 7.31043 33 33 40
-1.12412 3.13613 7.86856 19 17 23
-2.3329 2.38191 5.70028 31 28 33
-1.84587 1.62199 6.55409 61 60 69
-1.1564 0.82269 7.53864 8 6 14
-1.15316 1.24059 7.59058 111 109 118
-2.03421 -0.138243 6.037 99 97 105
-2.02397 -0.136449 6.06202 117 114 122
-2.13978 0.518114 5.87325 111 110 119
-1.30366 2.49593 7.45829 41 39 47
-1.53192 -0.104884 6.80621 104 103 111
-1.70683 -0.109227 6.4722 6 4 14
-1.59308 2.81402 6.82685 65 63 70
-1.70629 -0.0962592 6.55749 76 75 85
-1.89096 2.02751 6.50721 12 11 16
-1.64224 2.87937 6.93973 13 11 18
-1.18597 -0.054222 7.14865 46 45 52
-1.32656 3.11447 7.48674 10 7 13
-1.33621 -0.0533467 6.91147 40 37 45
-1.68422 -0.0670034 6.57323 52 52 60
-1.39351 -0.0542494 7.06043 7 6 14
-1.57536 0.726929 6.74402 48 46 53
-1.59266 0.729255 6.73535 67 66 74
-2.25757 1.73355 5.66623 64 61 66
-1.86858 2.03575 6.47511 24 22 27
-1.71432 0.0783276 6.53291 88 85 91
-1.12416 3.13617 7.86863 19 17 23
-1.87324 0.0969327 6.26476 17 16 24
-1.7062 0.103006 6.555 23 23 28
0.795452 1.36887 10.569 32 30 39
-1.56381 0.138236 6.76465 45 43 51
-2.09832 0.108369 5.82049 100 100 109
-1.72035 0.140787 6.46314 66 66 73
-2.09827 0.108369 5.82042 100 100 109
-1.99055 1.57362 6.26141 38 37 44
-2.30319 2.16005 5.66924 49 46 51
-1.55563 0.170377 6.76515 95 93 101
-1.34662 2.89987 7.43676 14 12 19
-1.33785 1.00391 7.30002 40 38 44
-0.688505 0.421656 8.26331 13 12 20
-1.61261 2.65886 6.99336 61 59 66
-2.07404 0.26273 5.8762 74 72 82
-1.13283 0.39867 7.52231 14 11 18
-1.68647 0.3263 6.43926 65 64 72
-1.60749 2.62362 6.98748 96 95 103
-1.98895 0.285762 5.93408 36 34 41
-2.18477 2.19302 5.99351 95 94 98
-2.18493 2.19311 5.99366 95 94 98
-2.04861 0.295099 6.02396 14 12 20
