ply
format ascii 1.0
element vertex 706
property float x
property float y
property float z
property uchar red
property uchar green
property uchar blue
end_header
-2.1879758146187687 1.3371394357835098 2.815477573493952 114 114 114
-2.1097012390753576 -0.3327049461063916 2.5342341645479842 109 109 109
-2.1097012390753576 -0.3327049461063916 2.5342341645479842 109 109 109
-2.0449610487318246 -1.9671219978107841 2.2346650528164633 91 91 91
-2.0864335053531975 -1.0184291336046563 2.3828550846834307 101 101 101
-2.1469235990287427 0.5235301996097722 2.682638135518386 110 110 110
-2.100797106565687 -0.4736349316147726 2.528024268259181 20 20 20
-2.118849889035325 0.07387383398748584 2.6094341938665075 91 91 91
-2.045878538898669 -1.5534468932386527 2.3029626346410335 82 82 82
-2.0216341648811853 -2.001736220327433 2.2131294649255553 90 90 90
-2.0520827718322288 -1.144892558559317 2.3764939123649165 101 101 101
-2.099073014809813 0.07021512073917616 2.6407438103716543 89 89 89
-2.083688526388915 -0.33326917236964376 2.5341683780909245 127 127 127
-2.050157550964383 -1.1397658255283991 2.3648184257799643 98 98 98
-2.060737332064036 -0.5914690438097274 2.479075978768082 90 90 90
-2.0743217686717257 -0.18851205496708012 2.567146322621912 65 65 65
-1.9884621907288764 -1.9718896632828515 2.2268815973926994 65 65 65
-2.084550846100161 0.16293292201116982 2.642375330603563 33 33 33
-2.0263532968962545 -0.9058020132691715 2.383788014491216 24 24 24
-2.001321057098586 -1.6886105024155744 2.258673802844155 115 115 115
-2.053892254193586 -0.043297563186428745 2.5661611115551675 26 26 26
-1.999034654808489 -1.656999977962024 2.27301559894159 89 89 89
-1.9991636588534445 -1.592304751838365 2.3000946986087247 88 88 88
-2.1216451142348407 1.45337885025832 2.8781322565887204 76 76 76
-1.9838506205415158 -1.8007636741037285 2.3435235932488223 33 33 33
-2.1289269467092446 1.8362382116967084 2.9799420935114687 95 95 95
-2.022405307217408 -0.6806363565637803 2.4329346780051284 98 98 98
-2.033089159493569 -0.39753594748347626 2.539945783435505 103 103 103
-2.083292192274873 0.9810579145812695 2.8094701287162036 71 71 71
-2.0705149581998303 0.7126434447663879 2.7217453495878154 89 89 89
-2.0497489390799566 0.22651365310938334 2.647329309219146 85 85 85
-2.0455549876693775 0.1881559914237519 2.6483250426687737 93 93 93
-2.023338650399268 -0.24658905488882338 2.5714627137635513 124 124 124
-2.0226689675515264 -0.24508880914408288 2.5671891898047536 127 127 127
-1.9632453019053184 -1.6537069166342042 2.2817277546948103 88 88 88
-2.021724423062974 -0.08995669358580516 2.5983340359875577 93 93 93
-2.010986022955421 -0.2046221150338633 2.595803995869932 65 65 65
-2.0950828142466498 1.8495662031464568 2.9123772865420245 10 10 10
-2.0605159299467184 1.101525209992572 2.8086826938059883 83 83 83
-2.105592815775884 2.342778035980938 3.0348462004354384 52 52 52
-2.087230714709331 2.1460303406506016 3.003254170382554 51 51 51
-2.019713320987567 0.5940433239643276 2.77484869190531 39 39 39
-1.9996331364729156 -0.02066243094397341 2.6217003686233897 115 115 115
-2.005168643459058 0.11983543967775798 2.6400488730867537 118 118 118
-2.0430092855777033 1.0318968052213648 2.895371749900302 49 49 49
-1.948213788368715 -1.3104364981226093 2.3680313498141756 74 74 74
-2.0079340565215666 0.3120876938392727 2.6918952474033477 94 94 94
-2.013335708249343 0.5930603756009514 2.7342740396348177 34 34 34
-1.9444124569527914 -1.3840002657686494 2.344198703426166 109 109 109
-1.9807986860830447 -0.3786367312284317 2.5335705002307916 82 82 82
-2.018896796682963 0.8183329510734996 2.7922797137136395 37 37 37
-2.0045384944168347 0.3486462306806756 2.693123689244652 90 90 90
-2.0038414638366895 0.3463275241535744 2.6874847485398123 92 92 92
-1.9781084503667024 -0.3422703185095158 2.555791873201193 67 67 67
-2.052953881321451 1.8843014928933175 3.024919085914719 47 47 47
-2.0570673904559253 1.9954272146695433 3.0345333995228994 74 74 74
-2.005509270546458 0.5701054809265518 2.719524478136489 86 86 86
-2.0192548117764884 1.0071276706302617 2.8138233581555805 28 28 28
-1.9218696572383955 -1.6299065045475587 2.2955060130708795 105 105 105
-1.9993911547576353 0.4978058941635108 2.7260856429315266 100 100 100
-1.999555834586956 0.5325626336295346 2.7348187333245186 93 93 93
-1.9277266442719194 -1.3996080318100745 2.356305999262648 85 85 85
-1.9966727775462005 0.4954425123180467 2.7069976373245495 99 99 99
-1.9320189766149378 -1.5028079448127512 2.332383465267345 94 94 94
-1.939365340799221 -0.9718614661097424 2.4524931944052093 21 21 21
-1.9960693560286593 0.6575667447156639 2.757586288455354 92 92 92
-1.9857361102898143 0.09647998221056112 2.650253634575891 102 102 102
-2.054921350701691 2.275333018353138 3.046062706939406 43 43 43
-1.912927531153806 -1.4546837316916474 2.3441149951188023 82 82 82
-1.9041946324083698 -1.6745750094219036 2.237101644416893 110 110 110
-1.9572002331294949 0.027900505377047385 2.636160571830039 86 86 86
-1.942647980805253 -0.569664483829377 2.5883667325539377 80 80 80
-2.007813406923236 1.6540506315313608 2.893805667325179 81 81 81
-1.9156047950707586 -1.0026546238172946 2.4325641620884197 114 114 114
-1.9553912517328431 0.16302628816958512 2.684384451285253 55 55 55
-1.9800855611846653 0.8022431280937732 2.7442475747475723 41 41 41
-2.0241106174609316 2.1193465545286103 3.014707895071369 56 56 56
-1.9125880463559035 -0.9510254481648994 2.4393256662462455 121 121 121
-1.9707444860726036 1.2355751349636335 2.883722368924056 52 52 52
-1.9417651265888631 0.1328827123593269 2.6487328496839626 88 88 88
-1.9760895421241695 1.2500901666989384 2.9284944223143365 77 77 77
-1.9558682654501516 0.7387830598480158 2.7868264001558525 119 119 119
-1.9206024140074085 -0.061104831280080096 2.5958584886057348 57 57 57
-1.996247909103118 1.8671020521780377 2.9846564534009343 116 116 116
-1.9488235120153106 0.6365573503438549 2.746240155143648 125 125 125
-1.9638826083510958 1.0528262987456822 2.824668803680185 115 115 115
-1.93412740467043 0.3762018631940834 2.7399305183082494 91 91 91
-1.8685852479485123 -1.5661825493250894 2.312309563500753 91 91 91
-1.9222521303728768 0.16205787250072703 2.6898706865455595 41 41 41
-1.9076215065577216 -0.1780412905449929 2.608378083844325 112 112 112
-1.9146705670414736 -0.06378127848466408 2.659557040924643 75 75 75
-1.9426665226259787 0.9499691256850153 2.832900174155211 83 83 83
-1.9193350916785679 0.26559053989171977 2.6874038607759005 106 106 106
-1.9368720529780972 0.8095029897571706 2.8457716339178014 71 71 71
-1.9419318112955564 0.9495265064497911 2.827759947806698 84 84 84
-1.9059930013558808 -0.010527191588322715 2.6561753064371225 90 90 90
-1.9577648288986698 1.4596967652636148 2.9953882397068443 79 79 79
-1.9148173699828352 0.5865908256861742 2.709664673751034 48 48 48
-1.9856111624757258 2.1147857833714316 3.09142190129038 79 79 79
-1.9129386234716168 0.34784549436203444 2.7076671652206064 107 107 107
-1.8782727645239126 -0.5550523526468396 2.5418942887553064 110 110 110
-1.8281005979570697 -2.0746123943151376 2.1954655898383946 67 67 67
-1.9407257787081442 1.6452847423345796 2.9476110975769108 134 134 134
-1.911783414496452 0.5612304455356647 2.757245561557418 97 97 97
-1.9590769367745022 1.900060475736312 2.971674216678552 53 53 53
-1.8802271158073431 -0.01767123001491805 2.6627020606539777 88 88 88
-1.8339854559692834 -1.2917795271121988 2.34157227193502 93 93 93
-1.9154033526902936 1.0344203393959364 2.853207556898188 20 20 20
-1.8675100482619797 -0.2004810634550232 2.5884754154472387 72 72 72
-1.8985366411846214 0.7867185145131366 2.7981782305839755 36 36 36
-1.9134570565199598 1.2667447062522552 2.9010010179088828 94 94 94
-1.8744802546844652 0.22542915083839082 2.71558770613245 81 81 81
-1.9271073505545417 2.0502824348348314 3.0470945182950717 47 47 47
-1.8607785704046655 0.19866678683091196 2.698297713595401 81 81 81
-1.9229878129599158 2.071240434168208 3.048807943534633 16 16 16
-1.8786303730004454 0.7678750463600912 2.7952751791556207 108 108 108
-1.8418214824823884 -0.19295082880680636 2.629437955667368 70 70 70
-1.8056528916525807 -1.3057184198215368 2.388109355535376 111 111 111
-1.907053890887319 1.8722639501655263 3.0115704302312687 24 24 24
-1.907053890887319 1.8722639501655263 3.0115704302312687 24 24 24
-1.8741014625159913 0.85978858368871 2.814235590083513 103 103 103
-1.8525643173223394 0.3380999031470816 2.721978884792192 101 101 101
-1.897420733341354 1.4332539936246664 2.9209024747720735 22 22 22
-1.7975836405340129 -1.2278819939151113 2.429806471316064 115 115 115
-1.8655726494342837 0.8091504819123672 2.8054718075466503 139 139 139
-1.8747162666624384 1.4298457254054038 2.9350203487332807 23 23 23
-1.8271186178403256 0.15483046025869385 2.7169246314801154 39 39 39
-1.8537997944448645 0.9182194916689554 2.826313341920358 92 92 92
-1.8046514480923246 -0.6193199180478299 2.5206005415692343 134 134 134
-1.7909016506581263 -0.7996227148728297 2.538457702612782 85 85 85
-1.807063229719569 0.03733193628347009 2.6691999940488587 97 97 97
-1.8884476472674723 2.007602873634847 2.964768029985468 35 35 35
-1.7411318541517553 -1.9427645140550884 2.285116707113182 120 120 120
-1.7832405657751562 -0.6056307799905738 2.5462848939616882 94 94 94
-1.8369836830788873 1.0154256489720457 2.9274961211794897 2 2 2
-1.7721659363040723 -0.621249168694493 2.5432730642649886 125 125 125
-1.8089724632144306 0.625732242668116 2.8005273678940292 124 124 124
-1.8192462173228794 0.949870850599493 2.802483362200436 110 110 110
-1.7879723970051988 0.1261016113401793 2.6830558057870113 95 95 95
-1.729603493697215 -1.4438502202324128 2.3934543118923375 72 72 72
-1.7999285283716273 0.8552402029735935 2.8181383148626415 76 76 76
-1.7972135813612358 0.7457782509243525 2.7858277668801477 89 89 89
-1.7294850489257576 -1.3083014767219399 2.4205721755446388 92 92 92
-1.7481700417320538 -0.8683158082284494 2.4576660358020628 65 65 65
-1.8283577896892647 1.9213185757794142 3.025716662759502 43 43 43
-1.736621739073501 -0.6923544305190519 2.58803013058049 120 120 120
-1.8166721086175546 1.7518792425872556 2.964153243697996 46 46 46
-1.754443474780886 -0.05351399508602417 2.703602288838311 59 59 59
-1.793740928289644 1.6398380118798366 2.9925065923560337 59 59 59
-1.7923165833109045 1.228528559048262 2.9705814972505125 64 64 64
-1.7266954802557974 -0.670475705117745 2.5374359325483655 122 122 122
-1.784567126725181 1.6618017673254937 2.993458408535552 46 46 46
-1.6697911290316567 -2.0065410883757777 2.3157037653770547 25 25 25
-1.735084746288488 0.19091235649663857 2.7197142335413926 97 97 97
-1.7629999749943237 1.2156236865214924 2.9313313687296207 35 35 35
-1.7030075621431497 -0.8146998111299399 2.5257273727443565 105 105 105
-1.6872990130525856 -1.2529906257728627 2.4486011825390626 99 99 99
-1.6631849631614342 -1.7991887397008008 2.4072150484123944 32 32 32
-1.67442423379027 -1.5693855178753013 2.391887105981661 19 19 19
-1.6548230026110127 -1.789491019612331 2.3359963189267376 80 80 80
-1.6906727822921699 -0.5896391147886244 2.560870450699562 72 72 72
-1.7313951311167473 1.0041217990338396 2.9068616878580387 16 16 16
-1.6578841602091818 -1.7433646535379907 2.3135581194085337 67 67 67
-1.6529140993062281 -1.7064871015127716 2.362440595863499 104 104 104
-1.6670553650202566 -1.1572263738816095 2.477768498464816 91 91 91
-1.7441086209576642 1.6240766608312676 3.0343180267236236 62 62 62
-1.7056468910123523 0.15337223168250977 2.7744804268685423 72 72 72
-1.7312122195127357 1.093101146465343 3.010417765064991 90 90 90
-1.642848874897676 -1.8390291230514098 2.3569260439793385 90 90 90
-1.6877849847624167 -0.06309137514778557 2.693473949814606 59 59 59
-1.6393209754414209 -1.7713172011449265 2.337305080963596 25 25 25
-1.6996949936023114 0.5563874193714484 2.821450766698008 116 116 116
-1.6732691379467104 -0.43566111317503203 2.616735904404796 119 119 119
-1.7132401688138597 1.1922097408182686 2.957315139115121 80 80 80
-1.7131267730426805 1.1904234315568183 2.95349111991225 80 80 80
-1.6941584555107965 0.44458153221293994 2.7767952450892204 115 115 115
-1.7034635028709872 0.8982836656185609 2.8272743443392554 91 91 91
-1.7005966945546918 0.7346044129588861 2.8454708687446737 90 90 90
-1.647496705839808 -1.3461803747990668 2.440953515554201 25 25 25
-1.7170467108419363 1.2550370441330836 2.9346568651307217 94 94 94
-1.6325371343091637 -1.9826875235686094 2.30758322098372 97 97 97
-1.6325371343091637 -1.9826875235686094 2.30758322098372 97 97 97
-1.6405289532821175 -1.5025884430668794 2.38737169014636 105 105 105
-1.7337969094297168 1.9037444230792944 3.0078909117187913 38 38 38
-1.6358158102914584 -1.1248027927511564 2.480801166322942 91 91 91
-1.6140164291295136 -2.1042790172145347 2.2866626671128274 88 88 88
-1.6262673015734541 -1.2616279367070493 2.4475928613093783 106 106 106
-1.6499629968302587 0.1419933784751846 2.7448877407253556 74 74 74
-1.688529712798656 1.4251098526034323 3.006580676579501 7 7 7
-1.6633915179922996 0.2821495589800185 2.744772915816767 98 98 98
-1.6274296385620848 -0.8447036008745568 2.5526562478500456 70 70 70
-1.6698656836179016 0.8407765737439954 2.8615548837474525 94 94 94
-1.6108632726885266 -1.3091847645045527 2.449759130413455 97 97 97
-1.6108632726885266 -1.3091847645045527 2.449759130413455 97 97 97
-1.636907367795565 -0.3180858583055533 2.6391467228427863 71 71 71
-1.631785627549879 -0.4663622321090956 2.6174113283911793 104 104 104
-1.5975635764449383 -1.6953770668469377 2.363103776367431 74 74 74
-1.609852151177157 -1.1912577624836354 2.4578952675137598 92 92 92
-1.6820834255629245 1.8653688332395415 3.1101331005748833 80 80 80
-1.58699787148015 -1.9640624169474676 2.312202372787158 101 101 101
-1.6499715594503774 0.1420091909183901 2.744855191234308 74 74 74
-1.585822624466911 -1.641096096668366 2.4124226804648994 73 73 73
-1.6475458962763336 0.5905384017238673 2.9021968527062962 111 111 111
-1.62749380276504 0.14330160272919554 2.7537297402742626 56 56 56
-1.6531152138141123 1.2603824672180994 2.9664185139543133 106 106 106
-1.6364614941907838 0.5637582357132405 2.8122420387961395 65 65 65
-1.6166443843113085 0.22145894381080292 2.70719612996372 93 93 93
-1.6166443843113085 0.22145894381080292 2.70719612996372 93 93 93
-1.5475695942736378 -1.9622693376484988 2.3157147494210615 107 107 107
-1.5937361768594307 -0.2313873205953459 2.682523736867777 87 87 87
-1.5559190587497618 -1.3439163668637668 2.4434958926677086 14 14 14
-1.562556244521354 -0.8611110582063939 2.5411390025144 82 82 82
-1.538762524137258 -1.3522148907263118 2.468718364762601 13 13 13
-1.5966998763521154 0.8160966912536294 2.8747659735261215 104 104 104
-1.573278078132641 0.103649594298409 2.729822569262057 132 132 132
-1.5415914880461101 -0.6109704027043508 2.6107782340488916 66 66 66
-1.5369738579111507 -1.310401855592732 2.530364795700939 103 103 103
-1.5369738579111507 -1.310401855592732 2.530364795700939 103 103 103
-1.5815981365298897 0.45896227818672475 2.788380816446567 94 94 94
-1.532079524397604 -1.3290054558934934 2.4609516894301575 80 80 80
-1.590210366650386 1.0981179627757585 2.9409339750883254 106 106 106
-1.5688410188991422 0.784723286217291 2.89584881525794 53 53 53
-1.5213376348587895 -1.406942233681964 2.459338766196024 94 94 94
-1.6097184346841817 1.851153711002896 3.0947180562140137 125 125 125
-1.515914140600587 -1.5799137306047393 2.406419732765515 99 99 99
-1.5163090449012953 -1.0562290393331542 2.5765715821768276 78 78 78
-1.5498330679690064 0.3593480960418821 2.8396582089221254 56 56 56
-1.547521299299635 0.16229683516779203 2.747386217852957 145 145 145
-1.5169283414341277 -0.8240798388936919 2.577261435155782 75 75 75
-1.5381970231826252 0.1927221533264593 2.74712774312126 94 94 94
-1.499674999255073 -0.8919556965613893 2.5730577756087736 101 101 101
-1.5618032128455004 1.7938778663718284 3.063163788925212 57 57 57
-1.5120977314014845 0.04376392827273251 2.8027472965676945 97 97 97
-1.513849058495925 0.39983967473808557 2.83009310617525 133 133 133
-1.5177876734527422 0.8852844977379524 2.9617866475614236 117 117 117
-1.5053547608451112 0.4814249102989612 2.906015262753519 108 108 108
-1.52086619061133 1.2740897378452123 2.981339779751837 51 51 51
-1.4856623668573081 0.3569171391025708 2.9038996910793027 86 86 86
-1.4977457659161604 0.9480540580556067 2.9384286629565044 125 125 125
-1.4514517089516188 -0.9297760803735884 2.5724943385719885 80 80 80
-1.5135216712222537 1.4935277352376177 3.0066544787711167 47 47 47
-1.4939520098499646 0.8956062757869878 2.899322160726165 101 101 101
-1.4939520098499646 0.8956062757869878 2.899322160726165 101 101 101
-1.4939520098499646 0.8956062757869878 2.899322160726165 101 101 101
-1.4181911316267843 -2.2366312799532904 2.3180428558045496 22 22 22
-1.4370574929577362 -1.4525682265622792 2.443030454826929 80 80 80
-1.4370574929577362 -1.4525682265622792 2.443030454826929 80 80 80
-1.4127005428387118 -1.9703404634403852 2.377512562769327 87 87 87
-1.452495034944162 -0.6076477380332295 2.5796810981380554 78 78 78
-1.4297116484862329 -0.7068729381903445 2.6140590858513426 103 103 103
-1.421027586186502 -1.5107648090396555 2.4525115179989068 88 88 88
-1.4120789393201854 -1.7839636015976696 2.3950496454073478 32 32 32
-1.4494846338162142 0.08695152326088262 2.7010223704966667 113 113 113
-1.4160375202504194 -1.7093829598916008 2.3892977564836237 108 108 108
-1.4453223376917697 0.4742403840612608 2.798502311839631 114 114 114
-1.4194850079230028 -1.2044964195782455 2.4911220137682295 84 84 84
-1.4041182230625289 -1.5252212592308474 2.4512311836513017 112 112 112
-1.47846557347403 1.8814500435513184 3.094730837242125 41 41 41
-1.4316958975576146 0.35379883190782413 2.8372164586783435 92 92 92
-1.4450581674734717 1.029629146429888 2.969531919343399 116 116 116
-1.3905493152214992 -1.0468516374111003 2.6028143697914135 90 90 90
-1.4326050516310724 0.6685592828813736 2.8923468694195305 110 110 110
-1.371052216503092 -1.7795930507649074 2.4104166427569464 78 78 78
-1.3871838353921242 -1.623639895333296 2.433746563790644 79 79 79
-1.4150943803106037 -0.16187126030943405 2.7114430507652663 101 101 101
-1.3756591848361004 -2.116418982557992 2.3111383954104094 63 63 63
-1.3785473246582178 -1.3365131568563495 2.456125890611894 22 22 22
-1.3956038408172682 -0.07430877066389507 2.76560982575115 53 53 53
-1.387035504199428 -0.1203367824306456 2.7574379041973356 119 119 119
-1.3775410832337494 -0.539899063573198 2.6860977577770346 85 85 85
-1.3658619074149683 -0.9541300520345348 2.6052742328994394 24 24 24
-1.3526608388792154 -1.9684817371707541 2.375136381873791 104 104 104
-1.359890593412552 -1.5847086710185794 2.506255112736414 47 47 47
-1.3433334769713026 -2.203857988755919 2.344404859263831 80 80 80
-1.3609444009306286 -1.7445229979429822 2.387829819097416 88 88 88
-1.3998480430946612 0.39461492483920757 2.7801444885979048 120 120 120
-1.3428771262938952 -1.4322040616007792 2.499216542367432 105 105 105
-1.358715494378794 -0.5140553164166346 2.680501580859995 31 31 31
-1.3940160444691336 1.4483532479371883 3.0557973539469105 48 48 48
-1.4049427481066488 1.6018706908730636 3.038995728569273 28 28 28
-1.328121163350862 -1.9248919198627272 2.3899336074103066 76 76 76
-1.380617223688203 0.5018942931618253 2.8037396532594294 110 110 110
-1.3212326767073157 -1.880940436009334 2.3712472142151575 81 81 81
-1.3365235206660273 -0.9626593915789969 2.583040410784156 112 112 112
-1.3310461485664649 -1.6900917867309357 2.4016866214948895 67 67 67
-1.363083345390535 0.8341604875098072 2.9842096353420575 125 125 125
-1.3511592512719381 0.2314175993915636 2.809859528286251 51 51 51
-1.3435223035070194 -0.5226802810544453 2.685736702729247 45 45 45
-1.3508963635889193 0.31183337194475064 2.8231153098682484 79 79 79
-1.3467654819358559 0.02930697310878433 2.760716052058434 106 106 106
-1.3114761608020213 -1.483262415839004 2.4949061884575516 100 100 100
-1.328189811096376 -0.5876919216223666 2.6473436100011036 95 95 95
-1.3473494278067206 0.9095577824650047 2.9353093762513214 102 102 102
-1.313483714542404 0.13503947664114105 2.8607234233437757 73 73 73
-1.308183735284128 -1.2806937418216362 2.51663108136083 73 73 73
-1.320584299019172 0.09401206914360594 2.776801317495313 126 126 126
-1.3236365461329198 0.793164342247644 2.930067579299091 141 141 141
-1.265314835752456 -2.1375315847424536 2.381381029452094 67 67 67
-1.2768181117139563 -1.7922015472222725 2.4639845150328337 67 67 67
-1.324500014251801 0.7598172837699219 2.9328631567664005 4 4 4
-1.2695402977526256 -1.8897014711848847 2.4030540530456688 77 77 77
-1.302047392658748 -0.2556108922923271 2.6990625174998795 104 104 104
-1.2837014684973607 -0.6194753887126236 2.6455619037098557 86 86 86
-1.305719015274634 1.2829295887915786 3.0375080211434935 46 46 46
-1.3043061163946594 1.0598393521543616 2.9752896523542485 60 60 60
-1.2807014579980922 -0.43866335853840716 2.66922154862355 79 79 79
-1.2877210807597985 0.19579188189517602 2.8068495916876937 108 108 108
-1.3065208999309081 0.7589649644538814 2.912843181920844 32 32 32
-1.2487741743096181 -2.1824058823474752 2.334405851494559 72 72 72
-1.281269942228292 0.6767499551925661 2.910904483907442 122 122 122
-1.2280860506536575 -2.0465075956300383 2.4068991870487566 89 89 89
-1.2596823840346707 -0.28399714727504705 2.6501719576451177 58 58 58
-1.2213151438300451 -2.243703093125724 2.3512796264213063 42 42 42
-1.2651919146011037 0.5920419109312323 2.896982150968157 130 130 130
-1.2063343309934544 -1.8857675276703907 2.4440599608163622 100 100 100
-1.2117723874223827 -1.8023889111741356 2.436036490084383 105 105 105
-1.2418103228694983 0.22247484808436255 2.8012723082224222 115 115 115
-1.247403623144174 0.3411457801550647 2.8498627947286885 42 42 42
-1.197305797091753 -2.0842565354771496 2.3783602707332947 72 72 72
-1.1969926030372766 -1.8187991042618579 2.5113156408106954 21 21 21
-1.1969926030372766 -1.8187991042618579 2.5113156408106954 21 21 21
-1.2116090584549437 0.5480073910168627 2.919384045655717 33 33 33
-1.1974722137641391 -1.5564656555373306 2.468620956242542 49 49 49
-1.2267241251604457 1.2638258095975081 3.057099029475325 47 47 47
-1.1815815089526216 -1.7943781777921644 2.436943343941383 83 83 83
-1.204597078241817 -0.17131798574064527 2.753141254683636 112 112 112
-1.2288563012529838 1.7104325510347604 3.0969825230160466 44 44 44
-1.215992880405364 0.3405962537078718 2.801437201583043 88 88 88
-1.174501598960251 -1.922409345770861 2.3936753099418193 78 78 78
-1.1945186568282566 0.592034860339759 2.9305523679318273 140 140 140
-1.1576038063104541 -2.1131823687928986 2.3953308581863246 92 92 92
-1.142875432657735 -2.139543916427253 2.3783687571674563 122 122 122
-1.153418938866588 -1.193286428291938 2.576300332392339 96 96 96
-1.1483001749153472 -2.1935580116407842 2.3444461469715585 24 24 24
-1.1557341472639306 -2.236571266250162 2.29663832245862 29 29 29
-1.1406976360498482 -1.5856202236679962 2.5024412558859432 93 93 93
-1.1708427353870812 0.4337059837531063 2.8791295125564793 122 122 122
-1.12495071708438 -2.0425563720908 2.4241700780053006 79 79 79
-1.1301136275643306 -1.5443901852362791 2.502304376395521 101 101 101
-1.1548618335146115 0.5806733775272741 2.9238351498489306 182 182 182
-1.13024127141656 -0.7339480572611894 2.690809395417926 38 38 38
-1.1079261575065713 -1.8500297655742146 2.4671584350944253 86 86 86
-1.109435810704712 -2.183900592341995 2.3911415902719475 87 87 87
-1.133668504481865 0.05188173714064789 2.8170926995714862 111 111 111
-1.1499598598901957 0.8324130647872816 2.9424477202556614 51 51 51
-1.113516543744402 0.1253525805387145 2.8544602872693 45 45 45
-1.1205884506152834 0.37900973157216983 2.879967378592173 133 133 133
-1.077133858015017 -1.8086675623521755 2.497666502751533 51 51 51
-1.0782131035618587 -1.8921714112407828 2.4671336560706023 101 101 101
-1.07885074820232 -1.7715653210307762 2.4894343038576676 93 93 93
-1.085986768745794 -1.4656368694210462 2.520481016263115 101 101 101
-1.072092680230331 -2.010535300379757 2.438589876168431 27 27 27
-1.0849871238037676 -1.1193637514539383 2.645226406399042 93 93 93
-1.0674389393860737 -2.208438561560784 2.3940253020981035 17 17 17
-1.0924221217111019 -0.06160731098336547 2.803085182251332 136 136 136
-1.072873972570401 -1.541352151780962 2.525968175278924 102 102 102
-1.0824585627336651 0.12393856525699112 2.8637684125334757 68 68 68
-1.088264514975178 0.4819718072478363 2.9171594983866904 162 162 162
-1.0520168825515788 -1.6043064870289954 2.5428497657816957 142 142 142
-1.0341823484001738 -1.92475494894655 2.521654170797976 86 86 86
-1.0573786110693826 -1.5197647286787186 2.577294373642213 112 112 112
-1.0452655885499202 -1.631823369505886 2.527232666691838 121 121 121
-1.0812023163124487 1.1195711178206975 3.0353933200775205 83 83 83
-1.057290847035791 -0.763280920718094 2.6664819903229646 102 102 102
-1.0597968649584824 -0.5751363007684338 2.6995742597819308 88 88 88
-1.0689469756880385 -0.3190755440930186 2.7570707578140197 26 26 26
-1.0664772744345554 0.616458532808003 2.9386621808364057 95 95 95
-1.076076850677128 1.0598639123692803 3.004062012305661 73 73 73
-1.0522868505848466 -0.00749786526823476 2.8145199083619965 136 136 136
-1.0432686667135898 -1.1665700484524733 2.609324711714899 70 70 70
-1.062194607638935 1.287361917004651 3.0568719803875886 51 51 51
-1.021700283216914 -1.5276724913810253 2.5307666881635185 66 66 66
-1.0456367113554708 -1.953418920102315 2.3417326979761612 74 74 74
-1.011894986381017 -1.5916311757332555 2.543077659520392 94 94 94
-1.0285513648238083 -0.4868489586749631 2.7267911816414823 116 116 116
-1.0377559050368625 -0.24180289268354166 2.745281466682848 92 92 92
-1.0291613073741026 -0.4846980974456269 2.7205265120072917 116 116 116
-1.0340124375819733 -0.054361126815792915 2.7994502912834185 133 133 133
-1.0401741375303553 -0.3063201909591096 2.7143503737154124 56 56 56
-1.0307385759577101 0.3755011048920562 2.890252389887635 193 193 193
-1.023436822461101 0.698152934615833 2.968477958233772 98 98 98
-1.0104021080444858 -1.868948466639168 2.463442910402238 90 90 90
-1.0192014253371235 -0.5587809487399558 2.6955155867727387 111 111 111
-0.9971690901644772 -2.127724799740307 2.4135796388543436 47 47 47
-1.0127571787096945 1.1864130538896644 3.0812011049580748 1 1 1
-0.9941462294068788 -1.9903960957361366 2.427290485149211 36 36 36
-0.9941462294068788 -1.9903960957361366 2.427290485149211 36 36 36
-0.9819167872816383 -1.5574083873730469 2.5507523314850444 97 97 97
-0.9869023087759661 0.706729743624656 2.9803223071524774 76 76 76
-0.9972215118289418 1.3641140287979767 3.1042188578621057 55 55 55
-0.9925748791630429 0.39699061079640413 2.9086714357320704 95 95 95
-0.9914238582599562 1.1707404147320144 3.086632578354305 12 12 12
-0.9655834218734565 -2.076241758591455 2.4451039170752558 62 62 62
-0.9739795759784928 -0.6202215902055299 2.736074829845259 110 110 110
-0.9739795759784928 -0.6202215902055299 2.736074829845259 110 110 110
-0.9586394026572664 -1.6960477309399917 2.535959988126645 89 89 89
-0.9972227399717508 1.3641093315723225 3.104198448166603 55 55 55
-0.9972227399717508 1.3641093315723225 3.104198448166603 55 55 55
-0.974925745116302 0.33204970382647386 2.9133630782953026 45 45 45
-0.9581131268568914 -1.1792802619587877 2.631035370555423 99 99 99
-0.9635556738426225 -1.733430212978145 2.5063907007725734 121 121 121
-0.9613737902116333 -1.4941863083993054 2.5356597957998734 104 104 104
-0.9588865855076874 -0.4331648980979312 2.763816201221973 88 88 88
-0.9683327888486246 0.5978130576127416 2.9530285231937605 61 61 61
-0.9336498191929323 -2.2267789154726914 2.43931228160251 22 22 22
-0.9700222715337228 1.1090290517976182 3.0483122866912153 94 94 94
-0.9652340635540926 -0.14999042751932884 2.762464837685249 96 96 96
-0.9453945862061257 -1.3264969692078121 2.577750444868547 96 96 96
-0.9322158571075527 -2.14938312331084 2.4361013832029212 77 77 77
-0.965271409477328 -0.14995505868621783 2.7620915978233858 96 96 96
-0.948754136913053 0.8890178147467742 3.0132105964775246 111 111 111
-0.9181161004426679 -1.9610548207689849 2.4910034053533248 111 111 111
-0.9216169027021701 -1.5016494956875088 2.5708524096265033 98 98 98
-0.9153226476811498 -2.2091606047719297 2.4320150707421253 73 73 73
-0.9108842085491369 -1.4322395614996555 2.615598965833405 86 86 86
-0.9029050220612829 -1.6496124023416898 2.5779424742292076 99 99 99
-0.9389839350876028 1.1049834693754614 3.0424939363065477 54 54 54
-0.9180674259315289 1.0841759945623777 3.058976498774983 42 42 42
-0.9163350862533199 0.49932595013350706 2.937085162922291 62 62 62
-0.9118249309754409 1.2897867715380007 3.105797643121186 59 59 59
-0.8884460801625622 -1.547323719598248 2.5650258712154757 65 65 65
-0.8796675100314326 -1.8072808090575172 2.587879337114121 44 44 44
-0.8883119469578722 -1.2791581512543118 2.6173545526732 74 74 74
-0.8873489602844593 -0.901176580830378 2.6982327592689397 87 87 87
-0.8942955362746361 -1.4350337323244693 2.5176387732869325 86 86 86
-0.8942955362746361 -1.4350337323244693 2.5176387732869325 86 86 86
-0.874380163152634 -1.8061392214374032 2.514880827475866 95 95 95
-0.8738943939065076 -1.7446629352920395 2.526047085672445 109 109 109
-0.8800560084237863 -1.8230999655683011 2.4916205682193415 50 50 50
-0.8797134244814888 0.21575279370625217 2.905725652776509 66 66 66
-0.8405092701875974 -2.0379834269914396 2.5523231520992895 87 87 87
-0.8629642106358579 -1.9000917110345432 2.499036356668594 102 102 102
-0.86311802566711 0.8670493581024217 3.0700189932416557 73 73 73
-0.8688913765935857 0.11935374148032274 2.8891580575947757 17 17 17
-0.856695850786702 -1.1680466871391773 2.6703794055677172 48 48 48
-0.856695850786702 -1.1680466871391773 2.6703794055677172 48 48 48
-0.8564312398016882 -1.9910765420268735 2.4367896276275176 61 61 61
-0.8375412056318627 -1.628772402663551 2.577055758123928 98 98 98
-0.8375412056318627 -1.628772402663551 2.577055758123928 98 98 98
-0.8417958736069795 -2.112059584013291 2.4615893377218483 58 58 58
-0.8370320218588942 -1.183871916102907 2.65899096827864 88 88 88
-0.8515064488825745 1.055975939914071 3.0707363333725817 61 61 61
-0.8493092444978037 -0.2425427078273666 2.8048594638676856 86 86 86
-0.8331621134007572 -1.7135583323688957 2.549706832142753 75 75 75
-0.8331621134007572 -1.7135583323688957 2.549706832142753 75 75 75
-0.8334543134339758 -1.9639082986015188 2.4903592536720525 105 105 105
-0.8478152847175784 0.8162820642713287 3.0182561553365823 43 43 43
-0.8158590124083154 -2.0217041077574955 2.527332583432115 37 37 37
-0.8382909200597013 0.6162683015814475 3.000873959055921 48 48 48
-0.8249674694314884 -1.8024393672536079 2.540008740479355 86 86 86
-0.8528875398206011 -0.8626935294667781 2.6041063754324365 88 88 88
-0.8463291019590442 -2.1552933432828723 2.3929528963411735 82 82 82
-0.8321454354217939 -2.025186534979041 2.4551344946805504 68 68 68
-0.8203752493061705 -1.0262211626407545 2.6739971157431524 99 99 99
-0.8162860057981951 -2.1330449148371 2.43889268300201 56 56 56
-0.8204694485699766 -1.7892139312015949 2.4913785971436924 49 49 49
-0.7860964966551476 -1.2632943469128493 2.705422901592335 62 62 62
-0.8521846849452386 1.5338148763058623 3.0683464957014412 18 18 18
-0.8047795986554391 -0.8683181758501668 2.7134615591489433 101 101 101
-0.7853491221974933 -2.2395047206565906 2.4759170116779354 24 24 24
-0.7933518376527682 -1.0065359249740133 2.7000080385898264 60 60 60
-0.7883951104028246 -1.7285878751963193 2.5590772181155415 66 66 66
-0.7923102501954076 -0.9697299195604314 2.700595838008017 106 106 106
-0.7866840701888271 -1.9657624277824983 2.5012384042234213 40 40 40
-0.78248798250325 -1.7725321019620217 2.5290360500258973 31 31 31
-0.7825200660146552 -1.6644684411207329 2.580662258197107 70 70 70
-0.7879262512390868 1.038368964529555 3.1051484546469283 61 61 61
-0.7848228997603737 -0.35779318956206135 2.8264436874676186 96 96 96
-0.7648407779615358 -1.8511204800309111 2.570941955526466 89 89 89
-0.777459927999711 1.1248937106670867 3.1362658976061737 59 59 59
-0.7657938723644182 -1.9961269051430957 2.4906442987296296 41 41 41
-0.7653710195422361 0.3184915103065515 2.9744355322437586 37 37 37
-0.7853946166943879 0.573477517636976 2.9873380082677277 104 104 104
-0.7830065316158665 0.6436293927797816 3.0074614844698098 98 98 98
-0.7579157416309104 -0.7458635733298387 2.783313937368447 60 60 60
-0.7630196958438382 0.9128669298726371 3.0781784953949685 65 65 65
-0.753579083800662 -1.9770034313202929 2.5188305247504545 113 113 113
-0.750322039344596 1.1443061361011293 3.110962530761882 15 15 15
-0.7681829940108034 -2.2283597292934303 2.4182290875789367 32 32 32
-0.760939396131902 1.1220150515716276 3.110231103850284 20 20 20
-0.7505061253925576 -1.0693895751016451 2.6948561291416397 70 70 70
-0.7592984525634736 -0.6516832457945219 2.744733958180413 90 90 90
-0.7519069966038028 -1.1361330674768135 2.663778214515911 77 77 77
-0.7536849381190658 0.9878115021441425 3.074110056051173 52 52 52
-0.7451160342182614 -1.3259269839459924 2.632865681100603 78 78 78
-0.7451160342182614 -1.3259269839459924 2.632865681100603 78 78 78
-0.7533854274428393 -0.018699103773115178 2.855219475062363 99 99 99
-0.7283206315819142 -1.8596477009777101 2.5371579366770907 47 47 47
-0.7129871901689109 -1.037685430812587 2.707980070823892 84 84 84
-0.7713821026373893 -2.271623861978696 2.366517602805668 96 96 96
-0.7193152078382321 -2.032190523655629 2.521085567385875 110 110 110
-0.7220046212791811 -0.7890271427798494 2.7528417544588186 91 91 91
-0.7190631167099026 -0.1041687873764911 2.894384384357704 32 32 32
-0.7129025826193127 -0.32237058927897605 2.861108923228628 41 41 41
-0.7285395644101307 0.38736349289488947 2.9416115153550426 60 60 60
-0.7122973382874251 -1.9602319303144957 2.51813488691791 52 52 52
-0.7125773140663136 -1.4507785578474277 2.618300975171231 65 65 65
-0.708964292683758 -1.2545527439792596 2.6506256091260023 100 100 100
-0.7098530362271018 0.45009569038260105 2.9704784638695565 86 86 86
-0.6880397092658317 -1.8166928654517636 2.586988145948031 85 85 85
-0.7039422430616062 -1.1028880780012968 2.6575538534203864 67 67 67
-0.7039422430616062 -1.1028880780012968 2.6575538534203864 67 67 67
-0.6779276630453694 0.98470933020477 3.1379286900655043 45 45 45
-0.6845568552988186 -0.3744494906551003 2.843284681295065 86 86 86
-0.6830813308648429 0.18853618429030247 2.9351033601075565 60 60 60
-0.6783533099028718 -0.6704221714323526 2.7725710891909263 78 78 78
-0.6783533099028718 -0.6704221714323526 2.7725710891909263 78 78 78
-0.6839659017204309 -1.3787371370593662 2.6199349022491414 69 69 69
-0.678572575059724 -1.326475534428348 2.6452444090611986 75 75 75
-0.6742241191841032 0.8674625553140454 3.0709356065688165 44 44 44
-0.6657136790738882 0.7560263973356794 3.043752982981912 57 57 57
-0.7046096859396496 -2.279515658070401 2.3383693774038954 32 32 32
-0.649908086425939 -1.72413690169525 2.591412341053989 102 102 102
-0.6573729926081902 0.2708416777948834 2.9504513819541986 75 75 75
-0.6522615771276516 0.8173259126421131 3.0706877699302066 48 48 48
-0.6524967065713572 -1.8309965066631222 2.553182849898755 38 38 38
-0.64848108783065 0.19931961951007582 2.9442453821688326 62 62 62
-0.6507928870878317 -1.2626964199477284 2.6257418107544734 80 80 80
-0.642779306906063 -0.26967258441784 2.8537790362383952 88 88 88
-0.6299248541961051 -1.6413391217862656 2.625331810133074 100 100 100
-0.6659651570602996 0.5686970656098167 2.9420409299416366 105 105 105
-0.6398594742807757 -1.3058050974296878 2.6529602366238083 69 69 69
-0.7045209937290198 -2.3091451692499523 2.2788907067375272 116 116 116
-0.6773028066722331 -1.985471781104102 2.3949721466135947 33 33 33
-0.6548958802083766 -0.8011510558624151 2.6780741758724633 95 95 95
-0.6226173733390838 -0.4633609699536319 2.8557620602209446 89 89 89
-0.6352734519970311 0.15534909815683468 2.922187680674494 77 77 77
-0.6200091839976456 -1.8794796582587592 2.574972500500919 53 53 53
-0.6382022411368042 0.9479202578147845 3.0579175207696676 50 50 50
-0.6163586958247853 0.17670696151282905 2.962803530469168 86 86 86
-0.6793825692023163 -2.2655727879454877 2.323306298312643 22 22 22
-0.6104495436010724 -0.7328588638404043 2.7990996302455424 89 89 89
-0.6318185791249573 -0.8780303779332796 2.678585582316194 79 79 79
-0.6170597754380394 0.8365458447548868 3.075778499588751 68 68 68
-0.6163241296853585 0.40017748910180356 2.9880118466160916 53 53 53
-0.6164742433981483 -1.8174102192527333 2.563631366737616 87 87 87
-0.6164742433981483 -1.8174102192527333 2.563631366737616 87 87 87
-0.6047231332180449 0.7714023460773458 3.065680333214757 51 51 51
-0.6181695353720884 -0.25360754527285084 2.7855647559510355 98 98 98
-0.6014953703400798 -0.10315575792549708 2.8894902240001534 38 38 38
-0.5958856389922034 -1.8490880969030117 2.5601919227770833 31 31 31
-0.5898336938632323 -0.46193870445633706 2.8343677775169156 78 78 78
-0.5925835369381933 0.20453009459789806 2.9482785399472164 59 59 59
-0.5841864599504958 -0.1577708639906908 2.888974577689876 73 73 73
-0.5841864599504958 -0.1577708639906908 2.888974577689876 73 73 73
-0.5952240595964053 -0.8531897518869038 2.716224593980485 66 66 66
-0.5584954185816289 0.8421730091498945 3.0919225150894456 76 76 76
-0.566703917756038 -1.2000428454841676 2.7033145930386673 76 76 76
-0.5576914801644959 0.5715308555156068 3.053071874045536 56 56 56
-0.6586551101115123 -2.230360097668627 2.216725149909849 116 116 116
-0.5414641294581102 -1.1711366701701449 2.7658669489327905 88 88 88
-0.5687829206142427 0.16454596164009816 2.931292494869681 88 88 88
-0.5488165760184567 -1.8011324536816027 2.6166920314002895 35 35 35
-0.5488165760184567 -1.8011324536816027 2.6166920314002895 35 35 35
-0.5596293942025703 -1.3837540807171431 2.661041307898303 62 62 62
-0.5560152328739991 -0.2657742384590979 2.8613071415555784 69 69 69
-0.5572983796312223 -1.8041977415141421 2.5733287431805976 73 73 73
-0.5702419014264122 0.8873592018663465 3.0820954493004336 98 98 98
-0.5579329278601788 -0.19891693906449598 2.849369948262431 92 92 92
-0.5431779562767878 0.573316793192087 3.0292972300408025 54 54 54
-0.5458893567396441 -0.49544644441438107 2.822136510272577 85 85 85
-0.5391408412662948 -1.7283277645588708 2.6084261268283098 77 77 77
-0.5325356934891712 -1.7849334209853887 2.5858211779120857 28 28 28
-0.5406846974095174 -0.7984215457561707 2.7690187388112917 83 83 83
-0.5406846974095174 -0.7984215457561707 2.7690187388112917 83 83 83
-0.5388810851323302 -1.8790067772758803 2.575304739943722 28 28 28
-0.5362756941378464 -2.0059598201910727 2.5541835277590654 20 20 20
-0.5349009555719832 -1.187749144892789 2.697268281609673 70 70 70
-0.513934180860214 -1.5814986056535822 2.655699699078282 50 50 50
-0.5189876706454066 -0.32478428846541657 2.8856081894611028 44 44 44
-0.5229469944495322 0.6515485547365839 3.043967021077107 115 115 115
-0.5210434596780091 -0.7923258049852795 2.7806835638567864 68 68 68
-0.5463622408500641 1.0371333862857355 3.042555258489862 110 110 110
-0.5126449476812691 -1.1872878932880875 2.7092178050219373 98 98 98
-0.5055274188202916 -0.5644944858083067 2.8246509052399396 67 67 67
-0.5056223865469582 -0.98176035700281 2.7474714871229957 92 92 92
-0.4770161457136437 -1.2395041333166652 2.773231512724086 63 63 63
-0.5076606874716207 -1.8778480150845864 2.5795337333759325 49 49 49
-0.5181489146301812 -1.9641092106538467 2.49651023553557 57 57 57
-0.5071427087427707 -1.8674259920004108 2.571460448065689 42 42 42
-0.4930658102112686 -1.132254972397637 2.736084680545073 48 48 48
-0.47957323512408734 -1.176507683359374 2.736648816075466 46 46 46
-0.5596273944833929 -2.2144945473147555 2.386839385659228 35 35 35
-0.48393920447476546 0.12389095394932884 2.975323424182276 66 66 66
-0.48393920447476546 0.12389095394932884 2.975323424182276 66 66 66
-0.45719407715406146 -0.20386519912949974 2.9821185395110725 74 74 74
-0.530267290198345 1.1650514070820153 3.040262580800914 103 103 103
-0.47990508104482865 -0.2327030167505471 2.912398053771541 73 73 73
-0.4865974026586102 -0.143080811438772 2.897824315742812 66 66 66
-0.4884043772013069 -1.958794064971143 2.567131413952906 80 80 80
-0.4790854424620268 0.04390385343991124 2.9439538220196746 49 49 49
-0.4736985601186119 0.1392619837179032 2.9680892785445816 79 79 79
-0.4838171126172619 -1.5628831807375394 2.6326958459256464 62 62 62
-0.4838171126172619 -1.5628831807375394 2.6326958459256464 62 62 62
-0.4592527701996445 -1.3768953502436043 2.7514151095777675 76 76 76
-0.4788300525560203 0.5547723705585403 3.0166364666263816 33 33 33
-0.4629935776488039 -0.062204502682329355 2.9386579042912566 58 58 58
-0.4588590104861767 -0.33354257377023483 2.8964045496673116 23 23 23
-0.46044072709144035 -0.02818311796040035 2.936454989964093 53 53 53
-0.45545703071024635 -0.21697053080730688 2.9123161119715992 85 85 85
-0.4678188278361408 0.708531675275176 3.046086695742987 31 31 31
-0.45530191765575134 0.23893846046152684 2.976912196301494 45 45 45
-0.45415361882446503 -1.7362515639078346 2.6281183177586427 53 53 53
-0.4508195942477131 -1.5788011598974068 2.6518261179711016 36 36 36
-0.4499557176772999 -1.273775703170848 2.705562775448836 100 100 100
-0.5407552375393125 -2.309572506811052 2.2891602830614546 61 61 61
-0.44936834384123436 -1.6749299405025497 2.6255590467068157 61 61 61
-0.44936834384123436 -1.6749299405025497 2.6255590467068157 61 61 61
-0.44538416669047054 0.17597608124605013 2.962858700812807 69 69 69
-0.4504614537264724 -1.2428031567460491 2.703233613965382 93 93 93
-0.4146368131053144 0.1914111837325332 2.9983070549414896 66 66 66
-0.4182332896408778 -0.029547360894418173 2.944751193748646 55 55 55
-0.4510738962622587 -1.6464084565436445 2.5486270034855063 63 63 63
-0.5058758819764357 1.3959767157090712 2.9557737542011826 116 116 116
-0.36027164366396547 0.1359725815335036 3.071950195478401 65 65 65
-0.3886592480978419 -0.08179570217471654 2.9641941835183814 74 74 74
-0.38856708881358637 -0.458938584996695 2.884151701094519 44 44 44
-0.3998604860101642 -0.8785981529835201 2.7801924445563926 49 49 49
-0.49494749857104026 1.191509908931211 2.90123784971261 101 101 101
-0.3752094447894445 -0.7831809744875955 2.8390381911591978 53 53 53
-0.3927028741221297 -1.7110582315394314 2.6346686284721277 44 44 44
-0.4155807572092671 -1.7085793575974089 2.5761157035441493 56 56 56
-0.3671727420483737 0.36867977854468814 3.0360612949001626 33 33 33
-0.3671727420483737 0.36867977854468814 3.0360612949001626 33 33 33
-0.36229223450651604 0.57414346317975 3.0735955419361507 36 36 36
-0.36877471859253363 -1.106856816167533 2.7632303939188003 43 43 43
-0.3564210946313249 0.12814473829679168 2.9993528212986296 41 41 41
-0.38228437191235587 -0.05674267501200325 2.930610404771104 96 96 96
-0.47778608533760436 1.2908023330852885 2.8493235094167315 102 102 102
-0.3534267494992416 0.04090062404931161 2.973168629092904 35 35 35
-0.3534267494992416 0.04090062404931161 2.973168629092904 35 35 35
-0.3650738488972227 -0.7364737585794583 2.835115715009812 42 42 42
-0.38343192441715157 0.20243545317650857 2.9126179799304803 41 41 41
-0.48290565175338873 1.0682865041567178 2.8065254203460843 69 69 69
-0.3219283015823433 -0.11478588468081197 2.936724110959125 62 62 62
-0.42225350392319805 0.7834042320859502 2.8947257865449605 96 96 96
-0.328691259994232 -0.3054830944204043 2.9048754386589803 56 56 56
-0.48946280211579585 -2.214259762950416 2.216297164704348 47 47 47
-0.4449162136434224 1.5022796896574546 2.938049862252782 58 58 58
-0.332507659747453 -0.7193998372632282 2.8195889845366717 68 68 68
-0.474839367487083 1.0532245940698894 2.782349408578154 123 123 123
-0.33079675600148795 -1.5615098761247022 2.66603862880855 61 61 61
-0.3300096571779034 -1.5769968057375559 2.6540926285178883 54 54 54
-0.32470957777678233 -1.621998364205711 2.639315239389894 34 34 34
-0.4741114703811844 1.1934329703477267 2.781762502771761 109 109 109
-0.468483253493557 1.0348231807772406 2.75568149892016 102 102 102
-0.44520177584434584 0.915985266639137 2.7688977486320936 121 121 121
-0.3218496291922648 0.3144790766361576 2.9272047379162296 31 31 31
-0.4696377985508833 1.5040494452546782 2.7753550330807433 107 107 107
-0.45363302333287514 -2.1730623085107834 2.1923368155488445 43 43 43
-0.293803903046304 0.24615624676176534 2.8902380966613763 46 46 46
-0.4021271528925454 -2.18431713910377 2.2373445086726944 41 41 41
-0.4324973477386469 1.0328892714615527 2.6591196548363754 103 103 103
-0.467787534515129 0.986638021442519 2.5783264460653332 116 116 116
-0.4369492033061608 0.8962778225087784 2.587308671100867 124 124 124
-0.45254486742204003 1.5693335500593377 2.6290656945778994 80 80 80
-0.2737357753779248 0.8029866681803375 2.8899599139882786 71 71 71
-0.2568641522601487 0.7445377871261195 2.909778632513244 32 32 32
-0.2798898407651924 0.8018181459503406 2.86514713020587 74 74 74
-0.40992459819465443 1.4443134695843205 2.649829814245692 101 101 101
-0.41207199735807154 1.2857797530365793 2.6224541433880844 65 65 65
-0.4112740062796256 1.2352505506478162 2.5624110715867627 107 107 107
-0.40322122922033077 0.9194070873753606 2.5028151139949997 122 122 122
-0.39070078255071916 1.326590187031225 2.5537259726706236 85 85 85
-0.3765123886545485 1.1348901216216594 2.4333738901815205 123 123 123
-0.3751645804259387 1.5588329144574744 2.4953767947393115 112 112 112
-0.3723775296173786 1.2616853640486936 2.436093048181957 113 113 113
-0.3723775296173786 1.2616853640486936 2.436093048181957 113 113 113
-0.24008306684070924 0.8544298893441449 2.618638998258399 58 58 58
-0.3590158095016751 1.0166694854399614 2.385218735642358 131 131 131
-0.3520539920982144 1.0656938605888562 2.405466995015255 100 100 100
-0.35433401975035683 1.3430625869875623 2.4196016631686814 59 59 59
-0.34758151706272256 1.090254587352987 2.3143839114121305 132 132 132
-0.21519857246966323 -2.182220332712534 2.061864693428731 17 17 17
-0.3355444426948344 1.4534143103516133 2.3687989430871235 56 56 56
-0.33049797260844027 1.4129245963343582 2.3396272063567287 65 65 65
-0.3278721957915032 1.5314307652043782 2.3460448848568523 104 104 104
-0.3152529566209883 2.048286063384852 2.3923519510982865 57 57 57
-0.3082232781573788 1.6738204084324093 2.292752219834599 120 120 120
-0.3010502878505652 0.9641053663001438 2.212200888018674 151 151 151
-0.13670812845012303 0.8941414486842294 2.422217560785128 49 49 49
-0.30114667505700554 1.0782812552622048 2.1317554071553992 135 135 135
-0.16282045211536644 0.9217030855164299 2.34480985602664 52 52 52
-0.29068783984298463 1.037634638419537 2.1246698058517133 122 122 122
-0.2936173017164072 1.0805116800583063 2.1115786576650923 139 139 139
-0.2527330669658707 2.4516389490186667 2.2985879367715287 79 79 79
-0.13825650271994228 0.8075819412828302 2.255310890326763 34 34 34
-0.2527597314102392 2.451612179126228 2.298542739438814 79 79 79
-0.0018931778112580844 0.6472818202285748 2.4560884626270307 135 135 135
-0.26785045409965136 1.8740860623686038 2.1505137419772042 100 100 100
-0.2580917880209843 1.130908070914194 2.0191845984394194 179 179 179
-0.270586100409973 1.0676106054286734 2.0001259395341564 98 98 98
-0.28068824886023425 1.128055373421085 1.9748779187557521 120 120 120
-0.2556194318477756 1.5769525438075662 2.086546119936965 108 108 108
-0.2591433726868355 1.1917286479339098 1.996436176157721 157 157 157
-0.25637994740859193 1.256659624561522 2.0160966561543034 152 152 152
-0.2609594886031097 1.098258299795387 1.982411527161092 156 156 156
-0.25102703279011296 1.301946092590097 2.0123041263350085 138 138 138
-0.24555411414017447 1.361072515323116 2.028977123609026 79 79 79
-0.23818622089268882 1.4893524025105755 2.060940528569024 96 96 96
-0.08334498415505065 0.9101159882384677 2.2271148948864616 39 39 39
-0.24891991483008624 1.072241397772551 1.9725734940308697 145 145 145
-0.23258010227797765 1.066896870165263 1.9156919438234863 112 112 112
-0.21335993136372755 2.441914932167915 2.1053187482849482 52 52 52
-0.22014090203253156 1.4324863807858506 1.9507505611036056 62 62 62
-0.2239354366577322 1.8597037043052898 1.9856453908807823 80 80 80
