ply
format ascii 1.0
element vertex 723
property float x
property float y
property float z
property uchar red
property uchar green
property uchar blue
end_header
-0.25696837080553203 -8.05092112119691 21.762058216368143 53 53 53
0.24175714613532073 0.898224261368912 44.25639320997916 130 130 130
0.49019756608085774 -10.061733240400173 40.06392496601859 93 93 93
0.49019756608085774 -10.061733240400173 40.06392496601859 93 93 93
0.6106629544205449 -6.080431783079961 46.575379056082205 55 55 55
0.6431611394012378 -7.608295896278705 46.13611026576006 61 61 61
-0.8945718946537673 3.4342958677884123 7.921222974146537 86 86 86
0.7691582684546254 -5.587863719708886 45.78236361180699 114 114 114
-0.8764789091885059 3.5391850034278125 7.826095003121815 79 79 79
-0.12620041501503665 -2.089435525633092 22.275304191734882 102 102 102
0.6410362383200854 0.6139279438212227 43.5463024430218 207 207 207
1.024649184861424 -6.579898753455419 44.42731033780458 20 20 20
1.069791124730243 -6.186428540657613 45.50088552950948 21 21 21
-0.765679689191745 3.3700083998316135 8.720853594055336 122 122 122
1.3142405436564149 -5.957646976076448 45.2462469674385 80 80 80
1.5295629841519176 -6.1111453817996235 44.6079594192665 16 16 16
0.770055243252344 -8.043529891206191 27.89212510945596 100 100 100
1.6477406753312738 -3.5885943731936267 39.55571731093874 90 90 90
1.6377194151722922 -3.308155944427176 37.96237192245434 111 111 111
2.1271266650691443 -6.087104934048225 42.24890891129571 93 93 93
1.6989232263404617 -4.145910672421547 36.987395782768495 125 125 125
1.8823671403677849 -9.643380955383385 36.73455735326944 129 129 129
2.264515637789337 -6.9508408281129785 43.7640125990688 182 182 182
-0.42799564532357737 3.2544573238254344 8.88936436151246 72 72 72
2.1243289936593612 -5.11670011493213 36.82529512611891 58 58 58
-0.6133454931847842 4.018903656993008 5.811054469458277 69 69 69
2.066506903177804 -3.629415944368741 32.657201343284285 72 72 72
-0.18196810123363982 3.3224337978435736 8.500190419325165 88 88 88
1.977622624361718 -8.305950035330103 22.768450750982293 70 70 70
1.8362191553690757 -5.380878133207054 22.328492765717606 4 4 4
2.164116076234429 -2.6034160917634885 24.367412312572178 65 65 65
0.9331237255619853 -0.4465550069894984 15.032199669532549 20 20 20
0.9208978046540963 -0.19965236194637032 15.004354571298471 97 97 97
0.9508163596082295 -0.5738065692415244 14.765868905906341 172 172 172
0.9485834012581771 -0.5721705393129422 14.732852344571164 173 173 173
2.126528591472111 -3.2659011093251884 23.02594643730127 32 32 32
1.0560844377052918 1.295790596295356 15.80828597196163 18 18 18
-0.04068359942160993 3.4993412283690177 7.785286927327717 128 128 128
-0.018280485279371428 3.5306323404691398 7.684915804605741 93 93 93
1.1445817734287775 1.349740704807788 14.699275981441673 11 11 11
0.12761187312133604 3.603555984582089 8.070562065408273 90 90 90
1.3298544151928322 -0.6076123657208932 14.235115483660067 41 41 41
1.3298544151928322 -0.6076123657208932 14.235115483660067 41 41 41
1.9352613564857184 -4.69653009990617 17.008716679080337 142 142 142
1.3469258107370394 -6.286820605224952 12.638283949363075 87 87 87
1.3896100584817281 1.6789304024753609 14.071159278668341 94 94 94
1.5718300143001844 -0.8195737188350147 14.040416482346657 132 132 132
1.9499477837447694 -4.61661415637314 15.289980804236855 27 27 27
1.6872009368554854 -0.5260172531825256 14.164428006479286 18 18 18
-0.020397020805656974 4.014031019851153 5.633990094019587 82 82 82
-0.44623283650271084 -0.5322284326831088 2.2735137680519646 172 172 172
1.7786525549121137 -0.5289262352778055 14.182782190496756 5 5 5
1.6349374160244752 1.6145856584840612 13.843225800888204 55 55 55
1.9420176050169897 -4.216629976186312 14.004993635879181 100 100 100
1.881753917728314 -5.00788371818687 13.487687887887931 97 97 97
2.2324529227613406 1.4526527146566317 16.055446956809728 31 31 31
0.41723249967287424 3.614007136055672 7.144447512524748 87 87 87
1.9034837967379459 1.812654433092539 13.770135049050255 77 77 77
0.28555148877177805 3.9976298867873643 6.1533306011069 65 65 65
0.6410949712693153 3.504369936392876 7.562228564513323 105 105 105
2.0296641481078903 -1.4232124904036936 12.833436635653928 77 77 77
2.0918163739615983 1.8595172849650088 13.62261247671213 20 20 20
2.140880547559382 1.9369832310451431 13.767346101067066 20 20 20
2.1797731904828916 1.0033725895548966 13.6644076456527 68 68 68
2.171496423999924 1.0773410190673978 13.386668246887893 49 49 49
2.0216747150758816 -1.8381186698845895 12.131253947662211 49 49 49
1.960329117812254 0.2340589590753091 12.08079802249792 55 55 55
0.6835327823011785 3.5721575776293606 7.218714552618651 115 115 115
0.48408600382720923 3.8388899928988924 6.202662042723932 75 75 75
2.065788613467289 -0.6697915860647958 11.854405412207665 50 50 50
1.8972444065252096 -3.952435136799787 10.394489961844629 27 27 27
0.5069092890562641 3.8239464612375476 5.9689866195890815 75 75 75
0.5069092890562641 3.8239464612375476 5.9689866195890815 75 75 75
2.031159510917092 2.4158529223086553 11.789074231248014 60 60 60
1.9123725494868458 -4.010751914352532 10.197441734203926 39 39 39
0.5325294450158529 3.8728271393972724 5.771438537687272 61 61 61
2.9550609095014058 -4.864912493380422 13.499689089156494 30 30 30
1.8013256498117807 -5.144794882948901 8.608056391236973 39 39 39
2.060249907830912 0.1758899050492252 10.323007204250459 46 46 46
1.810107957189703 -4.971818335373602 8.573080106681303 28 28 28
1.8392297511624944 -4.417210949983647 8.656467121372728 27 27 27
1.8881600216562457 -3.7259931952138023 8.862008329929504 25 25 25
1.5414091142655075 3.215565426834524 8.694677897262894 125 125 125
1.5414091142655075 3.215565426834524 8.694677897262894 125 125 125
1.8949788022284833 -3.4398998185104266 8.886218326363887 23 23 23
1.9375923072808283 -2.951141916391824 9.059297813055778 23 23 23
1.946886072116007 -2.6897340606807107 9.104140036926342 26 26 26
1.327197497582922 3.4337050230234496 7.957945846531474 112 112 112
1.9708557486062603 -2.1621173975701535 9.210367157667607 21 21 21
2.136807109305995 1.8922403013615088 10.334758296174305 46 46 46
2.2505054676611342 2.808790630888047 11.088788927303169 46 46 46
0.7956051885714885 3.8919126866955587 5.965175113033418 125 125 125
0.9839686741241787 3.7082644965525824 6.511174434252404 86 86 86
1.5213590949018716 3.254798008121796 8.302617203094277 148 148 148
0.7947143345919938 3.919476646059302 5.921546435316472 145 145 145
0.657066392588644 4.040019634515272 5.410173588078286 121 121 121
0.8375999493008892 3.8520252454905743 5.977901060778267 98 98 98
2.061994873941543 -0.4541133545223977 9.365424748791982 62 62 62
1.9592046648040986 -1.8681296105775445 8.766218083263396 50 50 50
0.9490927064194747 3.7254326516885468 6.10046870267021 76 76 76
0.9490927064194747 3.7254326516885468 6.10046870267021 76 76 76
2.1673474622101847 2.848295126917437 9.986001483753219 36 36 36
1.9646755140020362 2.8755435051219442 9.353065667995013 50 50 50
0.9643459379354851 3.888191474981933 6.05220228024929 88 88 88
0.9792250631973038 3.7382247155713917 6.101317588367313 125 125 125
0.8181159465677674 3.977147194472668 5.583964384084717 62 62 62
2.0472942213785026 -0.3685641466522806 8.852935107338524 41 41 41
2.179120175039975 2.7566177505445024 9.690017285409484 45 45 45
2.183170069138539 2.6067909417873394 9.655295309961632 56 56 56
1.0111124593361982 3.786759683267181 5.968669481820618 115 115 115
2.063727941240462 0.2928638503496222 8.819976720095418 69 69 69
1.4929289073392837 3.4753975445938416 7.477718439505099 78 78 78
2.045288746113975 -1.116066160369711 8.52471109750043 42 42 42
1.495207590440911 3.500448536965059 7.403320423462769 71 71 71
0.8858480857807716 3.9901589353042466 5.561847881012022 80 80 80
2.084690200461823 0.2781874778418768 8.729580189034724 49 49 49
2.084690200461823 0.2781874778418768 8.729580189034724 49 49 49
1.1973811574223179 3.646440642863303 6.349265667851793 91 91 91
0.9193607625766731 3.9455366240823055 5.532831151126725 141 141 141
2.0707880085058483 0.07751655411571351 8.482459495922017 48 48 48
0.8549301095995279 4.068919073317814 5.279231032738514 54 54 54
1.9242679754949346 3.215617706247119 8.49599952478171 127 127 127
0.9049469110168475 4.025633775830367 5.384042128354458 71 71 71
2.002031986505944 -0.6630919887174678 7.986764381207737 60 60 60
2.1026401974615765 0.3097544234859606 8.366894679953916 48 48 48
1.9390130911648997 -2.010046449740361 7.408110581030512 47 47 47
1.5390912988037964 3.6099985469802753 7.028453162118889 130 130 130
1.970599612900163 -1.662338760132947 7.5435951313753185 43 43 43
0.9498612762367791 4.035096813134141 5.338820819637695 137 137 137
2.036919556390432 -0.09355455942897406 7.8583681268183065 53 53 53
1.0307422178812704 3.981016790347976 5.483844496284845 116 116 116
2.155265692029246 1.7276691738859542 8.38633574296641 54 54 54
1.9038348644408627 -2.57766711791343 7.044616306373375 31 31 31
1.922898263469249 -2.4787717196504113 7.061932496826757 43 43 43
1.5153923250147905 3.6469294561087344 6.759996301087207 130 130 130
2.022299473391872 -0.37939707785641125 7.612641576101338 49 49 49
2.1352836626755485 1.1977548523268453 8.134351433677635 60 60 60
2.04700865451004 3.2537305729280956 8.12957682348513 63 63 63
1.9054427953778084 -3.241916312439507 6.823165755975913 38 38 38
1.050340175344913 4.080614190305202 5.3624596229136925 66 66 66
1.050340175344913 4.080614190305202 5.3624596229136925 66 66 66
1.9411050140135564 -1.584604689571329 6.905582526877507 47 47 47
2.0795069034330687 3.38563313875897 8.005440342521267 84 84 84
2.1250614826566725 1.59950789934599 7.747060073000434 54 54 54
1.0470613668227249 4.047923886822975 5.196042467687086 77 77 77
1.2493533700433268 3.9536953117261953 5.594171095749816 56 56 56
2.1527012467218776 -0.20761451430809247 7.316627503426752 55 55 55
2.116987693169297 0.7574021394553834 7.345940433688125 88 88 88
1.2501335032963503 4.022204947488574 5.5050989121319605 84 84 84
2.112826393946777 1.1550192752599837 7.365233662100825 84 84 84
2.120374352185702 1.4230354734477675 7.396806265981636 84 84 84
2.1110457496521096 0.8538299668209306 7.287081179595385 56 56 56
2.218698023984936 3.3448672601439657 7.855853543976813 53 53 53
1.3460704224139368 3.9287970628698745 5.6680336656147015 59 59 59
2.1000695776414933 0.9019104690498188 7.209770436150953 59 59 59
1.8855202656443986 -3.1731314514134032 6.057694109304175 63 63 63
2.1387879183703555 3.278612519214924 7.489867846356014 51 51 51
1.3258054138644026 3.9239661993251183 5.461955474885294 114 114 114
1.9996120595983453 -0.6232911771644034 6.5583186415027495 54 54 54
2.0504722253966405 0.30154136941528825 6.801331836709585 59 59 59
1.9482560700299745 -1.1454189589965789 6.348766624510687 54 54 54
2.1458243782463033 1.7596350872878834 7.235006438494209 56 56 56
1.4741917663354447 3.8732417351824817 5.813466732457504 56 56 56
1.5138810255760684 3.869957501647295 5.798389021568475 83 83 83
1.5138810255760684 3.869957501647295 5.798389021568475 83 83 83
1.798029215853584 3.6770769033015003 6.544960527146553 42 42 42
1.798029215853584 3.6770769033015003 6.544960527146553 42 42 42
2.0265074876110813 -0.5385047091222406 6.510021745455148 109 109 109
1.854780719134498 -3.9535171876256836 5.54659600716285 30 30 30
1.9277606096241775 -2.5526987956576086 5.880316467718182 61 61 61
2.0433300452430516 -0.6773327532000524 6.392798101201959 54 54 54
1.9081216569215456 -3.193653131557756 5.62963352095552 67 67 67
2.174451616354388 2.5714685661100583 7.095540534408237 53 53 53
2.106427156822705 0.9225749565170513 6.685599559910959 61 61 61
2.0074096517222575 0.2211788933829439 6.2633319188089756 67 67 67
1.8914529563763751 -2.9491652311661154 5.6230909191687966 58 58 58
1.5540279159126786 3.905769054146755 5.685990969528947 69 69 69
1.4674741254188661 3.882679265408559 5.435067672698528 117 117 117
1.385248186609449 4.006640240902767 5.289387345401076 68 68 68
1.8363335554354032 -3.9022940657449166 5.2940304652324395 32 32 32
2.013474869173446 -1.3096151919544483 6.05018396251214 33 33 33
2.013474869173446 -1.3096151919544483 6.05018396251214 33 33 33
1.7364456016890437 3.7342752331293907 6.065157955524497 118 118 118
1.5015633807034159 3.953893220339605 5.50041419575911 125 125 125
1.6739063618038 3.7469810324461026 5.779222277628449 65 65 65
1.6739063618038 3.7469810324461026 5.779222277628449 65 65 65
2.066530038427828 -0.033633793439160786 6.265922131784822 64 64 64
1.5351810977046059 3.9563323337338354 5.4786951485519575 46 46 46
1.5110369231568264 4.070964195843489 5.4719993271843865 85 85 85
2.064645992713326 0.15199357860832796 6.215333331433023 67 67 67
2.0956849782670894 0.8875488777012785 6.375235919766108 100 100 100
2.0778845130821915 3.6311547687064634 6.727181480778032 134 134 134
2.2812105657853983 3.270699640637752 7.098200418321137 51 51 51
2.2812105657853983 3.270699640637752 7.098200418321137 51 51 51
2.119866887237075 0.9215803855400808 6.414414056913866 99 99 99
1.552417233435694 4.012515091491469 5.497943059091949 70 70 70
1.9212273548451608 -2.5351792988524577 5.4455948292509495 91 91 91
1.4917663697496382 4.051742117932206 5.294500994809085 133 133 133
1.4917663697496382 4.051742117932206 5.294500994809085 133 133 133
1.5230212152484657 3.9853153013525 5.35816749821104 88 88 88
2.053817194331644 0.5721436699929472 6.111517785137982 58 58 58
1.9228173053256437 -1.5618300883291527 5.535979134930062 66 66 66
1.9529697431095125 -2.053125817827815 5.462216701156266 6 6 6
1.5192804845081604 4.008971096514249 5.296055874572711 96 96 96
1.4727249130253384 4.032665420486943 5.1761666688183094 44 44 44
2.141943279628285 2.40944434395552 6.482552266272536 56 56 56
2.0616926849343957 0.3239020851833149 6.0317811974673 73 73 73
2.118330186984013 1.3977464807041917 6.285662754942262 66 66 66
1.893804802724138 -2.980054685940935 5.277909885140594 87 87 87
1.955558710615148 -1.6230928841471461 5.590339888318689 74 74 74
2.0592568507996205 0.06289014748995558 5.973950949698433 80 80 80
2.050309889463862 0.056611094535965856 5.944338902294013 81 81 81
1.9337717273414916 -2.417128499539431 5.351279724623463 67 67 67
1.9369582940835324 -3.1558901443955127 5.264321548353755 27 27 27
2.008973073237753 -0.6688705499122103 5.7326933171877545 31 31 31
1.7203998752267458 3.8973160634117527 5.657824328373664 66 66 66
1.7203998752267458 3.8973160634117527 5.657824328373664 66 66 66
1.966061176895482 -2.6317233382504077 5.382928190734326 84 84 84
2.0187175953178498 -1.3401044946983958 5.5938918522508985 73 73 73
1.98728967390762 -2.3697729370456724 5.4448601498099025 74 74 74
1.4713629896856322 4.054230530966058 5.08890678006108 67 67 67
2.1113070441800157 0.6750382831298349 6.117677005489838 96 96 96
2.1047692941148504 1.203729767332265 6.13976720197132 11 11 11
2.04417954058825 -0.3924812207179818 5.787305714540992 8 8 8
2.213751079548008 3.542424811139668 6.665891000994461 46 46 46
2.1877110488618365 3.329793531898441 6.571844047150206 63 63 63
2.0512168084429647 -0.5790282099956419 5.764554193518755 72 72 72
2.067636698464251 0.5274712545039602 5.917142591476239 94 94 94
2.0814989112196174 0.8744410326299954 5.950013643531376 68 68 68
2.0814989112196174 0.8744410326299954 5.950013643531376 68 68 68
1.7767686846397157 3.903386270713458 5.6395564314088995 60 60 60
2.1120437247190917 1.1017933765836705 6.030605152786372 74 74 74
2.052389840671382 3.7380780340212003 6.227182148463826 63 63 63
2.0568746015218986 0.28674245935851655 5.791870146821405 71 71 71
1.718053773857013 3.938302817964107 5.496403208164203 103 103 103
1.5956045062712105 4.031608009265267 5.180136786409495 59 59 59
1.7853857854395438 3.9343328326799085 5.623647758288442 70 70 70
1.7853857854395438 3.9343328326799085 5.623647758288442 70 70 70
1.6988908777375697 4.014186003802544 5.346905557563547 110 110 110
1.6988908777375697 4.014186003802544 5.346905557563547 110 110 110
2.245506908406946 3.605644911990509 6.516492852654185 45 45 45
1.9198605794702694 3.8019271639824104 5.842712879982923 92 92 92
2.0326873911075793 -0.22508362257729903 5.565563504723873 95 95 95
2.087288154146292 0.7907420403653416 5.769651594513341 62 62 62
1.6833259080979133 3.995215646194316 5.309678120441515 81 81 81
1.5668384431954214 4.001113260211736 5.01340822109184 68 68 68
1.5668384431954214 4.001113260211736 5.01340822109184 68 68 68
1.6484330576763448 4.016879188507935 5.197598561185165 49 49 49
1.987822320901925 -1.7215351399872432 5.153753159353862 19 19 19
2.043278349722109 -0.6094831918700396 5.429497820723475 61 61 61
2.161980621119934 -2.9618190159159736 5.301901254254349 48 48 48
2.0706657400222115 0.609350708361714 5.571160535605801 75 75 75
2.1630872315629337 -2.8304567696081886 5.228083548117955 30 30 30
2.0585690606603357 0.11283210887938289 5.338550190201355 74 74 74
1.959215756552807 -1.4317927999636424 4.924995052061418 77 77 77
2.2367896413051316 -2.9127840428010083 5.316840847886604 50 50 50
1.845347769684853 4.089302085135464 5.351698485347271 64 64 64
1.988386870618089 -3.180765548648809 4.7241240820359565 68 68 68
2.3221563411876405 -2.87438050574739 5.31551812180232 78 78 78
1.9302183470283443 -1.340682154413182 4.723984059840288 24 24 24
2.1002934876662134 1.171173485059425 5.398943708588259 92 92 92
1.7852718458579764 4.00111302822485 5.097486857589437 148 148 148
2.082572896522284 0.5728315508181425 5.212686059224172 1 1 1
2.082572896522284 0.5728315508181425 5.212686059224172 1 1 1
2.3253243785857896 -2.9515501961369752 5.264363631687016 40 40 40
2.3054177892310825 -3.1395429898156433 5.238015155023435 29 29 29
2.231594163296462 3.3677063370318576 5.8076144012624145 68 68 68
1.9395788840347885 -1.2320614865825834 4.66784399428676 82 82 82
1.9915967351115316 -0.9882123874823496 4.6946367980757735 86 86 86
2.046708852349702 0.16646135047909227 4.893662668320985 83 83 83
1.931028571055562 4.046379930005671 5.083702758517792 104 104 104
2.090314214001097 0.8946018637491522 5.004823873293534 1 1 1
2.1303566508115934 -0.08594713410533744 4.895740666920753 98 98 98
2.0787359874232467 0.08545208676588409 4.805030626522555 39 39 39
2.0006647594527887 -1.4018332010990084 4.503101328405595 87 87 87
2.0680313977258464 0.2845964548162971 4.827732888967794 74 74 74
2.057192701577925 0.17366146045648828 4.788223088471392 71 71 71
1.991837733504648 -0.8292789892160815 4.538835739308212 114 114 114
2.120156481414462 3.7852279712332244 5.25050310296576 66 66 66
2.128362982131219 3.9222654462673847 5.325934588793837 64 64 64
2.092635731241733 1.120537790660332 4.917776637631419 86 86 86
2.079734397967074 -0.4845272817669694 4.716824442778348 23 23 23
1.8203730289257738 -3.407224315254426 3.778177922717874 60 60 60
1.9969337543798593 -1.183010161514123 4.356064431791666 87 87 87
2.1104735760788715 1.7101046714357007 4.899286354012375 69 69 69
2.170131298880496 2.2923730317460915 5.020997251817463 68 68 68
2.079460738854489 4.021848742865079 5.046292577734076 88 88 88
2.1570307216708424 0.6939928105007003 4.818384736798771 85 85 85
2.0952191269930163 1.0165729039384714 4.69400408501858 73 73 73
2.056425915113012 0.7544602870511966 4.590818138652889 73 73 73
1.9647460899970794 -1.5919617073734649 4.150227351808479 112 112 112
1.8904020893011677 -2.853170175651661 3.824058527616635 29 29 29
2.004538428464337 -0.18321175218998248 4.329030925315344 74 74 74
1.9354592652791314 -1.5946568193877726 4.060508436259019 103 103 103
2.087176302219721 0.934243046978251 4.5660219249342555 86 86 86
1.974516417081698 -1.2355708135149388 4.0887266537438185 28 28 28
2.022068507151933 -0.9608967163211826 4.175623866343259 45 45 45
2.022068507151933 -0.9608967163211826 4.175623866343259 45 45 45
2.1045879445563824 1.2649183396266657 4.565652720135384 34 34 34
2.1641326921695323 3.006480812480911 4.893187633530011 55 55 55
2.1377369270273348 1.8249763276147883 4.709732739504807 7 7 7
2.1130693578358506 1.594803195722558 4.617471667338664 73 73 73
2.025503473969658 -0.021190251375271085 4.25716261982651 84 84 84
2.0489713034640387 0.6694970148409738 4.3574404895838255 86 86 86
1.893986223293969 -3.0575012238008057 3.651757152344973 87 87 87
1.9917595446284349 -1.2364392775542985 4.068057620220535 116 116 116
1.8855059371215228 -3.157188490417067 3.614703490502251 89 89 89
2.1151284390501868 1.3414926196005936 4.510471350102652 101 101 101
2.006028288948338 -0.4888101908101892 4.0917666159710615 76 76 76
1.962754397993967 -1.265604231341453 3.9287177045866777 116 116 116
2.0586431005336263 0.588802638051415 4.302263245191868 77 77 77
1.94516781274136 -2.5090571155866956 3.7233119401422323 105 105 105
2.0132746764102682 0.19187972523308067 4.121691536390217 2 2 2
2.084398891845207 0.872016442234725 4.343207966556863 74 74 74
2.1518616800772215 2.7734860392217793 4.668749431799245 62 62 62
2.001834078277899 -0.365109113022875 4.056617562590377 9 9 9
2.055929792795051 -0.08839351533440931 4.175514420644874 97 97 97
2.1185309073945957 2.4588498479454066 4.517615261918536 63 63 63
2.1013235445169083 1.3694791267848558 4.339158930137436 77 77 77
2.0851935638725725 1.2269699490978263 4.28316452138316 70 70 70
2.0837113931938336 1.2484592847056846 4.281971960180246 73 73 73
1.9642478629478033 -1.2345473254563677 3.790897767802136 109 109 109
2.002682673416246 -0.4737653017171733 3.9398985904679185 78 78 78
2.1402383116134978 2.0609254137150885 4.4454042104043054 63 63 63
2.157992229897326 2.9527351772486785 4.571622201810783 38 38 38
1.9831030241345213 -0.0582251382295888 3.9140675805470737 54 54 54
1.9301898290202701 -2.0650134090180843 3.624061563158337 141 141 141
2.154233176587279 3.013159959729665 4.557228075488872 103 103 103
1.9218003825849124 -2.1145254681755206 3.5973302576684203 118 118 118
2.007081032183202 -0.25990438053865556 3.8643529274419306 161 161 161
2.0282577590307604 -0.06560176576204596 3.955462542088404 31 31 31
2.0799427694341177 0.765124254959067 4.1245808824074786 31 31 31
2.147876397757079 2.190581472065803 4.399581466438472 28 28 28
1.9341645499572975 -2.087887068653248 3.558262426618459 146 146 146
1.982751232272618 -2.21484216923628 3.6150347138282397 85 85 85
2.0947907453594654 1.0675528707206137 4.1533365683307 18 18 18
2.0947907453594654 1.0675528707206137 4.1533365683307 18 18 18
2.112328216365196 1.3397966605645464 4.229715552010579 111 111 111
2.0761302925337075 0.5077671033022649 4.053589369554865 31 31 31
2.047772548486705 -0.03940242539971711 3.9395386928516185 39 39 39
1.9272937881124617 -1.4177254032690123 3.543111063022703 52 52 52
2.0565599914594457 0.42091650190556273 3.9888154797647646 112 112 112
2.0048486985387197 -0.5955114008726567 3.7827664240113226 9 9 9
2.0044597985327584 -1.4623154127015212 3.6589767695642896 42 42 42
1.3456715461770488 -2.1158963617879474 2.4787605601897225 109 109 109
2.0862584062890637 0.06885941490386194 3.8998572312367354 120 120 120
2.180123988455704 2.2997066907388297 4.2867138802966815 83 83 83
1.9464595037785486 -1.5851443884212073 3.4318265925546836 98 98 98
1.975915218320229 -1.006916042600572 3.4968209508471775 150 150 150
1.9678663104914254 -1.1686753802840038 3.4370898118507087 102 102 102
2.117369876746767 2.8720108911456057 4.088068464316276 72 72 72
2.221768880189633 3.6541915446875497 4.341626654498988 45 45 45
1.9490892419640948 -1.745008700218604 3.3234725661392224 118 118 118
2.1964418374703376 2.867264680063364 4.21138920112931 87 87 87
1.928951759799542 -1.8547730410716243 3.27427550916114 125 125 125
1.9827391676705064 -0.9600376836394189 3.4371435386106812 124 124 124
2.021291485573179 0.21159031868105463 3.6206616101813927 115 115 115
2.0638485260822623 0.8155007856188097 3.752453541874023 82 82 82
2.162633650862713 2.270855848264054 4.021434224618523 139 139 139
2.1578717517058044 2.0439706800093247 4.022402350756055 57 57 57
1.974481927154153 -0.9856722594060554 3.4042505044772957 126 126 126
1.9960047567744619 -0.05441119346586315 3.535991401463976 77 77 77
2.212858600748841 3.35994168164302 4.239742856668458 42 42 42
2.163664084602363 2.3299701335411407 4.041226554733004 33 33 33
2.097091489058944 0.8641223719574485 3.7742549657132693 117 117 117
1.962883750856641 -1.0585899458012555 3.349410292869483 145 145 145
1.962883750856641 -1.0585899458012555 3.349410292869483 145 145 145
1.9393710757203975 -1.7941713528013066 3.233643007816969 109 109 109
2.0962324727466397 2.113372462025598 3.8974733608307055 59 59 59
2.1945078740493 2.4030353339275936 4.078453181321776 70 70 70
2.181511906837087 1.8075452737167268 4.034431088572927 89 89 89
2.0186134974422445 -0.24981513314423903 3.5161944841606534 136 136 136
1.9072044284560743 -2.8254586556654115 3.0221857822238043 80 80 80
2.262173977678913 2.820446981013778 4.1969386617290745 42 42 42
1.946996386177791 -1.3301494614639484 3.262536088197738 105 105 105
1.9636532660244517 -1.1333942395385934 3.3027105908025503 112 112 112
2.0343429210772683 -0.1059204393364645 3.519174330911616 52 52 52
1.995919966812255 -0.7079771413122182 3.3832386593113952 108 108 108
1.9490158792466707 -1.6967989755211998 3.19475386540965 73 73 73
1.9198763670615229 -2.1783190017123997 3.092596773062784 131 131 131
2.204230402774949 2.3094399922496947 4.002475479112579 40 40 40
2.1946662299755855 2.310831844470284 3.9598549576762654 51 51 51
2.2786029496874067 3.3473563586422586 4.158887863736571 60 60 60
1.9188348539205293 -2.5279974520124497 3.0075572157874513 85 85 85
1.9977701200592692 -1.198587433283054 3.2686516268820904 57 57 57
1.9807417311700481 -1.5443028881754315 3.1948073864560467 83 83 83
1.9041010055458707 -2.82091625191166 2.939402211124161 113 113 113
2.207960347296257 1.013016092093203 3.7416931151950656 107 107 107
2.223798972342688 1.1380606387730947 3.7922002655909672 194 194 194
2.223798972342688 1.1380606387730947 3.7922002655909672 194 194 194
2.240947797513456 1.5697231753987784 3.8389266626504526 49 49 49
2.2387544297424227 1.1908462175392893 3.7917986517419227 49 49 49
2.244233230881428 1.2397697376188042 3.78375054811917 51 51 51
2.1455880619712238 -0.07011822818367863 3.4872036664911565 63 63 63
2.172213737056077 0.33172928941615615 3.573177088122539 61 61 61
2.2963750683237687 1.9004100740943426 3.9210517592383134 43 43 43
2.388734049753678 3.36862741020068 4.208962958960567 34 34 34
2.0145929786753762 -2.523016674117512 3.020673695244926 77 77 77
1.971530755125749 -2.3399064101658875 2.9620603469405227 98 98 98
2.1648067727415063 -0.8993357812910743 3.3795287095476025 72 72 72
2.460013595835449 3.237864410445774 4.240327120229483 41 41 41
2.4001360351359295 2.1814397805056314 4.0153043311080605 45 45 45
2.4456573762140716 2.756440415905123 4.139404958192678 42 42 42
2.0679299979771883 -2.3261042193325943 3.0586728175319333 108 108 108
2.0679299979771883 -2.3261042193325943 3.0586728175319333 108 108 108
1.9078566856314683 -2.777985279267644 2.7434419032547765 143 143 143
2.067666921232597 -2.6821445288873482 2.980229283168817 78 78 78
2.067666921232597 -2.6821445288873482 2.980229283168817 78 78 78
2.1096593676046806 -2.0468857692768374 3.1593442631522537 76 76 76
2.4923272172402715 3.145049763855054 4.194223538072332 78 78 78
2.456361099913675 3.6074588988168856 4.146458473580876 58 58 58
2.3034139764874095 0.5403464372727484 3.640249267585977 68 68 68
2.1165509256253277 -2.189080646396911 3.0846360076998574 94 94 94
2.081844925310743 -2.5127272591186642 2.9972253005045895 68 68 68
2.239595726162194 -0.5050853792884145 3.418721897783212 88 88 88
2.328600105751352 0.3396198931445094 3.601593248268605 70 70 70
2.3667848876379103 0.6796464046362056 3.6900486557294814 119 119 119
2.3667848876379103 0.6796464046362056 3.6900486557294814 119 119 119
2.463532497031 1.965493215534167 3.9298793865675448 139 139 139
2.44487868858084 1.434520847046014 3.8530843015993304 91 91 91
2.2509276696349514 -0.944346076313531 3.331088649345216 76 76 76
2.483148375181593 2.2072121416235175 3.9817921797139295 115 115 115
2.114874653907335 -2.7745894239576496 2.945756059046321 27 27 27
2.3933294538200913 0.572168358332959 3.657455567164191 114 114 114
2.3614199707665326 -0.873219049507566 3.4834305576953497 55 55 55
2.438815025532234 1.1060998570432694 3.7715638444560122 151 151 151
2.3248173260818965 -0.28225713648098133 3.4567190063012028 131 131 131
2.192658365152107 -1.7939119789475593 3.144694856957492 92 92 92
2.3384101070774674 -0.025463454864540824 3.5304125923182115 110 110 110
2.2261809145474487 -1.6019133038553781 3.207047272218726 76 76 76
2.542491925363362 3.245226564617595 4.152185975701196 93 93 93
2.2147398380896757 -1.8269392045536057 3.164569899032556 101 101 101
2.294006592346655 -0.4928568429209916 3.4149109464303944 90 90 90
2.3211103269819815 0.0023702061991136003 3.482308077894384 22 22 22
2.150658031588612 -2.594647040400853 2.987492176496043 71 71 71
2.3153624860255286 -0.19323092749752785 3.466178883440392 68 68 68
2.3153624860255286 -0.19323092749752785 3.466178883440392 68 68 68
2.3916238879237905 0.2691308213721461 3.591633577271871 154 154 154
2.5144899804215735 2.5889028247282755 4.026467115392588 100 100 100
2.290608818482878 -1.788167007152414 3.2446978147023886 97 97 97
2.3172239922538997 -0.5856364655102195 3.4007716421486025 106 106 106
2.3269034644832827 -0.5153226191739759 3.41951703958474 100 100 100
2.2103253435803722 -2.168508397926118 3.075690525817394 95 95 95
2.3359828922195294 -1.1539279935716875 3.3192257945804764 103 103 103
2.4379684363309395 1.196023449671102 3.7254779924600205 121 121 121
2.2230161541732008 -2.35374732877782 3.056142376701244 108 108 108
2.4032023420125115 0.5885369830004851 3.597035870065522 127 127 127
2.392558484128766 0.3879375234469659 3.5452284128829508 132 132 132
2.4359631042360195 0.8007942787508344 3.6422484961195556 122 122 122
2.3621294260293415 -0.20494487301791747 3.428672582008046 139 139 139
2.4079331249993596 -0.38278086296727115 3.4600590441795207 138 138 138
2.266118719009829 -2.491426892407088 2.9425485514466283 152 152 152
2.481015501364877 0.7206120327367838 3.5273304176101323 89 89 89
2.469513144834048 -0.3838953726025918 3.324297452194295 100 100 100
2.283218866637327 -2.484666805104227 2.891552215785959 115 115 115
2.4363610931101007 0.4568936324670317 3.343079562092675 91 91 91
2.2972607098926403 -2.481523217644157 2.8682505529090774 104 104 104
2.4894418323482967 0.7430001140637055 3.4214529033819616 109 109 109
2.488268268345018 -0.6924478037651782 3.2376710963910744 130 130 130
2.2505082391588056 -2.731708154108328 2.7454731826654504 44 44 44
2.4937754770558302 -0.43191354722327896 3.2886334612916492 63 63 63
2.4937754770558302 -0.43191354722327896 3.2886334612916492 63 63 63
2.364211065733042 -2.4970952326859286 2.856507466634347 58 58 58
2.4646645647119705 -0.34721398051169944 3.178859987683791 104 104 104
2.41292240092755 -2.398329048626188 2.874923521232695 160 160 160
2.4138941177013518 -2.3846130813002957 2.837711581198773 86 86 86
2.4411849707406628 -2.3886698481309385 2.8068267160424147 57 57 57
2.4808939215929 -2.685374003409894 2.4814162708452514 51 51 51
2.2909371710167035 -2.749713246323524 2.2855750998996136 48 48 48
2.2909371710167035 -2.749713246323524 2.2855750998996136 48 48 48
3.0837816457098968 0.2905174659269564 3.417691602291094 18 18 18
2.2196441798664517 -2.6852985169481607 2.155077653081454 47 47 47
2.251907758070317 -2.6928720810347557 2.1877789686151354 40 40 40
3.1581800469706853 0.3158788532120053 3.4086898806746264 154 154 154
3.1860174199578597 0.4031765898745162 3.402699091998443 127 127 127
2.383416199328747 -2.5685364259890613 2.236208651448103 54 54 54
3.1306149424934104 0.7760017181262031 3.3280011378051464 128 128 128
3.1647229019764436 0.0808952352617987 3.310297212955077 132 132 132
3.1918192776750502 0.8859246410719914 3.4087847595885945 52 52 52
3.1074546302801473 0.0057290091820757505 3.188268903278842 130 130 130
3.204772823501044 1.0296938911939058 3.3712929698599696 46 46 46
3.1516395513026105 0.10732993179850381 3.2172088997390116 49 49 49
3.1482810835752724 0.07601840561869211 3.20692661362391 45 45 45
3.2380169916457704 0.45076889179093255 3.3215724001116813 39 39 39
3.1299452763898024 -0.26064552230770627 3.1334475074932433 44 44 44
3.124056571409351 -0.31855222716135084 3.117441202602766 161 161 161
3.158002021496993 0.05799239426794972 3.185752126193435 119 119 119
3.157113674342033 0.6218570666291987 3.2326649132082546 60 60 60
3.2059707185798945 0.7581291384553508 3.291123457530949 49 49 49
3.2059707185798945 0.7581291384553508 3.291123457530949 49 49 49
3.136735011328581 0.33161296735156615 3.179293308526363 66 66 66
3.2040790197525157 0.9001736781877638 3.218843891707743 128 128 128
3.079771705864131 0.698809691901653 3.0142642575906926 129 129 129
3.1092358024281235 0.6195272112491126 2.957296907423032 139 139 139
3.224368799212592 0.9427976552296216 3.052802887965351 64 64 64
3.224368799212592 0.9427976552296216 3.052802887965351 64 64 64
3.0596785761192202 0.49645108309644936 2.7881088051743292 136 136 136
3.0458308585536353 0.404507137012299 2.7609696214656054 156 156 156
3.214721294408871 0.6821601119224407 2.858165931516809 84 84 84
3.1912518299325785 0.8883914635691055 3.33533873908603 90 90 90
2.066522908347138 -2.5990232670722686 32.990954836227125 48 48 48
3.168872770306636 0.14810306084110406 3.2464284288033207 74 74 74
2.132182118127784 -3.5039195173484274 24.375538886724797 116 116 116
3.1918234812784383 0.8897206801194673 3.3358915276208796 90 90 90
-2.132957579990763 -6.9845372088925615 31.595520544025 74 74 74
-2.62569073062057 -4.6575641835098045 25.306818016361742 20 20 20
1.3137464346066725 -0.5619056201993411 14.328364787410033 250 250 250
-0.3448164275813368 -9.499322619378695 40.11785660145617 24 24 24
2.086007061524641 0.754609321724005 5.670409202334898 73 73 73
3.181259999601647 0.9300816058672428 3.317115688265554 165 165 165
1.5737503367426946 -0.5782297373808387 14.09913612715864 1 1 1
-2.0786237717075844 -7.556612310278872 34.45505476466749 40 40 40
1.3851980465068383 -0.5445739752057417 14.236845784872367 179 179 179
-0.3447483656744722 -9.500185888124394 40.121603736673805 24 24 24
-2.414382780005308 -5.183901212052868 28.190010250250687 125 125 125
2.2647770602704793 -0.817994551359081 3.36821799947119 155 155 155
-2.0444113623066578 -7.640507986052319 34.96400330374677 41 41 41
3.0070111360281397 0.9231460382281629 3.351495436251568 246 246 246
1.5395050600461797 3.8651450785836907 5.987210301514208 100 100 100
1.0528260347059328 4.000802644300952 5.396921666026942 29 29 29
2.31546867864365 -0.5484628987242697 3.4415459495251177 131 131 131
1.2575907714791157 4.002049077499701 5.3038607309733665 110 110 110
1.5496018967846008 1.5613847070821252 13.980956802565467 120 120 120
2.550807979349659 3.3448786232257466 4.22729795211058 80 80 80
1.5496330311073696 1.561428617893174 13.981244196116942 120 120 120
1.2933969208487421 1.6227395758012353 14.307568506217997 8 8 8
3.0898955589383346 0.47634650012634216 2.7807491392536177 62 62 62
-3.077680394071795 -7.550685638874631 31.549855274895307 194 194 194
-2.5967593516917127 -6.284845458204579 26.175088639745262 201 201 201
2.127727188963072 1.6906022903747044 13.980125232277794 22 22 22
-2.712604072144517 -6.0528658424782815 25.378727929892637 139 139 139
2.127083001021999 1.69031709358795 13.977007655824657 22 22 22
1.8709512821708403 3.904545705300397 5.934447510625422 109 109 109
1.1186843264885127 -0.5948425126977019 15.422948114744578 87 87 87
1.959249811157889 -2.819078878205078 3.0383132578480936 66 66 66
-2.5285305504865527 -6.60751090213977 27.501544563361946 32 32 32
1.389689178839952 1.6789591542000366 14.07218043620238 94 94 94
3.093735441905707 0.6463270529686891 2.9463663784782774 95 95 95
1.291947734061187 1.7374597040129762 14.105315374215644 169 169 169
-2.4367696829368857 -5.020571653777901 28.014845611605566 19 19 19
2.09834153608618 1.0688433388588527 4.1620862279905895 18 18 18
3.0846441381366625 0.4475467881540714 2.917792757159817 94 94 94
2.089372125037285 1.065593672641461 4.139952681342262 21 21 21
3.2267912505014498 1.1080730541182633 3.3949428536183905 113 113 113
1.2751774002171303 1.9030418217594007 14.151399660266467 36 36 36
2.0828931065202285 0.5868870251548737 3.7006097576940977 159 159 159
1.218059220951833 -0.5349092309795824 14.22841026922853 17 17 17
1.46438329981947 -0.6431339750895366 14.13966780931355 203 203 203
2.3890004271898446 0.5786418802439095 3.6561913235364587 191 191 191
2.4388180701658118 1.1061120672582345 3.7715767248341034 151 151 151
0.038194931312167446 -10.182581784482874 41.037626697181075 102 102 102
2.0048189683690913 -0.595502495641477 3.7827032328769787 9 9 9
2.4387492764377416 1.1060961716053717 3.771446920734821 151 151 151
-2.580117934772241 -5.425994581443377 25.635639674735064 168 168 168
2.3933361557988886 0.5721692201907456 3.657465798400752 114 114 114
-1.5772164141532674 -6.879716827197187 39.72142060698157 163 163 163
3.1635109549840306 0.5959914083597195 3.2049312524136164 128 128 128
2.015957634895428 -1.0273510237081058 4.54500202433321 18 18 18
-2.674332277044331 -5.361242020589071 25.328522106011285 41 41 41
1.459070217124499 -0.6670931296533058 14.31834163422941 244 244 244
2.3933396962503903 0.572171158412074 3.6574727277709647 114 114 114
2.25242172518958 -2.5176469798617043 3.0247131439387402 91 91 91
1.3316561008279701 -0.6675630802092858 14.106491812632235 70 70 70
-1.5688325150072138 -7.048390860286337 39.16809524901612 169 169 169
1.9738292315924681 -1.1462125569926886 3.643834855525796 189 189 189
-2.6745310254282795 -5.3616871020413415 25.330600911009302 41 41 41
0.7640809946529352 -7.1918503430201195 44.62112762402671 80 80 80
2.004875101231356 -0.5955193136363124 3.7828382011589516 9 9 9
1.4414182541713045 3.6166350156222844 6.410435549037572 153 153 153
1.5192732800540854 4.008955925024741 5.296023910347201 96 96 96
2.320918139852642 0.0023884706662670174 3.482012565058948 22 22 22
2.16267908287583 2.2708876197039536 4.021519792579307 139 139 139
2.060504548044151 -0.018659602909558648 6.656289294848835 81 81 81
1.9852042812719102 3.9621547076498427 5.307738698778036 136 136 136
2.122689069778584 1.5316301518359352 4.649186528619974 147 147 147
2.0477215702811877 -0.03939674010145061 3.9394544817593955 39 39 39
2.0353894321036416 -4.081427272568372 23.578045278050574 104 104 104
2.127146429607746 1.4290310429300614 3.8643582031693553 138 138 138
2.1400066001809184 1.4675394660598633 3.9029986951094333 150 150 150
0.09908519955752948 -8.908947708266131 32.71420739481873 188 188 188
-0.30952160742180057 -9.053135742771676 33.219104454619746 149 149 149
2.2570780106732866 -1.3945484830849944 3.23953784796199 129 129 129
1.9323739960783963 -2.240950206645986 3.276852937372932 67 67 67
-1.5483203350525763 -4.337612578032917 39.929314266597295 60 60 60
-2.765530116298095 -4.075741941858365 24.772307699600965 155 155 155
2.137765925422806 2.002566813637831 3.9700586056458382 72 72 72
0.5874557443465842 3.897548178483254 5.940145360731776 56 56 56
1.627083332204157 3.932847824044816 5.630210895373417 44 44 44
2.3282218146852003 -1.150976192521764 3.3044049732629057 108 108 108
1.966009425710726 -1.353494140837693 3.2828035101069597 29 29 29
2.1458411840497558 1.7133727523921567 3.9460012418527564 117 117 117
2.2751810589104178 -2.064937124736085 3.0957216492552524 47 47 47
1.9211603251160785 -4.990368130347542 16.510106925014636 80 80 80
1.4795456307878574 3.9404964931120308 5.665819026821911 154 154 154
2.324806349527119 -0.28225492134571123 3.4567055222855476 131 131 131
1.3026775051456676 3.9245375073678237 5.667162989929678 45 45 45
2.252821784285225 -1.9568071271362701 3.144328314100722 113 113 113
3.173256236468918 0.3863950297498548 3.320817277335122 86 86 86
1.4522386129604206 3.930438682434905 5.597896261529776 147 147 147
1.4700943152387587 3.970234103658751 5.676471250314102 146 146 146
2.0300466009896354 -0.4708722148671531 4.624441864233347 80 80 80
2.126302328033737 1.8900205506328718 4.339165465736955 103 103 103
0.8584401870053164 3.9534343946119392 5.63336835409626 130 130 130
1.5361297887598044 4.025914407919114 5.788095241182834 142 142 142
-1.5282505801069728 -7.07177731644034 35.90129180035339 133 133 133
-1.3120571194214679 -4.578651010025712 41.86011724889596 227 227 227
1.9327687953417327 3.802551535783513 5.529442506175741 101 101 101
2.271773924541312 0.017298785327006017 3.5362094098271237 164 164 164
1.4178715457877193 4.022073380097264 5.404677376076052 128 128 128
3.19201708908631 0.8897412543546039 3.3360972560943853 90 90 90
-1.3121650867806534 -4.579162849454952 41.86428875492663 227 227 227
0.8327948563572241 -6.087512282124849 45.20648437224667 128 128 128
0.891906381791157 -6.352913175581093 45.40186096752692 158 158 158
2.2985395191789912 -0.8474479399336179 3.3617912102209973 42 42 42
-1.5483405203711835 -4.337578698433121 39.92878545594507 60 60 60
-2.196569459447686 -7.4384643329229965 32.57280405161395 29 29 29
2.298077848477021 -1.691239993906118 3.1965846227779284 89 89 89
-2.4309921565371804 -4.461158043325163 23.908049009046376 121 121 121
-1.1448295863052345 -8.726162390187355 46.03617591697947 81 81 81
-2.1968165170547365 -7.439988775773802 32.57961177282063 29 29 29
0.8915788590178391 -6.495187460746709 45.28584978785318 172 172 172
2.340029607964116 -0.5536843714821738 3.50273262085014 194 194 194
-1.1448172640299148 -8.725403178907666 46.032304120391416 81 81 81
-2.7186078060779577 -5.849534152271458 25.554838294300374 103 103 103
2.0791890779134725 4.019307653929674 5.287418013191004 137 137 137
3.17164434643368 0.1639281938548513 3.2043376885469224 152 152 152
2.02603778298632 -1.2264797222171229 3.8309176744211513 75 75 75
3.224370294846579 0.9428126256509504 3.0527995821817226 64 64 64
1.9482604361179763 -1.3629261283191814 3.216942707500497 92 92 92
2.0860158254403816 0.7546109207129745 5.670436651458487 73 73 73
1.2933907315682998 1.622734878982802 14.307499737435176 8 8 8
1.9163360437170596 -4.759620339861554 16.654491257185818 53 53 53
0.7258288864802651 3.902674029899503 5.697297556922524 113 113 113
-2.726038248756349 -3.566684456547989 24.514896598372033 69 69 69
1.5307664742629514 1.6880677825058892 13.674839123456385 71 71 71
1.0587855088491676 1.7508130815120388 14.944717317226733 4 4 4
2.187183999006412 1.7330759018437008 13.543752799459636 119 119 119
1.9798287957184555 -1.1269018412295004 3.7209835945354692 36 36 36
-2.5957300777867127 -6.693484876560603 27.724471705982623 9 9 9
-2.5969092197569563 -6.2854764862707215 26.177844413351142 201 201 201
2.2648184515534258 -0.8180057033980384 3.3682506923779316 155 155 155
1.975821039926129 -1.1118864753113402 3.6900735155056044 57 57 57
2.302976782524932 0.2930488758318346 3.5872757849695196 183 183 183
1.9052154321764845 -2.7399675756445245 2.925048968243561 114 114 114
2.0347802972085742 -0.24226951383636858 3.547173880317139 34 34 34
1.4338931319041208 3.7413726207393787 6.19996928135296 166 166 166
-1.2631612550557807 3.7111875776154064 7.311909715520259 147 147 147
2.364736426721402 1.134102591279021 3.7981285016072057 134 134 134
0.9441302888719609 3.9246838274083746 5.69996881812187 153 153 153
-2.604968449300939 -4.323122673687702 26.026095213318804 164 164 164
1.9735418340373867 -1.3529669201545533 3.2413876714751675 161 161 161
1.4804792922024963 3.733274660096843 6.580818112931648 156 156 156
1.6083659875873595 -0.6761925770171215 14.140062386638204 158 158 158
1.4876543334724173 3.2220843440373623 8.543486800747322 165 165 165
1.9716525713272794 -1.0655191688275678 3.3147667761218393 42 42 42
1.968777729273417 -1.4073224245724218 3.2735820373981275 187 187 187
2.4850102702459984 2.2559554755342925 4.03915499994385 92 92 92
3.213407261315758 0.9168431864074362 3.407422417581137 139 139 139
2.0014472489149076 -0.01846959422686445 3.520060710008357 29 29 29
-2.7261607589726884 -3.5668654436542813 24.516399176433303 69 69 69
0.7527374110143532 4.011711494018548 5.923842635522681 79 79 79
0.9694339554209566 -0.47125476651684944 13.502274974005037 219 219 219
1.984307417176392 -1.1267721856670867 3.3505608640027074 152 152 152
2.0368625298045244 -0.5294253769849855 3.4522929182807625 91 91 91
2.0656453480230126 0.031009548536704068 3.5750900513397816 198 198 198
2.076457846726018 0.5077596596029472 4.05445830635737 31 31 31
1.9536940892810075 -3.811273386982781 12.46280188419309 16 16 16
2.0759840053095475 0.5077568433067268 4.053319088712189 31 31 31
1.9217114486204299 -4.991820945209649 16.515115302563686 80 80 80
2.047707690946338 -0.03939204387619111 3.939420707521191 39 39 39
2.0353872966733966 -4.08142505507899 23.578029807875303 104 104 104
-2.603099332709297 -6.163055635458929 26.108149866031876 94 94 94
2.158330827283143 1.0835573439756587 4.310077473010484 101 101 101
1.478966829549277 3.935573946014891 5.585224524424252 27 27 27
2.4091949055080066 0.8385678458494965 3.695583486899406 95 95 95
-0.3446453164846227 -9.518397634200968 40.132741847660974 34 34 34
-2.4143127944639025 -5.183690272402548 28.188583896078907 125 125 125
-2.41432815038651 -5.183825645859613 28.189349160361978 125 125 125
2.3379755380922327 0.0007896896140262011 3.5054767583202997 52 52 52
3.093691125279752 0.6463352151666327 2.9463223345098744 95 95 95
1.4670404322159163 3.9353722284268917 5.610353276700984 169 169 169
2.004123661721594 -4.508046821540744 23.355850563142408 76 76 76
1.3896887288134163 1.6789527548388277 14.072206973598705 94 94 94
-0.3447637850743288 -9.499928838862756 40.120452804140335 24 24 24
-2.3792840758528104 -4.702701478899164 22.31429218299737 61 61 61
2.2524262845787923 -2.517653165725574 3.0247212401003205 91 91 91
2.472945510937065 1.6803411210341974 3.907831116453579 46 46 46
0.09908519955752948 -8.908947708266131 32.71420739481873 188 188 188
1.9601823657981958 -4.88221743214916 22.90343318743469 6 6 6
2.127727188963072 1.6906022903747044 13.980125232277794 22 22 22
2.3248938525656393 -0.28227840354370753 3.456839399444762 131 131 131
-2.7196255722274087 -6.225262865905283 27.355516027783402 64 64 64
1.9209936478504566 -4.990025037055747 16.508908361052033 80 80 80
1.5230289628135445 3.9853315962907305 5.358197255684989 88 88 88
2.1317141622315523 -1.7409754804907884 17.862495266640366 77 77 77
1.9989012620158895 -1.1615712274970589 3.713350268433085 105 105 105
2.0422333891473694 0.009213030430609781 3.982649001672672 52 52 52
2.1057467615610945 0.9901341623884188 4.569527814150976 171 171 171
1.445567643198931 -0.6507286961804888 14.139423507800139 192 192 192
2.2570780106732866 -1.3945484830849944 3.23953784796199 129 129 129
1.2447397061112118 3.9441875221795586 5.6424712301138475 96 96 96
2.324845262045733 -0.2822638662318074 3.4567640175555256 131 131 131
1.2178768135112752 -0.534843463831282 14.227267303318554 17 17 17
1.2179800926711333 -0.5349028209984246 14.228052469670851 17 17 17
0.8327243392540749 -6.087142073220296 45.20372083283139 128 128 128
2.3915778563385164 0.26913724387937454 3.591540236790954 154 154 154
2.010365329101362 -3.351321609809786 12.815539746489918 4 4 4
3.291639560304142 0.3354833139798779 3.3404094932805926 49 49 49
1.9924519733372357 -6.324626682182963 24.509036549193 7 7 7
3.1812198198500474 0.9300960906189601 3.31705699997576 165 165 165
1.8769265126073087 -4.430256584098046 13.444784051521633 24 24 24
1.8768044679309148 -4.430034960860284 13.444210396841582 24 24 24
1.876799090162642 -4.4300227050141165 13.444173164759828 24 24 24
1.6988521265112198 4.014122595018014 5.346799500613402 110 110 110
3.1732383067739485 0.38639421481945413 3.320791990740303 86 86 86
0.038190888226045105 -10.182241125342664 41.03629519895933 102 102 102
1.9774961096443864 -1.5802595251162121 4.387128038729606 123 123 123
1.53330577507493 3.9472192484450077 5.3611483802899125 104 104 104
3.0846709801495966 0.4475497895170405 2.917825928937927 94 94 94
1.9774947187474177 -1.5802656106103858 4.387125660862895 123 123 123
3.089844648838731 0.4763481258232087 2.780683684920146 62 62 62
2.065391614811268 0.4313859761338412 4.408347662045283 129 129 129
1.325773145218458 3.9239156685137324 5.461852224370339 114 114 114
