ply
format ascii 1.0
element vertex 722
property float x
property float y
property float z
property uchar red
property uchar green
property uchar blue
end_header
-2.2898471355438232 -0.856640636920929 6.155391216278076 184 184 184
-1.7288496494293213 -0.4072057902812958 6.546396255493164 44 44 44
-2.268310546875 1.0096702575683594 6.174075603485107 88 88 88
11.084514617919922 -1.817165732383728 27.91552734375 217 217 217
-1.9113448858261108 1.0023915767669678 6.399663925170898 86 86 86
-2.0761611461639404 -1.4706580638885498 6.005736827850342 48 48 48
8.389427185058594 -2.0914416313171387 23.281356811523438 4 4 4
11.07864761352539 -1.8173272609710693 27.900371551513672 217 217 217
-1.637597918510437 -0.4649753272533417 7.14821195602417 68 68 68
8.363550186157227 -2.0843045711517334 23.213327407836914 4 4 4
9.66734790802002 -1.844042181968689 26.0623779296875 34 34 34
4.272331714630127 -1.45018470287323 16.79229736328125 213 213 213
9.665769577026367 -1.8437403440475464 26.05812644958496 34 34 34
-2.083343505859375 -1.3820370435714722 5.994659900665283 156 156 156
-2.082892656326294 -1.381777286529541 5.993590354919434 156 156 156
9.667427062988281 -1.8440464735031128 26.06260108947754 34 34 34
8.485422134399414 -1.694815754890442 23.64832305908203 20 20 20
4.214474201202393 -1.2330865859985352 16.54300880432129 177 177 177
2.970552921295166 -1.7994157075881958 14.068872451782227 4 4 4
4.312302112579346 -2.172044038772583 16.964088439941406 168 168 168
3.0250325202941895 -1.0959713459014893 13.669447898864746 50 50 50
3.3303585052490234 -1.8562240600585938 14.886187553405762 3 3 3
4.755539417266846 -2.221724033355713 17.483287811279297 19 19 19
-2.3018672466278076 -1.3590688705444336 6.140822410583496 31 31 31
2.9498841762542725 -1.7155094146728516 13.600677490234375 19 19 19
4.312187194824219 -2.1719822883605957 16.96364402770996 168 168 168
-1.919571876525879 0.5291821956634521 6.391524791717529 153 153 153
-1.9370006322860718 -1.8692059516906738 6.315606594085693 144 144 144
4.772489547729492 2.6771485805511475 17.53200340270996 74 74 74
-1.9637329578399658 -1.3749618530273438 6.359893321990967 8 8 8
2.9694037437438965 -1.7987098693847656 14.063504219055176 4 4 4
-1.7730093002319336 -1.4163236618041992 6.617477893829346 151 151 151
3.329636812210083 -1.8558303117752075 14.883036613464355 3 3 3
-1.7118053436279297 2.634716510772705 6.696446895599365 114 114 114
11.264680862426758 -2.4776768684387207 28.359657287597656 194 194 194
-1.8797852993011475 1.4568008184432983 6.341468334197998 153 153 153
4.126132965087891 -2.0638508796691895 16.786680221557617 176 176 176
-1.8070368766784668 -1.3960044384002686 6.722548484802246 40 40 40
-1.8800770044326782 1.457061529159546 6.342403411865234 153 153 153
-1.7088230848312378 1.4543853998184204 6.620186805725098 93 93 93
-1.708848476409912 1.454413890838623 6.620307922363281 93 93 93
-1.7646615505218506 -1.366019606590271 6.5897908210754395 12 12 12
3.6765120029449463 -3.0292112827301025 14.986150741577148 7 7 7
2.9866864681243896 -2.716731071472168 13.624859809875488 6 6 6
3.2094483375549316 -0.0246206596493721 15.17441177368164 5 5 5
3.215242385864258 -1.5900120735168457 14.425836563110352 11 11 11
3.011699676513672 -1.60673189163208 14.29353141784668 73 73 73
4.556049346923828 -0.15845318138599396 17.78009033203125 89 89 89
-1.5564197301864624 0.9783527255058289 6.9411797523498535 151 151 151
-1.774326205253601 -1.2545610666275024 6.656215190887451 5 5 5
4.005486965179443 -3.0339391231536865 16.18671226501465 4 4 4
10.698434829711914 -0.3857780694961548 27.858047485351562 168 168 168
-0.15367168188095093 3.6470329761505127 7.001890182495117 157 157 157
-1.861915111541748 1.2302894592285156 6.336742877960205 161 161 161
-1.7645277976989746 -0.3826628029346466 6.64732027053833 169 169 169
0.2954791784286499 3.627039909362793 8.96485710144043 140 140 140
10.583107948303223 -1.5895490646362305 27.030351638793945 59 59 59
8.364001274108887 -2.084401845932007 23.21453285217285 4 4 4
-1.5416942834854126 1.6691402196884155 6.919539928436279 5 5 5
-0.5177472829818726 2.028686285018921 8.530473709106445 40 40 40
2.2568247318267822 0.2524554431438446 13.273250579833984 78 78 78
-2.2518832683563232 1.4691189527511597 6.192904949188232 95 95 95
-1.0164974927902222 1.3788076639175415 7.643185138702393 136 136 136
-1.9140273332595825 -0.4104212820529938 6.324181079864502 80 80 80
-1.3886882066726685 0.057498421519994736 7.12315559387207 29 29 29
1.460260033607483 3.5416557788848877 7.110656261444092 105 105 105
1.4073890447616577 3.670318841934204 7.336058139801025 47 47 47
-0.9340069890022278 3.6558034420013428 7.337709426879883 82 82 82
0.8028666377067566 3.6490137577056885 7.266955375671387 94 94 94
-1.8737841844558716 -2.1858959197998047 6.658400058746338 64 64 64
-1.6988587379455566 -2.145104169845581 6.771955966949463 133 133 133
-2.3573520183563232 -1.9215863943099976 6.105461120605469 73 73 73
-1.6939671039581299 2.389606237411499 6.673519611358643 71 71 71
8.480244636535645 -1.693873643875122 23.63446617126465 20 20 20
-0.8734835982322693 1.4001479148864746 8.117192268371582 153 153 153
5.311305999755859 -1.5893681049346924 18.725791931152344 52 52 52
-2.0736546516418457 -1.606710433959961 5.973047256469727 82 82 82
4.776124954223633 0.29504716396331787 17.54920768737793 149 149 149
-1.2032524347305298 1.1888000965118408 7.450300216674805 164 164 164
-1.2081598043441772 1.1704081296920776 7.34152364730835 172 172 172
4.861356735229492 1.6766467094421387 17.8702335357666 59 59 59
9.29205322265625 -2.3988568782806396 25.015501022338867 73 73 73
-1.168723464012146 1.0863670110702515 6.9801506996154785 71 71 71
6.046292781829834 0.5104101896286011 20.311830520629883 167 167 167
-0.9678680896759033 2.413332462310791 7.439377784729004 129 129 129
6.043271064758301 0.5100821256637573 20.302064895629883 164 164 164
10.047422409057617 -0.2369399219751358 26.606191635131836 75 75 75
-0.20656812191009521 -0.05512986332178116 9.16882610321045 25 25 25
2.45070481300354 -1.8671358823776245 13.684385299682617 9 9 9
5.080194473266602 -1.9701197147369385 17.87549591064453 1 1 1
-0.5049002170562744 3.6031334400177 7.794442176818848 50 50 50
9.016637802124023 -0.6895848512649536 22.60108184814453 145 145 145
-1.44258713722229 0.30638206005096436 6.845518589019775 59 59 59
8.780150413513184 -0.404178261756897 24.57354736328125 25 25 25
-2.1006853580474854 -0.854562520980835 6.012028694152832 129 129 129
-0.7711132764816284 3.616299629211426 7.870116710662842 92 92 92
-0.33716434240341187 3.0442113876342773 9.121285438537598 9 9 9
4.477469444274902 0.2912002205848694 17.542543411254883 20 20 20
-1.7291237115859985 0.052634455263614655 6.5664238929748535 34 34 34
4.018182754516602 -2.4085607528686523 16.2000789642334 96 96 96
-2.0934011936187744 -1.1522204875946045 6.034408092498779 68 68 68
-1.0991135835647583 -1.2258557081222534 8.001716613769531 2 2 2
-1.314290165901184 0.2958436906337738 7.282628059387207 25 25 25
10.021990776062012 -0.5002838373184204 26.607223510742188 9 9 9
4.337055683135986 2.49505352973938 18.18572235107422 192 192 192
4.476251602172852 -3.199397563934326 17.446596145629883 65 65 65
2.5614256858825684 1.825995922088623 13.881787300109863 41 41 41
-1.3141762018203735 -1.4561374187469482 8.107439041137695 30 30 30
2.8047597408294678 -2.2438535690307617 13.680797576904297 108 108 108
9.986276626586914 -2.7375142574310303 26.514869689941406 18 18 18
2.4811623096466064 -2.114102363586426 12.675678253173828 14 14 14
-1.8232600688934326 0.2917083501815796 6.93008279800415 67 67 67
-0.3674171566963196 2.79060435295105 9.01616382598877 7 7 7
-0.9443705081939697 3.0605478286743164 7.993317127227783 36 36 36
-1.3959496021270752 -1.4034957885742188 8.209675788879395 139 139 139
-1.2929505109786987 -1.3149410486221313 7.6884684562683105 134 134 134
4.212365627288818 -2.7386515140533447 15.549692153930664 6 6 6
-1.2120286226272583 1.633277416229248 7.410213470458984 175 175 175
-2.3137569427490234 -0.4295171797275543 6.1673150062561035 7 7 7
8.485334396362305 -1.6947872638702393 23.648107528686523 20 20 20
-1.372171401977539 -0.8920634388923645 7.052243232727051 7 7 7
9.413217544555664 -3.226616382598877 25.24567985534668 9 9 9
-1.7250440120697021 0.7534738779067993 6.606403350830078 52 52 52
-1.950037956237793 -0.9140852689743042 6.355550765991211 157 157 157
8.732449531555176 -1.53910493850708 24.43100357055664 9 9 9
-2.121896743774414 0.6651673913002014 6.1359076499938965 159 159 159
-0.17338041961193085 1.281242847442627 8.882610321044922 85 85 85
-1.1644792556762695 1.3858721256256104 7.409275531768799 47 47 47
-1.3722691535949707 1.8907643556594849 7.2070698738098145 11 11 11
2.3171744346618652 -1.9852780103683472 12.93774127960205 10 10 10
-2.009343147277832 -1.9250444173812866 5.375595569610596 54 54 54
-1.6927512884140015 1.273869514465332 7.057536602020264 94 94 94
2.500882863998413 0.21756334602832794 13.469866752624512 4 4 4
-1.028754711151123 2.1062910556793213 7.834355354309082 0 0 0
-1.383668303489685 -0.43765655159950256 7.1440935134887695 9 9 9
-1.7248811721801758 0.7533946633338928 6.605897903442383 52 52 52
-1.554072618484497 0.7457936406135559 6.883606910705566 33 33 33
4.7630767822265625 2.4911978244781494 18.16037940979004 40 40 40
-1.574309229850769 0.9488599300384521 7.005624294281006 36 36 36
-2.0744497776031494 -2.072887659072876 5.951254367828369 35 35 35
-2.0582990646362305 -2.086911916732788 6.042018890380859 129 129 129
4.226581573486328 2.2419040203094482 17.188308715820312 183 183 183
-1.861334204673767 -2.1836373805999756 6.737578392028809 19 19 19
3.7187116146087646 2.0622072219848633 15.87725830078125 74 74 74
-1.6946367025375366 -2.1396799087524414 6.755018711090088 133 133 133
-2.3574514389038086 -1.9216641187667847 6.105700492858887 73 73 73
-2.31611704826355 -1.8737099170684814 6.0833539962768555 101 101 101
-2.078834056854248 -1.8622239828109741 5.956786632537842 114 114 114
4.382731914520264 2.2175590991973877 16.9862060546875 202 202 202
11.068264961242676 -1.0023008584976196 28.146148681640625 145 145 145
-1.851481318473816 1.911786675453186 6.343674659729004 122 122 122
-2.3263771533966064 -1.850929856300354 6.133996486663818 110 110 110
4.742978096008301 -0.3758513331413269 17.375328063964844 0 0 0
3.342487335205078 -0.5002277493476868 15.029942512512207 126 126 126
-1.0357539653778076 0.005935885477811098 7.598481178283691 21 21 21
-2.4978489875793457 -1.8018014430999756 6.051741600036621 119 119 119
-1.7737594842910767 -1.8865669965744019 6.5598578453063965 114 114 114
-1.8053501844406128 -1.8840972185134888 6.715636730194092 68 68 68
-1.038473129272461 -0.23464901745319366 7.673183441162109 27 27 27
8.628678321838379 -1.2774112224578857 24.15362548828125 11 11 11
-2.278198003768921 0.7822158336639404 6.201069355010986 118 118 118
11.06911563873291 -1.0023490190505981 28.148178100585938 145 145 145
-2.0762314796447754 -1.4707151651382446 6.005906581878662 48 48 48
3.3245365619659424 -0.7372965216636658 15.105145454406738 3 3 3
-1.8634792566299438 0.7656480669975281 6.252397537231445 35 35 35
3.252692461013794 -2.077967405319214 14.420801162719727 53 53 53
-1.74986732006073 0.7131624221801758 5.944356441497803 5 5 5
-2.3021135330200195 -1.3592015504837036 6.14142370223999 31 31 31
-1.4938952922821045 -0.17533056437969208 7.053286075592041 39 39 39
8.549860954284668 0.044119976460933685 23.825769424438477 121 121 121
-1.9099537134170532 -1.3388482332229614 6.186121940612793 31 31 31
-1.795705795288086 -1.2717673778533936 5.880124092102051 81 81 81
-1.778319001197815 -1.419481873512268 6.63394021987915 151 151 151
4.603134632110596 2.334810495376587 17.859039306640625 249 249 249
-1.5787103176116943 -1.6944525241851807 8.06307315826416 43 43 43
-1.7998201847076416 -1.3911488056182861 6.700010776519775 40 40 40
3.154658794403076 -1.359170913696289 14.262877464294434 36 36 36
10.89342212677002 -0.7945604920387268 27.74600601196289 131 131 131
-1.7208808660507202 0.998592734336853 6.612578868865967 6 6 6
3.5453310012817383 -2.931392192840576 14.483396530151367 20 20 20
-2.0918943881988525 -0.145396888256073 6.083436012268066 9 9 9
-1.4310358762741089 3.0895984172821045 7.118847846984863 48 48 48
4.143611431121826 -0.15231060981750488 15.41943359375 2 2 2
-2.0933756828308105 -1.152200698852539 6.034338474273682 68 68 68
10.21970272064209 -0.5085738897323608 24.3782958984375 125 125 125
4.705209255218506 -2.947890281677246 16.972057342529297 8 8 8
-2.2976839542388916 -1.1126880645751953 6.158549785614014 108 108 108
-2.0986480712890625 -1.1079734563827515 6.055539131164551 18 18 18
4.283424377441406 2.2695376873016357 16.626914978027344 41 41 41
-2.2783524990081787 0.7822849154472351 6.2014479637146 118 118 118
-1.7119184732437134 2.6348824501037598 6.6967926025390625 114 114 114
-1.9384636878967285 -1.130159616470337 6.322577476501465 29 29 29
9.9611234664917 -0.3924826383590698 26.07554817199707 171 171 171
4.70396614074707 -2.9471592903137207 16.96780014038086 8 8 8
3.2257070541381836 -2.015953779220581 14.417476654052734 32 32 32
10.04826545715332 -0.2368798553943634 26.608543395996094 75 75 75
3.1740007400512695 -2.2164103984832764 14.221607208251953 2 2 2
3.5801446437835693 -2.3829009532928467 15.472752571105957 47 47 47
-1.3871008157730103 0.25228366255760193 7.172898292541504 64 64 64
-0.3402482271194458 0.8385121822357178 8.442302703857422 45 45 45
3.4059534072875977 -2.270948648452759 15.08988094329834 19 19 19
-2.374329090118408 -0.020092332735657692 6.123348236083984 109 109 109
-0.3374376893043518 3.04449200630188 9.122172355651855 9 9 9
-1.896644949913025 -0.8920122981071472 6.234378814697266 21 21 21
3.311361074447632 1.324284315109253 15.178391456604004 5 5 5
4.961114883422852 -2.4814321994781494 17.927169799804688 10 10 10
4.527850151062012 -2.3598084449768066 16.73740577697754 65 65 65
-1.1969507932662964 -0.2139170914888382 7.305085182189941 10 10 10
-1.7985186576843262 -0.8245903849601746 5.933004856109619 6 6 6
-1.9358209371566772 -0.8870705962181091 6.386171817779541 12 12 12
4.907526969909668 -2.3895492553710938 17.47769546508789 1 1 1
-0.592879593372345 1.5082359313964844 9.60685920715332 41 41 41
-2.009366989135742 -1.9250668287277222 5.375648498535156 54 54 54
2.969817876815796 -1.7990204095840454 14.065546035766602 4 4 4
-1.8776291608810425 -2.188826560974121 6.668833255767822 54 54 54
-2.371218681335449 -1.9017508029937744 6.067678928375244 70 70 70
-1.9113842248916626 1.002408504486084 6.399784088134766 86 86 86
4.756256580352783 -2.2219901084899902 17.4858341217041 19 19 19
2.6504547595977783 -0.6786674857139587 13.617762565612793 4 4 4
2.9496076107025146 -1.7153630256652832 13.599483489990234 19 19 19
-1.7067474126815796 1.9195300340652466 6.619415760040283 8 8 8
4.243110179901123 2.3180007934570312 17.708223342895508 122 122 122
-1.9381769895553589 -1.8704485893249512 6.319537162780762 144 144 144
3.330448627471924 -1.8562729358673096 14.88655948638916 3 3 3
4.126014709472656 -2.0637876987457275 16.78618049621582 176 176 176
-1.7291439771652222 0.05268138647079468 6.566519737243652 34 34 34
5.045774459838867 -2.0676429271698 18.34048080444336 25 25 25
-1.9707993268966675 -1.4003905057907104 5.702908039093018 13 13 13
-2.2807457447052 0.07640088349580765 6.168501853942871 125 125 125
4.17672061920166 -1.8515111207962036 16.423690795898438 201 201 201
3.63059663772583 -1.4903980493545532 13.193679809570312 19 19 19
3.145160675048828 -1.6095826625823975 14.464478492736816 3 3 3
3.3270530700683594 1.0901463031768799 15.201305389404297 43 43 43
-1.0504971742630005 2.8348000049591064 7.80372428894043 0 0 0
8.329398155212402 -2.539477586746216 23.175952911376953 6 6 6
2.8831868171691895 0.21003583073616028 14.689366340637207 8 8 8
-2.302377939224243 -0.6291738152503967 6.1600446701049805 115 115 115
9.461451530456543 -2.659926414489746 25.47645378112793 107 107 107
-1.3785151243209839 0.9553059339523315 7.132743835449219 34 34 34
-1.9396363496780396 2.475294351577759 6.553013324737549 103 103 103
-1.589426875114441 2.722081422805786 7.184386253356934 138 138 138
-1.8856457471847534 0.30404219031333923 6.274072170257568 19 19 19
9.82944107055664 -0.24080099165439606 26.042024612426758 108 108 108
4.778533458709717 0.29533374309539795 17.557735443115234 149 149 149
2.255481243133545 0.25220125913619995 13.265875816345215 78 78 78
-1.7355477809906006 -0.6584694981575012 6.6710381507873535 34 34 34
10.185371398925781 -2.426420211791992 26.120546340942383 147 147 147
-0.5177338719367981 2.0286426544189453 8.530323028564453 40 40 40
-1.4363902807235718 -0.7009878158569336 7.343135356903076 61 61 61
5.008353233337402 -1.832741618156433 18.324979782104492 1 1 1
8.729670524597168 -2.3826684951782227 24.163969039916992 14 14 14
-0.944426953792572 3.0606942176818848 7.993639945983887 36 36 36
-1.8930374383926392 0.3070445954799652 6.296311855316162 19 19 19
-1.8799916505813599 1.4569756984710693 6.342109680175781 153 153 153
4.181702136993408 -1.7966448068618774 18.920429229736328 6 6 6
2.798743486404419 -1.2812931537628174 13.26822280883789 5 5 5
10.415262222290039 -2.682262897491455 27.293102264404297 149 149 149
6.511843204498291 -2.213879108428955 22.7930908203125 5 5 5
4.573570728302002 -1.6042543649673462 16.272689819335938 5 5 5
-0.8553731441497803 1.6111350059509277 7.993049621582031 17 17 17
-2.0693321228027344 -1.1331608295440674 6.041849613189697 105 105 105
2.7988743782043457 -1.2813469171524048 13.26888370513916 5 5 5
10.035036087036133 -2.467350959777832 26.3499813079834 104 104 104
6.508056640625 -2.212437629699707 22.780630111694336 8 8 8
9.461959838867188 -2.659968852996826 25.477842330932617 107 107 107
-1.8794783353805542 1.2471178770065308 6.315876483917236 28 28 28
4.272432804107666 -1.450219750404358 16.792694091796875 213 213 213
5.192700386047363 -1.634932041168213 18.904508590698242 1 1 1
3.3265087604522705 1.089953064918518 15.198967933654785 43 43 43
5.04263973236084 -1.8718008995056152 17.605329513549805 141 141 141
-1.1863948106765747 0.24120917916297913 7.345486164093018 1 1 1
-2.2692370414733887 1.238024353981018 6.183880805969238 89 89 89
-1.8708560466766357 2.6471023559570312 6.393437385559082 78 78 78
-2.3059144020080566 1.2283445596694946 6.261863708496094 121 121 121
3.14235520362854 -1.6082950830459595 14.452338218688965 3 3 3
3.011884927749634 -1.6068017482757568 14.29453182220459 73 73 73
2.7892744541168213 -2.2440760135650635 13.659481048583984 119 119 119
9.370820999145508 -2.9205286502838135 24.174636840820312 9 9 9
2.5901172161102295 -1.9866437911987305 12.375702857971191 1 1 1
8.48885440826416 -1.6955063343048096 23.657686233520508 20 20 20
4.216360569000244 -1.2336236238479614 16.550413131713867 177 177 177
-0.02652355656027794 3.6364612579345703 8.39438247680664 164 164 164
3.3272557258605957 0.6321823000907898 15.186131477355957 1 1 1
11.109644889831543 -0.8173219561576843 27.862123489379883 61 61 61
9.667394638061523 -1.8440487384796143 26.06250762939453 34 34 34
-1.5440753698349 1.21368408203125 6.881028652191162 42 42 42
-0.8604668378829956 1.3731268644332886 7.999762535095215 158 158 158
-2.3134312629699707 -0.8904028534889221 6.162461280822754 163 163 163
9.278205871582031 -1.7535830736160278 25.328031539916992 155 155 155
4.2039923667907715 -2.383239269256592 16.371511459350586 31 31 31
3.3265020847320557 0.6320231556892395 15.182631492614746 1 1 1
-2.268237829208374 1.0096617937088013 6.17395544052124 88 88 88
4.484158992767334 0.7439852356910706 17.5523738861084 5 5 5
9.491601943969727 -1.5995469093322754 25.713764190673828 146 146 146
-1.9113627672195435 1.002400517463684 6.399709701538086 86 86 86
-1.7208342552185059 0.9985663294792175 6.6124396324157715 6 6 6
-1.3268754482269287 -0.43262675404548645 6.96380090713501 70 70 70
4.316760540008545 2.578096389770508 18.117244720458984 132 132 132
-1.5563820600509644 0.9783266186714172 6.941038131713867 151 151 151
4.403576850891113 -1.0486618280410767 17.265567779541016 199 199 199
5.126828670501709 2.609528064727783 18.54215431213379 61 61 61
9.256470680236816 -3.1777336597442627 24.839441299438477 9 9 9
-0.7052010893821716 2.780654191970825 8.330577850341797 18 18 18
-1.4500828981399536 0.3276655972003937 7.010595798492432 43 43 43
9.434709548950195 -1.1081578731536865 25.932710647583008 182 182 182
-1.0551680326461792 0.4929102063179016 7.999683380126953 140 140 140
8.890244483947754 -0.733553946018219 24.81008529663086 114 114 114
9.531455039978027 -2.953152894973755 24.5172119140625 45 45 45
-1.69809091091156 -2.144129753112793 6.7688889503479 133 133 133
2.482508659362793 -2.1152498722076416 12.682693481445312 14 14 14
-0.6629052758216858 -0.2643960416316986 8.20199203491211 38 38 38
2.6144790649414062 0.43843287229537964 13.748773574829102 2 2 2
-1.2171175479888916 2.8423421382904053 7.516824722290039 119 119 119
-1.5318689346313477 3.0688259601593018 6.885127544403076 21 21 21
-2.0397353172302246 1.2357932329177856 6.01462459564209 160 160 160
9.655145645141602 -2.2609336376190186 25.995384216308594 46 46 46
-1.105900526046753 3.1718153953552246 7.9921746253967285 50 50 50
-1.3997722864151 -1.563944935798645 8.325737953186035 100 100 100
-1.314368486404419 -1.4563274383544922 8.108494758605957 30 30 30
3.3963634967803955 -2.6052677631378174 13.85648250579834 26 26 26
8.779934883117676 -0.4041713774204254 24.572967529296875 25 25 25
-1.3589116334915161 2.5890676975250244 7.212871074676514 129 129 129
4.515752792358398 1.4149210453033447 17.67274284362793 42 42 42
-2.286984443664551 -0.8988714218139648 6.189958095550537 130 130 130
0.38036611676216125 3.6580238342285156 9.041160583496094 36 36 36
5.498204231262207 -1.6374858617782593 19.35648536682129 51 51 51
-1.3737449645996094 3.0854978561401367 7.283143997192383 10 10 10
-2.444800615310669 -2.1957828998565674 5.907531261444092 102 102 102
-2.08310604095459 -1.3312630653381348 5.965336322784424 68 68 68
5.926487445831299 0.45473814010620117 19.614253997802734 2 2 2
-2.264831781387329 1.2798492908477783 6.213588237762451 50 50 50
3.1299309730529785 -2.0489251613616943 14.407543182373047 12 12 12
4.898107528686523 1.4512873888015747 17.944494247436523 4 4 4
-2.2880067825317383 -1.8973233699798584 6.075816631317139 119 119 119
3.1397438049316406 1.1373815536499023 14.955541610717773 78 78 78
4.711204528808594 1.2545994520187378 18.404010772705078 31 31 31
-0.9745076298713684 3.63334059715271 7.316790580749512 92 92 92
6.220132350921631 -1.9617207050323486 20.81661033630371 57 57 57
9.461152076721191 -2.6598496437072754 25.475671768188477 107 107 107
-2.299191951751709 0.29549407958984375 6.1947407722473145 46 46 46
11.066279411315918 -1.002150297164917 28.141033172607422 145 145 145
-2.121837615966797 -2.031277656555176 5.675294399261475 73 73 73
-2.078903913497925 -2.1332828998565674 6.056704521179199 130 130 130
-2.051633358001709 -2.0654852390289307 5.954274654388428 36 36 36
-2.197119951248169 -2.2359142303466797 6.456740856170654 82 82 82
-1.8959059715270996 -2.06670880317688 6.231731414794922 48 48 48
-1.8809617757797241 -2.1007752418518066 6.359735012054443 25 25 25
4.416965007781982 -0.15231789648532867 16.373790740966797 2 2 2
-1.7570832967758179 -2.0742993354797363 6.535152435302734 137 137 137
11.492830276489258 -1.0040068626403809 28.48929786682129 170 170 170
-2.343804359436035 -1.8804627656936646 6.002421855926514 60 60 60
-2.3574459552764893 -1.9216607809066772 6.105687618255615 73 73 73
-2.374389171600342 -1.8834129571914673 6.008761882781982 113 113 113
-2.0791640281677246 -1.8624944686889648 5.957551956176758 114 114 114
-2.3262598514556885 -1.8508617877960205 6.133748531341553 110 110 110
3.327260732650757 0.6321865320205688 15.186165809631348 1 1 1
-2.497769355773926 -1.8323743343353271 6.119795799255371 55 55 55
11.067102432250977 -1.0022722482681274 28.143341064453125 145 145 145
-1.1863915920257568 0.24120886623859406 7.345472812652588 1 1 1
11.00080680847168 -0.8224318623542786 27.586137771606445 76 76 76
-2.2958691120147705 -1.5927512645721436 6.1193437576293945 66 66 66
-1.4949811697006226 0.2673431932926178 7.713913917541504 92 92 92
-2.0754990577697754 -1.4701361656188965 6.003965377807617 48 48 48
-2.0833261013031006 -1.3820271492004395 5.994622707366943 156 156 156
-1.0430381298065186 0.23122067749500275 7.7909770011901855 21 21 21
8.818716049194336 0.5097065567970276 24.65058708190918 133 133 133
-2.301889181137085 -1.3590792417526245 6.140872001647949 31 31 31
10.059982299804688 -0.716655969619751 26.439239501953125 90 90 90
-2.312070369720459 -0.1490717977285385 6.244202136993408 14 14 14
4.473227500915527 0.29072579741477966 17.526710510253906 20 20 20
10.893506050109863 -0.7945525050163269 27.74620246887207 131 131 131
3.0201408863067627 0.22445513308048248 14.99307918548584 14 14 14
-2.11480975151062 -0.1451607495546341 6.138296604156494 17 17 17
-1.7646210193634033 -1.3659985065460205 6.589597225189209 12 12 12
3.688586950302124 -3.1456754207611084 15.36190414428711 20 20 20
-2.0933258533477783 -1.1521780490875244 6.034219264984131 68 68 68
4.485403060913086 0.5105753540992737 17.56622314453125 13 13 13
4.079811096191406 0.23439490795135498 18.464967727661133 115 115 115
-1.7743216753005981 -1.2545595169067383 6.656201362609863 5 5 5
3.4767093658447266 -2.3139679431915283 15.36457347869873 56 56 56
-1.1538763046264648 -1.265411615371704 6.914013385772705 62 62 62
4.312077045440674 -2.171910047531128 16.963197708129883 168 168 168
4.703030586242676 -2.9466495513916016 16.9645938873291 8 8 8
2.482295274734497 -2.11506986618042 12.681598663330078 14 14 14
2.626011610031128 -2.1163716316223145 12.912708282470703 118 118 118
2.719656467437744 -2.0874335765838623 12.99323844909668 7 7 7
2.8805928230285645 -2.1889169216156006 13.671514511108398 5 5 5
4.5570454597473145 -0.15853814780712128 17.784034729003906 89 89 89
-1.0989450216293335 -1.22566819190979 8.000439643859863 2 2 2
3.3429160118103027 -2.184461832046509 15.042534828186035 137 137 137
3.3614234924316406 -2.152090311050415 14.860918045043945 54 54 54
-1.8728320598602295 -0.8825793862342834 6.157208442687988 31 31 31
-2.3743014335632324 -0.02009207010269165 6.123281955718994 109 109 109
3.1323280334472656 -2.050309181213379 14.418000221252441 12 12 12
5.118810176849365 -2.6508467197418213 18.523683547973633 119 119 119
-2.2670767307281494 -0.8677905201911926 6.1666035652160645 134 134 134
4.433048248291016 -1.489233374595642 16.282257080078125 158 158 158
2.209334135055542 -1.7590417861938477 12.426457405090332 75 75 75
-1.9358205795288086 -0.8870704174041748 6.386170387268066 12 12 12
3.8946430683135986 -1.9443405866622925 14.076390266418457 13 13 13
-1.3909162282943726 -0.24890679121017456 7.243015766143799 111 111 111
4.7545294761657715 -2.2211947441101074 17.47962188720703 19 19 19
3.687012195587158 -2.14982533454895 16.98882484436035 48 48 48
8.254522323608398 -2.518223524093628 22.976791381835938 6 6 6
4.923651695251465 -2.2055747509002686 17.99547576904297 155 155 155
-1.544061541557312 1.21367609500885 6.88098669052124 42 42 42
-1.8743270635604858 1.239122748374939 6.393783092498779 180 180 180
3.3295981884002686 -1.8558077812194824 14.882848739624023 3 3 3
4.127041339874268 -2.0642764568328857 16.79012107849121 176 176 176
4.597619533538818 -2.0902867317199707 17.86406135559082 149 149 149
3.298896551132202 -1.685071349143982 14.754855155944824 197 197 197
-2.2080230712890625 -2.1038503646850586 5.809524059295654 74 74 74
3.1422128677368164 -1.6082298755645752 14.45172119140625 3 3 3
4.1776838302612305 -1.8519442081451416 16.427471160888672 201 201 201
-1.9156789779663086 0.9975433349609375 6.333356857299805 26 26 26
2.4199211597442627 -1.446223258972168 13.615277290344238 93 93 93
-2.3023910522460938 -0.6291776299476624 6.16004753112793 115 115 115
9.55685806274414 -2.730971097946167 26.455551147460938 112 112 112
9.461448669433594 -2.6599221229553223 25.476449966430664 107 107 107
-0.5210317373275757 3.6668777465820312 7.5242462158203125 123 123 123
2.3662467002868652 -1.3500241041183472 13.240474700927734 16 16 16
-0.5198898911476135 1.2911943197250366 8.509462356567383 90 90 90
-1.9067734479904175 -0.6190102696418762 6.286440372467041 106 106 106
-1.853022575378418 0.9444267749786377 6.284346103668213 98 98 98
3.0724759101867676 -1.466697335243225 14.522736549377441 106 106 106
4.191690444946289 -1.6575645208358765 16.489904403686523 185 185 185
-1.7959882020950317 -0.5935845375061035 5.983727931976318 129 129 129
9.489327430725098 -2.350088596343994 24.466209411621094 115 115 115
4.11383056640625 2.4359946250915527 17.270423889160156 120 120 120
5.033909797668457 -1.841559886932373 18.41358184814453 1 1 1
-1.5563538074493408 0.9783069491386414 6.940934181213379 151 151 151
2.9479081630706787 -1.315783143043518 13.590957641601562 82 82 82
9.34847640991211 -2.4114911556243896 25.161733627319336 103 103 103
10.424960136413574 -2.6846046447753906 27.317453384399414 149 149 149
4.702723979949951 2.4128258228302 17.282512664794922 161 161 161
4.3092122077941895 2.4390623569488525 17.511308670043945 197 197 197
4.300277233123779 2.4699485301971436 18.04145050048828 125 125 125
3.544189929962158 1.965296983718872 15.131662368774414 71 71 71
8.724812507629395 -2.165043354034424 23.02964210510254 112 112 112
4.381743907928467 2.2169792652130127 16.982431411743164 202 202 202
3.139820098876953 -1.352790355682373 14.195691108703613 36 36 36
4.22262716293335 2.2396416664123535 17.171676635742188 183 183 183
-2.0250892639160156 2.3985345363616943 6.062450885772705 100 100 100
4.562971115112305 2.321357250213623 18.021133422851562 151 151 151
-1.706682562828064 1.9194648265838623 6.619203567504883 8 8 8
8.747056007385254 -1.9474602937698364 24.252948760986328 24 24 24
-1.554094910621643 0.7458001375198364 6.883667469024658 33 33 33
-2.310251235961914 -0.39309069514274597 6.197054386138916 137 137 137
-0.6888753175735474 1.0918341875076294 8.308004379272461 79 79 79
-1.3751221895217896 0.7301877737045288 7.173145294189453 149 149 149
-0.3402514159679413 0.8385085463523865 8.44228458404541 45 45 45
-0.8698081374168396 -0.5033648610115051 8.039332389831543 95 95 95
4.862854957580566 1.677208423614502 17.875869750976562 59 59 59
5.063225746154785 -1.1549992561340332 18.792898178100586 138 138 138
4.6473894119262695 1.6946349143981934 18.16056251525879 110 110 110
-1.9195504188537598 0.5291665196418762 6.391468048095703 153 153 153
3.324387788772583 -0.73731929063797 15.104534149169922 3 3 3
-1.530715823173523 0.49967989325523376 6.839280128479004 169 169 169
-2.2693042755126953 1.9038597345352173 6.1936845779418945 22 22 22
-0.6716158986091614 0.44690296053886414 8.217446327209473 122 122 122
-1.8855884075164795 0.30402496457099915 6.273871898651123 19 19 19
9.412162780761719 -3.226339340209961 25.242963790893555 9 9 9
-2.2686212062835693 1.2828413248062134 6.223025321960449 50 50 50
-1.6988502740859985 -2.145089626312256 6.7719197273254395 133 133 133
-1.0774699449539185 -0.9391434192657471 7.870760440826416 13 13 13
-2.0888280868530273 -1.8331276178359985 6.013198375701904 110 110 110
2.6690614223480225 0.48769640922546387 13.752387046813965 80 80 80
3.8127903938293457 3.1524064540863037 16.975505828857422 21 21 21
-1.0890263319015503 -1.6594634056091309 7.758901596069336 17 17 17
3.2094736099243164 -2.964879035949707 14.087006568908691 10 10 10
-1.4310585260391235 3.089644432067871 7.118939399719238 48 48 48
-1.164255976676941 1.3856474161148071 7.408277988433838 47 47 47
4.193015098571777 -3.35150408744812 16.74764060974121 62 62 62
2.9873814582824707 -2.7172915935516357 13.627837181091309 6 6 6
4.194736003875732 -3.009561777114868 16.403467178344727 7 7 7
4.478074550628662 -3.2006490230560303 17.453346252441406 65 65 65
-1.3143961429595947 -1.4563571214675903 8.108675003051758 30 30 30
2.3313231468200684 -1.3875898122787476 13.518095016479492 6 6 6
3.055980682373047 -0.04346679523587227 14.12466049194336 9 9 9
3.153416872024536 -0.022614238783717155 14.945096015930176 1 1 1
-0.7046706676483154 -0.017608478665351868 8.466299057006836 27 27 27
-0.7108479142189026 3.6668055057525635 7.170442581176758 111 111 111
5.365252494812012 -1.8525371551513672 18.93697738647461 4 4 4
4.8371405601501465 0.2981988489627838 17.771883010864258 68 68 68
4.776175498962402 0.2950533628463745 17.549386978149414 149 149 149
6.04598331451416 0.5104078650474548 20.310901641845703 167 167 167
8.733328819274902 -0.7355445027351379 24.36602783203125 141 141 141
2.6156749725341797 0.43872135877609253 13.754687309265137 2 2 2
3.1276700496673584 -1.265421986579895 15.49173641204834 30 30 30
3.1611995697021484 -1.211498498916626 15.006043434143066 2 2 2
-0.9444370269775391 3.060502529144287 7.9931721687316895 36 36 36
5.255779266357422 1.2343467473983765 19.154911041259766 102 102 102
4.71136999130249 1.2546545267105103 18.404693603515625 31 31 31
-1.0786136388778687 -0.47761982679367065 8.080339431762695 25 25 25
2.678304433822632 1.1443809270858765 14.075068473815918 97 97 97
4.543549537658691 0.07715673744678497 17.6987247467041 55 55 55
4.543560981750488 0.07713489979505539 17.698692321777344 55 55 55
8.780441284179688 -0.40422332286834717 24.574312210083008 25 25 25
3.385918140411377 -0.14182312786579132 15.17617416381836 212 212 212
-0.38747522234916687 0.6358006596565247 8.683175086975098 7 7 7
4.94419002532959 1.9155203104019165 18.072797775268555 21 21 21
-2.1177525520324707 0.6632012724876404 6.1255083084106445 159 159 159
6.828917026519775 -2.179551124572754 17.845945358276367 52 52 52
9.648310661315918 -3.278651714324951 25.764135360717773 19 19 19
6.562455654144287 -1.6984196901321411 21.21018409729004 7 7 7
-1.0460277795791626 2.6053922176361084 7.919827461242676 88 88 88
8.106466293334961 2.941328287124634 24.297630310058594 62 62 62
-1.728837490081787 -0.4072119891643524 6.54632568359375 44 44 44
8.552806854248047 0.0398666076362133 23.82672882080078 46 46 46
8.729286193847656 -2.3825767040252686 24.162967681884766 14 14 14
-2.141347885131836 -2.046596050262451 5.73249626159668 78 78 78
-2.0852298736572266 -2.134514331817627 6.055914402008057 131 131 131
-1.880967617034912 -2.100780963897705 6.359751224517822 25 25 25
-1.7960563898086548 -2.111234664916992 6.535948276519775 37 37 37
-1.8620405197143555 -2.1865196228027344 6.862149238586426 106 106 106
-1.6988551616668701 -2.1450960636138916 6.771936893463135 133 133 133
5.435886859893799 -4.420618057250977 14.158122062683105 35 35 35
-2.3574059009552 -1.921628475189209 6.105598449707031 73 73 73
-2.316135883331299 -1.8737250566482544 6.083406448364258 101 101 101
-2.0790750980377197 -1.8624285459518433 5.957361698150635 114 114 114
-2.0378525257110596 -1.7912694215774536 5.8909382820129395 148 148 148
-2.3182172775268555 -1.8436360359191895 6.111988544464111 150 150 150
-2.056715726852417 -1.6648694276809692 5.54725456237793 114 114 114
-1.974503517150879 -1.8826148509979248 6.329467296600342 44 44 44
-1.767454743385315 -1.8898111581802368 6.545315742492676 120 120 120
-1.7864733934402466 -1.866331696510315 6.6565399169921875 68 68 68
-2.0730655193328857 -1.5953861474990845 5.960981845855713 38 38 38
-2.0759263038635254 -1.4705007076263428 6.005015850067139 48 48 48
-1.4236831665039062 -1.915257215499878 8.170283317565918 111 111 111
-2.083385467529297 -1.3820632696151733 5.994765281677246 156 156 156
-2.3020529747009277 -1.3591669797897339 6.1412353515625 31 31 31
-1.0056860446929932 -1.5978424549102783 7.416564464569092 31 31 31
-1.3551963567733765 -1.7260812520980835 8.203767776489258 22 22 22
3.9295966625213623 -3.466801404953003 16.679067611694336 9 9 9
3.690225124359131 -3.1471383571624756 15.368427276611328 20 20 20
4.573442459106445 -4.057493209838867 20.407909393310547 43 43 43
-1.3782711029052734 -1.5573285818099976 8.053483963012695 111 111 111
-1.7743253707885742 -1.2545572519302368 6.656213760375977 5 5 5
-2.0870420932769775 -1.145018219947815 6.0871405601501465 157 157 157
3.3680005073547363 -2.5849220752716064 13.747976303100586 26 26 26
-1.3206936120986938 -1.4023462533950806 7.717426300048828 108 108 108
-1.3142467737197876 -1.4562116861343384 8.107890129089355 30 30 30
-1.768092393875122 -1.1645258665084839 6.549022674560547 110 110 110
-1.3978794813156128 -1.3999429941177368 7.960926532745361 32 32 32
-1.8711506128311157 -1.0862385034561157 6.255765914916992 145 145 145
-1.4231866598129272 -1.4349279403686523 8.315037727355957 123 123 123
-1.3065382242202759 -1.2326191663742065 8.022045135498047 38 38 38
3.402209997177124 -2.377950429916382 15.242351531982422 1 1 1
3.062511444091797 -2.2159719467163086 14.398907661437988 125 125 125
2.584321975708008 -2.2212469577789307 14.863383293151855 56 56 56
2.3173561096191406 -1.9854241609573364 12.938698768615723 10 10 10
5.1385178565979 -2.674099922180176 18.612991333007812 161 161 161
4.5520501136779785 -2.3957571983337402 17.093017578125 38 38 38
-2.061443567276001 -0.9422050714492798 6.801881313323975 23 23 23
-1.5580592155456543 -0.9412516355514526 6.842623710632324 67 67 67
5.006720542907715 -2.433375835418701 17.83011817932129 84 84 84
2.4860124588012695 -1.8352632522583008 13.898417472839355 74 74 74
3.257303237915039 -1.8705227375030518 14.44076919555664 55 55 55
6.893714427947998 -2.4235270023345947 18.723207473754883 47 47 47
4.7205939292907715 -2.2063684463500977 17.36175537109375 19 19 19
4.312269687652588 -2.1719818115234375 16.96388053894043 168 168 168
6.828890800476074 -2.1795425415039062 17.84588050842285 52 52 52
9.55506420135498 -2.9613430500030518 24.577472686767578 45 45 45
4.127110481262207 -2.0643222332000732 16.790422439575195 176 176 176
4.314697742462158 -1.972267508506775 16.817869186401367 143 143 143
5.060007095336914 -2.1651451587677 18.43919563293457 162 162 162
3.4030191898345947 -1.7636330127716064 15.302295684814453 134 134 134
2.3525092601776123 -1.5160154104232788 13.269096374511719 97 97 97
4.1769537925720215 -1.8516029119491577 16.424684524536133 201 201 201
4.332821369171143 -1.8505207300186157 16.165515899658203 21 21 21
3.1420366764068604 -1.6081490516662598 14.450958251953125 3 3 3
3.229605197906494 -1.5961110591888428 14.487207412719727 11 11 11
9.51721477508545 -2.8451008796691895 26.068622589111328 106 106 106
2.2168474197387695 -1.3424360752105713 12.526514053344727 92 92 92
-2.3024463653564453 -0.629188597202301 6.1601786613464355 115 115 115
9.30650806427002 -2.672685384750366 25.6031551361084 12 12 12
7.179095268249512 -2.0184144973754883 19.33060646057129 96 96 96
2.3314809799194336 -1.3876737356185913 13.518948554992676 6 6 6
-1.800797462463379 -0.6724990606307983 6.672277927398682 4 4 4
-1.436432123184204 -0.701000988483429 7.343312740325928 61 61 61
4.3614983558654785 -1.9945811033248901 20.625431060791016 17 17 17
4.572770118713379 -1.6040146350860596 16.270017623901367 5 5 5
4.513023853302002 -1.5850605964660645 16.556989669799805 165 165 165
10.418251037597656 -2.6829822063446045 27.300668716430664 149 149 149
5.872618675231934 -2.006967306137085 21.286916732788086 163 163 163
5.194252967834473 -1.730452060699463 18.92923355102539 155 155 155
3.0335841178894043 -1.1264333724975586 14.104700088500977 2 2 2
3.0302634239196777 -1.1673530340194702 14.422901153564453 2 2 2
8.747359275817871 -1.9475152492523193 24.25376319885254 24 24 24
10.276015281677246 -2.1050937175750732 27.759700775146484 22 22 22
6.271014213562012 -1.7618610858917236 24.16706657409668 104 104 104
5.967393398284912 -1.6144869327545166 21.919879913330078 2 2 2
9.665334701538086 -1.8436545133590698 26.05696678161621 34 34 34
8.451348304748535 -1.6047959327697754 23.243000030517578 119 119 119
-1.8717371225357056 -0.40804874897003174 6.2961015701293945 28 28 28
3.3363609313964844 -0.9681687951087952 15.020088195800781 11 11 11
-1.9826159477233887 2.792968511581421 6.123958110809326 102 102 102
-0.8826334476470947 -0.4718101918697357 8.03963851928711 25 25 25
5.266146183013916 -1.157729983329773 19.199146270751953 19 19 19
-2.2663869857788086 2.6146864891052246 6.220985412597656 58 58 58
2.6501052379608154 -0.6785812377929688 13.61618709564209 4 4 4
3.325784683227539 -0.7375397086143494 15.110956192016602 3 3 3
4.469806671142578 -0.8285388350486755 17.504858016967773 73 73 73
-2.025078058242798 2.398512840270996 6.062412738800049 100 100 100
3.26228928565979 -0.49731945991516113 14.975322723388672 24 24 24
-2.126401424407959 -0.14553770422935486 6.172575950622559 11 11 11
10.370564460754395 -0.3243943154811859 26.291990280151367 40 40 40
4.5554118156433105 -0.158444344997406 17.77771759033203 89 89 89
4.455857276916504 -0.15060025453567505 16.51399040222168 2 2 2
-2.3743045330047607 -0.020092424005270004 6.123287677764893 109 109 109
-0.43696129322052 2.6902999877929688 8.758284568786621 75 75 75
-1.9049160480499268 1.941078782081604 6.427138328552246 95 95 95
4.4779438972473145 0.2912565767765045 17.54436492919922 20 20 20
6.043046474456787 0.5100928544998169 20.3015193939209 164 164 164
-1.7309515476226807 0.16663679480552673 6.100648403167725 111 111 111
-1.3484535217285156 0.21488450467586517 7.029290676116943 107 107 107
2.6838502883911133 0.42569488286972046 13.787429809570312 5 5 5
-1.7033594846725464 0.2031332105398178 6.252624034881592 103 103 103
3.3273439407348633 0.6321881413459778 15.186503410339355 1 1 1
-2.2991209030151367 0.2954757809638977 6.19459867477417 46 46 46
-2.245539903640747 1.4326980113983154 6.148683547973633 68 68 68
-1.885556936264038 0.3040043115615845 6.273763656616211 19 19 19
-0.6616411805152893 0.4399968087673187 8.070347785949707 119 119 119
-1.8798145055770874 1.4568477869033813 6.3416547775268555 153 153 153
5.253660678863525 1.2352886199951172 19.16608238220215 97 97 97
4.712610721588135 1.255001187324524 18.409284591674805 31 31 31
-1.9098719358444214 1.247723937034607 6.323126792907715 142 142 142
3.812983989715576 3.152583122253418 16.97642707824707 21 21 21
-1.5440727472305298 1.2136867046356201 6.881025314331055 42 42 42
4.895164966583252 1.4503883123397827 17.93405532836914 4 4 4
4.322804927825928 2.826150417327881 17.447303771972656 29 29 29
-1.9054474830627441 1.0006134510040283 6.386465072631836 86 86 86
-1.9196096658706665 0.5291916131973267 6.391638278961182 153 153 153
-1.7207764387130737 0.9985310435295105 6.612231254577637 6 6 6
-0.8816180229187012 0.6914799213409424 8.056838989257812 7 7 7
4.9343180656433105 2.610921859741211 17.766170501708984 116 116 116
4.394506454467773 2.6871492862701416 18.0706844329834 111 111 111
6.010115146636963 2.1015164852142334 22.1811466217041 80 80 80
4.178007125854492 2.490262269973755 17.581724166870117 99 99 99
-1.2666667699813843 0.7433800101280212 7.554780960083008 161 161 161
4.302426815032959 2.3882362842559814 17.209627151489258 109 109 109
-1.724881887435913 0.753393828868866 6.60590124130249 52 52 52
4.13347864151001 2.070612668991089 15.133647918701172 131 131 131
4.308854579925537 2.4388372898101807 17.50990867614746 197 197 197
-1.8095331192016602 0.7447889447212219 6.163793087005615 76 76 76
-1.5484541654586792 0.9257822036743164 6.896522045135498 31 31 31
3.441593647003174 1.913750171661377 14.712743759155273 74 74 74
-2.2781968116760254 0.7822152972221375 6.201066493988037 118 118 118
-1.074159860610962 0.9323114156723022 7.669830322265625 54 54 54
-2.2782719135284424 0.782245397567749 6.20125675201416 118 118 118
3.9110538959503174 1.9910649061203003 15.197164535522461 204 204 204
4.0131449699401855 2.0970191955566406 15.848847389221191 27 27 27
-1.1487499475479126 0.9030154347419739 7.210840225219727 106 106 106
3.354841947555542 2.0244197845458984 15.322327613830566 31 31 31
7.55137825012207 2.240774631500244 22.75940704345703 126 126 126
-1.3285470008850098 0.6159012913703918 6.990115165710449 66 66 66
1.5486806631088257 -0.6252132654190063 12.041248321533203 10 10 10
4.404348850250244 2.653247356414795 17.118288040161133 68 68 68
4.239007949829102 2.9300897121429443 17.2683162689209 64 64 64
4.867853164672852 2.1310839653015137 17.87353515625 116 116 116
-1.691001296043396 1.2346833944320679 6.706703186035156 138 138 138
-0.39029067754745483 0.6409593820571899 8.73207950592041 7 7 7
2.561427354812622 1.8260115385055542 13.88186264038086 41 41 41
8.522988319396973 0.039468441158533096 23.74365234375 46 46 46
-0.3553294837474823 1.8128902912139893 8.941462516784668 2 2 2
-2.2936925888061523 0.36832764744758606 6.1581549644470215 73 73 73
-1.0717674493789673 1.8744438886642456 7.731039524078369 132 132 132
5.043654441833496 -2.228761672973633 17.750822067260742 129 129 129
2.2944083213806152 -1.6091338396072388 13.37310791015625 3 3 3
4.809528350830078 -1.5225558280944824 16.088504791259766 6 6 6
6.499372959136963 0.2339199334383011 21.23453712463379 79 79 79
5.83146858215332 0.06369846314191818 20.32926368713379 4 4 4
5.185415267944336 -0.18202388286590576 18.485586166381836 81 81 81
3.3859474658966064 -0.141823872923851 15.176294326782227 212 212 212
-0.8489899635314941 2.7767083644866943 8.070778846740723 132 132 132
-0.20945969223976135 0.6345288157463074 9.078332901000977 0 0 0
-0.8489818572998047 2.7766880989074707 8.070727348327637 132 132 132
2.433367967605591 1.8520346879959106 13.695829391479492 6 6 6
-0.21424832940101624 0.4075881838798523 9.278888702392578 26 26 26
2.4472622871398926 0.8878318667411804 13.30837345123291 128 128 128
-2.1605441570281982 -2.062263011932373 5.7739386558532715 75 75 75
-2.0744309425354004 -2.0728704929351807 5.95120906829834 35 35 35
-2.357414960861206 -1.9216364622116089 6.105618953704834 73 73 73
-2.0791358947753906 -1.8624807596206665 5.957535743713379 114 114 114
-2.2660958766937256 -1.8446677923202515 6.004547595977783 114 114 114
-2.31819224357605 -1.8436212539672852 6.111935615539551 150 150 150
-1.7566660642623901 -1.6998215913772583 5.731365203857422 86 86 86
-1.8637723922729492 -1.9884815216064453 6.835568428039551 118 118 118
-1.7772828340530396 -1.8637136220932007 6.569660663604736 28 28 28
-1.7865393161773682 -1.86639404296875 6.656735897064209 68 68 68
-1.4273760318756104 -1.8997628688812256 8.144013404846191 112 112 112
-2.3019373416900635 -1.3591054677963257 6.141016006469727 31 31 31
-1.8949671983718872 -1.364058256149292 6.309362411499023 43 43 43
-1.7738500833511353 -1.418236494064331 6.620934963226318 151 151 151
-1.3981599807739258 -1.9333558082580566 9.077116966247559 20 20 20
-1.578661561012268 -1.6943949460983276 8.062845230102539 30 30 30
4.132096290588379 -3.678464889526367 18.51953125 5 5 5
4.174453258514404 -3.1130988597869873 16.416942596435547 140 140 140
3.425987958908081 -2.626152753829956 13.969831466674805 26 26 26
4.072019577026367 -2.9293212890625 15.948779106140137 7 7 7
-2.098590612411499 -1.1079457998275757 6.055380344390869 18 18 18
-1.4243626594543457 -1.4985383749008179 8.307089805603027 115 115 115
-1.792744517326355 -1.1822457313537598 6.624882221221924 111 111 111
-1.8969002962112427 -1.0945242643356323 6.327597141265869 134 134 134
2.7191243171691895 -2.0870683193206787 12.990893363952637 7 7 7
-1.0990523099899292 -1.2257866859436035 8.001214981079102 2 2 2
2.8270339965820312 -2.049400568008423 13.364483833312988 138 138 138
2.982102394104004 -2.0351710319519043 13.483630180358887 102 102 102
3.249999761581421 -2.1884164810180664 14.432826042175293 13 13 13
3.1255290508270264 -2.0160951614379883 13.887564659118652 47 47 47
-2.2004222869873047 -0.8528914451599121 5.951356410980225 42 42 42
-2.2897067070007324 -0.8848365545272827 6.280789852142334 185 185 185
-2.1298158168792725 -0.8366929888725281 5.915806293487549 162 162 162
-2.1184775829315186 -0.8471869230270386 5.980773448944092 191 191 191
-2.0501718521118164 -0.8435338735580444 5.986631393432617 159 159 159
4.958192348480225 -2.480011463165283 17.91675567626953 10 10 10
2.420055627822876 -1.790333867073059 13.55272388458252 75 75 75
4.312407493591309 -2.1720573902130127 16.96441650390625 168 168 168
3.0244669914245605 -1.7339354753494263 14.161208152770996 129 129 129
4.1271281242370605 -2.0643203258514404 16.790496826171875 176 176 176
2.21997332572937 -1.4399217367172241 12.567484855651855 91 91 91
4.176913261413574 -1.8515862226486206 16.42453384399414 201 201 201
