ply
format ascii 1.0
element vertex 112
property float x
property float y
property float z
property uchar red
property uchar green
property uchar blue
end_header
-4.5714802742004395 -2.217738151550293 9.393298149108887 70 70 70
-4.642963886260986 -1.7386916875839233 9.953633308410645 78 78 78
-4.553590774536133 -2.323779344558716 9.80235767364502 16 16 16
-4.472956657409668 -1.8999181985855103 9.75761890411377 19 19 19
-4.390026092529297 -2.362459659576416 9.937447547912598 68 68 68
-4.441534996032715 -2.069620370864868 10.143170356750488 75 75 75
-4.411305904388428 -1.8916701078414917 10.095523834228516 120 120 120
-4.395155429840088 -2.4173197746276855 10.320430755615234 36 36 36
-4.453102111816406 -2.1724116802215576 10.525376319885254 38 38 38
-4.348134517669678 -2.7637839317321777 10.46523380279541 137 137 137
-4.348134517669678 -2.7637839317321777 10.46523380279541 137 137 137
-4.3624701499938965 -2.4247512817382812 10.915627479553223 28 28 28
-4.318734169006348 0.994938850402832 10.917814254760742 13 13 13
-4.293547630310059 -1.9041662216186523 11.028044700622559 92 92 92
-4.2798638343811035 -1.0373209714889526 11.227436065673828 69 69 69
-4.260869979858398 -1.482171893119812 11.209959983825684 119 119 119
-4.221773147583008 -0.11733699589967728 11.276094436645508 45 45 45
-4.230085849761963 0.2082832008600235 11.373451232910156 50 50 50
-4.079553604125977 0.8018391132354736 11.266000747680664 96 96 96
-4.111957550048828 0.9900747537612915 11.40182876586914 23 23 23
-3.861919403076172 -2.729288339614868 11.889531135559082 25 25 25
-3.754045009613037 -2.0585973262786865 12.255247116088867 23 23 23
-3.8460512161254883 -1.6447930335998535 12.720144271850586 26 26 26
-3.83219838142395 0.569726288318634 12.758105278015137 92 92 92
-3.776573896408081 -2.3228747844696045 12.644285202026367 100 100 100
-3.839489698410034 -0.9698638916015625 12.859460830688477 31 31 31
-3.8244447708129883 -0.7004947662353516 12.848703384399414 29 29 29
-3.8244447708129883 -0.7004947662353516 12.848703384399414 29 29 29
-3.8191707134246826 -0.23427604138851166 12.92075252532959 31 31 31
-3.80086350440979 -2.3687593936920166 12.969731330871582 22 22 22
-3.7616934776306152 0.42228445410728455 12.930668830871582 29 29 29
-3.7255239486694336 -0.3686825931072235 12.940226554870605 66 66 66
-3.627411365509033 -1.3440728187561035 13.427165985107422 133 133 133
-3.410240650177002 -1.1009398698806763 14.19732666015625 28 28 28
-3.4164340496063232 -0.8794145584106445 14.263082504272461 31 31 31
-3.3968558311462402 -0.32663053274154663 14.300204277038574 30 30 30
-3.3223893642425537 -2.623648166656494 14.891070365905762 33 33 33
-3.2823657989501953 -2.097674608230591 14.856141090393066 29 29 29
-3.226456642150879 -2.8941049575805664 15.233642578125 77 77 77
-3.186974287033081 -2.060225248336792 15.25660228729248 139 139 139
-3.1818363666534424 -2.185701608657837 15.26893138885498 118 118 118
-3.1941652297973633 -1.8022881746292114 15.34355640411377 98 98 98
-2.5906546115875244 -3.711048126220703 12.460295677185059 59 59 59
-3.062910556793213 -1.865084171295166 15.921977043151855 191 191 191
-3.0521626472473145 -2.761063575744629 15.983898162841797 34 34 34
-2.641735553741455 -3.23618221282959 14.145512580871582 112 112 112
-2.8011105060577393 -2.6865086555480957 15.380952835083008 43 43 43
-2.8011105060577393 -2.6865086555480957 15.380952835083008 43 43 43
-2.8981528282165527 -1.2574113607406616 15.93680191040039 133 133 133
-2.8628547191619873 -1.3863227367401123 15.876540184020996 47 47 47
-2.783217191696167 -1.5635713338851929 15.949475288391113 145 145 145
-2.8616013526916504 -2.0804967880249023 16.412670135498047 57 57 57
-2.538642168045044 -2.9072065353393555 14.6438570022583 149 149 149
-2.6855618953704834 -1.1360574960708618 15.887478828430176 54 54 54
-2.7724997997283936 -2.275439500808716 16.654634475708008 19 19 19
-2.7724997997283936 -2.275439500808716 16.654634475708008 19 19 19
-2.5571210384368896 -2.7370877265930176 15.393280982971191 172 172 172
-2.617952346801758 -1.8326658010482788 16.37139129638672 27 27 27
-2.5302326679229736 -1.5344935655593872 15.980915069580078 30 30 30
-2.5302326679229736 -1.5344935655593872 15.980915069580078 30 30 30
-2.39721941947937 -0.8534160256385803 15.653511047363281 153 153 153
-2.4416122436523438 -1.1572623252868652 16.008899688720703 55 55 55
-2.4221153259277344 -1.5679224729537964 15.90201473236084 158 158 158
-2.3613483905792236 -1.017142415046692 15.838768005371094 116 116 116
-2.33434796333313 -0.9043146967887878 16.042984008789062 92 92 92
-2.2770183086395264 -1.41146981716156 15.784217834472656 19 19 19
-2.2684154510498047 -1.2322884798049927 15.78708553314209 19 19 19
-2.1138200759887695 -1.2721455097198486 15.924503326416016 17 17 17
-2.096306085586548 -1.1657919883728027 15.795287132263184 20 20 20
-1.3838390111923218 0.09404724091291428 10.622422218322754 205 205 205
-1.8309272527694702 -0.5614403486251831 14.888192176818848 130 130 130
-1.2458064556121826 0.06115270406007767 10.666150093078613 135 135 135
-1.1547834873199463 1.0368043184280396 10.99507999420166 8 8 8
-1.1099779605865479 1.5617202520370483 10.639593124389648 95 95 95
-1.060882806777954 -0.004612680058926344 10.68156623840332 4 4 4
-1.060882806777954 -0.004612680058926344 10.68156623840332 4 4 4
-1.0396299362182617 1.655188798904419 10.733341217041016 19 19 19
-0.8402964472770691 1.735630989074707 10.800326347351074 68 68 68
-0.3989538848400116 3.708225965499878 7.241053104400635 56 56 56
0.40563178062438965 -2.406704902648926 4.958842754364014 34 34 34
0.40563178062438965 -2.406704902648926 4.958842754364014 34 34 34
0.45889344811439514 1.2437996864318848 5.597131729125977 104 104 104
0.41806715726852417 -1.4621433019638062 5.062938690185547 38 38 38
0.4823272228240967 0.9066335558891296 5.446444511413574 120 120 120
0.5024062991142273 -2.9331727027893066 4.912829399108887 114 114 114
0.5693116188049316 -2.260594367980957 5.12719202041626 69 69 69
0.6582352519035339 -0.9151206016540527 5.199715614318848 32 32 32
0.651118814945221 -2.431457042694092 5.014301776885986 33 33 33
0.651118814945221 -2.431457042694092 5.014301776885986 33 33 33
0.6902413368225098 -1.1545436382293701 5.150376319885254 64 64 64
0.7082222104072571 -0.607456386089325 5.229586601257324 47 47 47
0.7126436829566956 -0.552590012550354 5.23786735534668 49 49 49
0.710542619228363 -0.9220229387283325 5.210206985473633 38 38 38
0.710542619228363 -0.9220229387283325 5.210206985473633 38 38 38
0.710542619228363 -0.9220229387283325 5.210206985473633 38 38 38
0.7000830173492432 -1.5334545373916626 5.125458240509033 30 30 30
0.7130666971206665 -1.2235851287841797 5.163283824920654 32 32 32
0.7190575003623962 -1.8418282270431519 5.113483905792236 41 41 41
0.7631833553314209 -0.0021131588146090508 5.316423416137695 127 127 127
0.801064133644104 1.8011327981948853 5.572305202484131 96 96 96
0.7631546854972839 -0.5720330476760864 5.257855415344238 101 101 101
0.7495443820953369 -1.2405024766921997 5.156779766082764 33 33 33
0.7971562147140503 0.5763648748397827 5.41801118850708 52 52 52
0.8313786387443542 1.1674762964248657 5.505457401275635 30 30 30
0.7618815898895264 -1.75290846824646 5.0388102531433105 153 153 153
0.8268861174583435 0.8745688199996948 5.460591793060303 42 42 42
0.743901789188385 -2.73464298248291 4.903966426849365 156 156 156
0.7749992609024048 -1.3312004804611206 5.104922771453857 146 146 146
0.7779623866081238 -1.1421905755996704 5.121487140655518 148 148 148
0.7866547703742981 -0.9820467233657837 5.14031457901001 149 149 149
0.8272057175636292 0.18789927661418915 5.311763286590576 134 134 134
0.9218626618385315 -2.67112398147583 4.9038166999816895 162 162 162
