ply
format ascii 1.0
element vertex 65
property float x
property float y
property float z
property uchar red
property uchar green
property uchar blue
end_header
-16.1750545501709 -10.908341407775879 35.50906753540039 184 184 184
-16.1750545501709 -10.908341407775879 35.50906753540039 184 184 184
-16.957731246948242 -14.409981727600098 38.2713737487793 99 99 99
-19.010055541992188 -22.47307586669922 45.181331634521484 82 82 82
-15.171339988708496 -5.068686008453369 37.825679779052734 251 251 251
-17.268693923950195 -16.195423126220703 44.2257080078125 134 134 134
-17.397869110107422 -17.867656707763672 44.5733757019043 134 134 134
-12.705739974975586 -4.968095302581787 32.70457458496094 182 182 182
-16.235069274902344 -13.935354232788086 41.81451416015625 135 135 135
-16.235069274902344 -13.935354232788086 41.81451416015625 135 135 135
-14.097240447998047 -3.3958072662353516 37.701087951660156 85 85 85
-16.471303939819336 -17.602602005004883 44.02460479736328 132 132 132
-14.643214225769043 -13.108935356140137 39.49994659423828 61 61 61
-14.643214225769043 -13.108935356140137 39.49994659423828 61 61 61
-16.195419311523438 -17.344709396362305 43.799617767333984 129 129 129
-12.280299186706543 -2.6732523441314697 34.18501281738281 147 147 147
-15.420709609985352 -19.601337432861328 43.13016891479492 34 34 34
-16.340709686279297 -20.475444793701172 45.773284912109375 111 111 111
-10.820856094360352 -2.431894302368164 31.47688865661621 52 52 52
-9.2125244140625 -3.4422333240509033 27.11330223083496 31 31 31
-14.923260688781738 1.026645541191101 44.644775390625 157 157 157
-11.084442138671875 -3.102932929992676 33.76270294189453 156 156 156
-11.084442138671875 -3.102932929992676 33.76270294189453 156 156 156
-9.206313133239746 -2.063339948654175 28.333364486694336 56 56 56
-9.206313133239746 -2.063339948654175 28.333364486694336 56 56 56
-12.967520713806152 1.3354699611663818 40.12437057495117 63 63 63
-8.667314529418945 -1.5766721963882446 27.780221939086914 254 254 254
-8.997905731201172 0.16823679208755493 28.919282913208008 68 68 68
-9.421677589416504 -0.6672552227973938 30.494455337524414 254 254 254
-7.8367791175842285 -3.2105960845947266 25.377517700195312 238 238 238
-8.71855354309082 -1.199279546737671 29.569904327392578 254 254 254
-8.466458320617676 -1.1440081596374512 28.999649047851562 255 255 255
-8.466458320617676 -1.1440081596374512 28.999649047851562 255 255 255
-11.660943031311035 -6.675075054168701 40.364803314208984 35 35 35
-12.558640480041504 2.1552088260650635 43.490901947021484 121 121 121
-9.046062469482422 -0.5814527869224548 31.43280792236328 131 131 131
-9.604248046875 -1.531995177268982 33.488372802734375 248 248 248
-9.279221534729004 -0.22567927837371826 32.453857421875 152 152 152
-8.812653541564941 -3.9046669006347656 31.07956886291504 36 36 36
-13.054844856262207 -6.76387882232666 46.62759780883789 124 124 124
-9.226789474487305 -0.3067784607410431 34.10028076171875 254 254 254
-9.226789474487305 -0.3067784607410431 34.10028076171875 254 254 254
-10.549099922180176 -0.418476939201355 39.1967887878418 254 254 254
-8.826150894165039 -1.4523749351501465 32.8033447265625 115 115 115
-8.826150894165039 -1.4523749351501465 32.8033447265625 115 115 115
-4.869275093078613 0.58779376745224 18.235286712646484 75 75 75
-9.18427562713623 -4.574661731719971 34.802711486816406 247 247 247
-8.62081241607666 -4.5147480964660645 34.13457489013672 43 43 43
-7.99005126953125 -1.7381799221038818 31.79532241821289 51 51 51
-8.094846725463867 -0.3361535668373108 32.3853874206543 134 134 134
-8.094846725463867 -0.3361535668373108 32.3853874206543 134 134 134
-7.696980953216553 1.7188414335250854 31.466176986694336 60 60 60
-10.533102035522461 -9.528339385986328 45.019004821777344 72 72 72
-8.094347953796387 -0.49596884846687317 34.85518264770508 254 254 254
-10.105659484863281 -6.146493911743164 43.57065963745117 54 54 54
-7.067229747772217 -2.470545768737793 30.59680938720703 61 61 61
-10.224771499633789 -11.40607738494873 44.2785758972168 35 35 35
-8.025492668151855 -4.059874057769775 35.12522888183594 168 168 168
-9.696481704711914 -2.728259801864624 42.85903549194336 66 66 66
-9.291035652160645 -3.2615931034088135 41.72236251831055 176 176 176
-8.696101188659668 -2.75032377243042 39.37183380126953 67 67 67
-8.379018783569336 -7.266819000244141 44.64311981201172 129 129 129
-6.57323694229126 1.1116567850112915 44.990501403808594 255 255 255
-4.359193325042725 3.074390411376953 45.223976135253906 143 143 143
-2.1555540561676025 1.052738904953003 35.86794662475586 121 121 121
