ply
format ascii 1.0
element vertex 67
property float x
property float y
property float z
property uchar red
property uchar green
property uchar blue
end_header
-0.9223644733428955 -0.7021535038948059 1.9737060070037842 85 85 85
-0.9107704162597656 -0.711500883102417 1.9776617288589478 67 67 67
-0.9195137619972229 0.4215833842754364 2.0157265663146973 99 99 99
-0.908503532409668 0.23794499039649963 2.011582374572754 66 66 66
-0.8694258332252502 0.19919323921203613 2.087904453277588 54 54 54
-0.8199571967124939 -0.7172284722328186 2.0192575454711914 102 102 102
-0.7902591228485107 0.562974750995636 2.0904042720794678 111 111 111
-0.7822856307029724 0.48714351654052734 2.092564821243286 116 116 116
-0.7543458938598633 0.468889981508255 2.1032071113586426 118 118 118
-0.821693480014801 0.0913161113858223 2.3870463371276855 157 157 157
-0.7278422117233276 0.5369856953620911 2.1318857669830322 88 88 88
-0.8049145340919495 0.03000631183385849 2.372964859008789 254 254 254
-0.7855208516120911 -0.2638351619243622 2.358677864074707 33 33 33
-0.7087769508361816 0.6175561547279358 2.1335110664367676 111 111 111
-0.6864376068115234 -0.767189085483551 2.0877525806427 133 133 133
-0.6844207644462585 -0.7678925395011902 2.0851521492004395 136 136 136
-0.6894137263298035 0.5061856508255005 2.1385185718536377 146 146 146
-0.6752858757972717 0.3407307267189026 2.139251708984375 39 39 39
-0.6709296107292175 0.5146673321723938 2.156554937362671 65 65 65
-0.7292724847793579 0.050317395478487015 2.42557692527771 254 254 254
-0.6423668265342712 0.768140435218811 2.17116641998291 78 78 78
-0.7070630788803101 -0.24390996992588043 2.426666259765625 247 247 247
-0.6302593946456909 0.6166188716888428 2.1702442169189453 104 104 104
-0.6255971193313599 0.4754629135131836 2.1695351600646973 118 118 118
-0.6878151297569275 -0.0639403685927391 2.4467787742614746 53 53 53
-0.6055816411972046 0.4652878940105438 2.177452802658081 129 129 129
-0.5928695797920227 0.47306156158447266 2.1853017807006836 60 60 60
-0.5826665163040161 0.4420734941959381 2.193650007247925 35 35 35
-0.5803058743476868 0.44261568784713745 2.1906747817993164 35 35 35
-0.5803058743476868 0.44261568784713745 2.1906747817993164 35 35 35
-0.6195053458213806 -0.7017371654510498 2.3630123138427734 77 77 77
-0.5690395832061768 0.46385657787323 2.195417881011963 133 133 133
-0.5566079020500183 -0.7008096575737 2.1510863304138184 42 42 42
-0.533550500869751 -0.595029354095459 2.0801663398742676 19 19 19
-0.5624339580535889 0.48496755957603455 2.201137065887451 134 134 134
-0.5427517890930176 0.6752434968948364 2.21164608001709 103 103 103
-0.5381368398666382 0.4150313436985016 2.2056291103363037 44 44 44
-0.47242480516433716 -0.14821267127990723 1.9567270278930664 48 48 48
-0.5307897329330444 0.25131675601005554 2.205714225769043 57 57 57
-0.47657638788223267 -0.5727440714836121 2.0142714977264404 21 21 21
-0.5093443989753723 -0.9113888740539551 2.1645586490631104 123 123 123
-0.5181844830513 0.7114040851593018 2.235891342163086 24 24 24
-0.5080007910728455 0.3210015892982483 2.2169930934906006 73 73 73
-0.4950983226299286 0.4679473042488098 2.2279539108276367 112 112 112
-0.48062169551849365 0.5465224981307983 2.2365288734436035 129 129 129
-0.4389704167842865 -0.7175062894821167 2.1701736450195312 118 118 118
-0.44451969861984253 0.4815480411052704 2.249608039855957 125 125 125
-0.44365713000297546 0.7368044853210449 2.262208938598633 96 96 96
-0.44294750690460205 0.7359621524810791 2.261353015899658 101 101 101
-0.43299946188926697 0.46958231925964355 2.2614829540252686 141 141 141
-0.4350798726081848 0.19036245346069336 2.2968697547912598 60 60 60
-0.3903488218784332 0.6802086234092712 2.2843258380889893 54 54 54
-0.37722501158714294 -0.7356032729148865 2.236544609069824 142 142 142
-0.3462485671043396 0.48327070474624634 2.2962918281555176 149 149 149
-0.34745118021965027 0.862558901309967 2.32090163230896 49 49 49
-0.3247441351413727 0.5383514165878296 2.306950092315674 119 119 119
-0.32109272480010986 0.6632866859436035 2.3157107830047607 100 100 100
-0.31155818700790405 0.5916649103164673 2.3154916763305664 101 101 101
-0.3094453513622284 0.541208803653717 2.3169100284576416 48 48 48
-0.30746951699256897 0.6177046895027161 2.316143751144409 43 43 43
-0.30132898688316345 0.5459904074668884 2.3142459392547607 49 49 49
-0.30132898688316345 0.5459904074668884 2.3142459392547607 49 49 49
-0.2780815362930298 0.4798628091812134 2.3255252838134766 121 121 121
-0.2536061704158783 0.4390193521976471 2.3375260829925537 37 37 37
-0.24483874440193176 0.1911996752023697 2.359152317047119 68 68 68
-0.23918211460113525 0.4754593074321747 2.346498727798462 100 100 100
-0.23918211460113525 0.4754593074321747 2.346498727798462 100 100 100
