ply
format ascii 1.0
element vertex 103
property float x
property float y
property float z
property uchar red
property uchar green
property uchar blue
end_header
-1.8681256771087646 -1.1705834865570068 3.890697479248047 103 103 103
-1.807620882987976 -1.1459392309188843 3.813255786895752 100 100 100
-1.7552776336669922 0.4331028163433075 3.746187448501587 133 133 133
-1.7552776336669922 0.4331028163433075 3.746187448501587 133 133 133
-1.7518974542617798 0.38473522663116455 3.8006386756896973 102 102 102
-1.6604775190353394 0.37384548783302307 3.8257999420166016 97 97 97
-1.5499372482299805 -1.3120803833007812 3.609428882598877 96 96 96
-1.608459234237671 0.6927653551101685 3.8203368186950684 21 21 21
-1.5125547647476196 0.8638150691986084 3.846632242202759 118 118 118
-1.4307016134262085 -1.197189450263977 3.772120475769043 140 140 140
-1.4307016134262085 -1.197189450263977 3.772120475769043 140 140 140
-1.4545470476150513 0.8281456828117371 3.855159044265747 116 116 116
-1.4528322219848633 0.6004329323768616 3.8574249744415283 18 18 18
-1.3725452423095703 -1.2889187335968018 3.6787431240081787 135 135 135
-1.3679656982421875 -1.415895938873291 3.673354148864746 132 132 132
-1.4357445240020752 0.9622971415519714 3.8811731338500977 66 66 66
-1.3807897567749023 0.9333540797233582 3.890859365463257 105 105 105
-1.304898738861084 -1.4087179899215698 3.678497076034546 131 131 131
-1.3755595684051514 1.1059978008270264 3.915863275527954 115 115 115
-1.2988817691802979 -1.4031347036361694 3.698436975479126 133 133 133
-1.3543059825897217 1.2906343936920166 3.9299685955047607 103 103 103
-1.331993579864502 0.8982164859771729 3.901074171066284 140 140 140
-1.3195087909698486 0.4229281544685364 3.8803422451019287 59 59 59
-1.4989100694656372 0.12922154366970062 4.413149356842041 113 113 113
-1.4656258821487427 0.20066308975219727 4.324306964874268 183 183 183
-1.307212471961975 0.5538421869277954 3.8911044597625732 21 21 21
-1.2391583919525146 -1.5834696292877197 3.691948175430298 107 107 107
-1.2380882501602173 -1.5834078788757324 3.6901779174804688 108 108 108
-1.4600461721420288 0.013478567823767662 4.371397018432617 254 254 254
-1.2961841821670532 0.8377745151519775 3.9097824096679688 104 104 104
-1.2938209772109985 0.8043940663337708 3.9161953926086426 107 107 107
-1.2939420938491821 0.9109558463096619 3.9249603748321533 28 28 28
-1.283132553100586 0.9072343707084656 3.9073829650878906 11 11 11
-1.283132553100586 0.9072343707084656 3.9073829650878906 11 11 11
-1.2722264528274536 1.4857311248779297 3.981137275695801 102 102 102
-1.3934627771377563 0.017223021015524864 4.438900947570801 88 88 88
-1.2192527055740356 1.1008327007293701 3.947864294052124 95 95 95
-1.208902359008789 0.8406766057014465 3.93745756149292 117 117 117
-1.1222474575042725 0.7814352512359619 3.9639980792999268 35 35 35
-1.2580933570861816 0.05093818157911301 4.536844730377197 145 145 145
-1.0907093286514282 0.8608956336975098 3.986931562423706 128 128 128
-1.0736908912658691 1.132931113243103 3.99589204788208 103 103 103
-1.045014500617981 0.7307606935501099 3.9794132709503174 50 50 50
-1.0492675304412842 1.2066017389297485 3.9965083599090576 104 104 104
-1.0367075204849243 1.1247377395629883 3.998246431350708 108 108 108
-1.0286606550216675 0.8927457928657532 3.991326332092285 121 121 121
-1.0293350219726562 0.9812643527984619 3.9968552589416504 113 113 113
-1.0244144201278687 0.9523476362228394 4.011847019195557 124 124 124
-0.9624656438827515 0.882933497428894 3.9959654808044434 146 146 146
-0.9565567970275879 1.5577843189239502 4.066739559173584 18 18 18
-0.9294414520263672 0.36464807391166687 4.086254119873047 129 129 129
-0.8446597456932068 -1.31449294090271 3.7864882946014404 111 111 111
-0.863887369632721 -1.1673378944396973 3.944812059402466 25 25 25
-0.8857287168502808 0.25082388520240784 4.126668930053711 254 254 254
-0.8632108569145203 0.8517398238182068 4.026357173919678 129 129 129
-0.8626380562782288 1.3258482217788696 4.072073459625244 98 98 98
-0.8347897529602051 0.8264124393463135 4.03324556350708 92 92 92
-0.8321854472160339 0.784690797328949 4.042688846588135 120 120 120
-0.8296777606010437 0.9900465607643127 4.044657230377197 126 126 126
-0.8184207677841187 0.3109767436981201 4.058998107910156 62 62 62
-0.7928212881088257 1.1274707317352295 4.0846357345581055 119 119 119
-0.7154788374900818 -1.340325951576233 3.866964101791382 113 113 113
-0.7448712587356567 1.3708521127700806 4.108270645141602 93 93 93
-0.66971755027771 0.8533831238746643 4.076659202575684 137 137 137
-0.6670824289321899 1.5759648084640503 4.150266647338867 110 110 110
-0.6439425349235535 0.5233337879180908 4.056223392486572 49 49 49
-0.6350786685943604 0.9614701271057129 4.105565071105957 103 103 103
-0.6139299273490906 1.0576045513153076 4.128360271453857 95 95 95
-0.6086666584014893 1.0690653324127197 4.110469341278076 118 118 118
-0.6039650440216064 0.9592006206512451 4.109653472900391 46 46 46
-0.6039650440216064 0.9592006206512451 4.109653472900391 46 46 46
-0.5983456969261169 0.9568631052970886 4.095698356628418 46 46 46
-0.593350350856781 1.1017987728118896 4.105513572692871 39 39 39
-0.577940821647644 1.059579610824585 4.124574184417725 50 50 50
-0.5475403666496277 0.8527924418449402 4.125298023223877 119 119 119
-0.4094502031803131 1.8603723049163818 3.1309328079223633 110 110 110
-0.4094502031803131 1.8603723049163818 3.1309328079223633 110 110 110
-0.4074888825416565 1.8516340255737305 3.163743495941162 62 62 62
-0.5005096793174744 0.7776221632957458 4.141533374786377 36 36 36
-0.48538729548454285 1.0856249332427979 4.155093193054199 56 56 56
-0.4818246066570282 0.8711816072463989 4.1293158531188965 61 61 61
-0.46933475136756897 0.839005172252655 4.139095306396484 96 96 96
-0.46933475136756897 0.839005172252655 4.139095306396484 96 96 96
-0.43350717425346375 -1.4043424129486084 3.9759562015533447 94 94 94
-0.43228957056999207 0.8383592963218689 4.116724967956543 95 95 95
-0.4170549809932709 0.49195706844329834 4.108516693115234 56 56 56
-0.35143354535102844 0.6699609160423279 4.152576446533203 20 20 20
-0.31884172558784485 -1.3210415840148926 3.9905784130096436 106 106 106
-0.31174570322036743 0.42947009205818176 4.130467891693115 139 139 139
-0.3076269030570984 0.4812599718570709 4.136677265167236 170 170 170
-0.2779611647129059 0.8720145225524902 4.187490463256836 108 108 108
-0.25754597783088684 0.7006239891052246 4.183248043060303 41 41 41
-0.25474435091018677 -1.0734068155288696 4.245761871337891 234 234 234
-0.21793228387832642 0.8191723823547363 4.170196533203125 93 93 93
-0.20374448597431183 1.2561275959014893 4.044140338897705 114 114 114
-0.1840108335018158 1.3695164918899536 3.943267822265625 60 60 60
-0.196698397397995 0.20461317896842957 4.274665355682373 64 64 64
-0.12663836777210236 0.9270487427711487 4.236082553863525 87 87 87
-0.0014717334415763617 1.6148147583007812 4.112205982208252 110 110 110
0.4201164245605469 0.6865033507347107 3.54451584815979 28 28 28
0.4181331992149353 -0.5442014932632446 3.441955327987671 23 23 23
0.47550198435783386 1.7685093879699707 3.5875635147094727 98 98 98
0.467210590839386 -1.2048991918563843 3.3454902172088623 153 153 153
