ply
format ascii 1.0
element vertex 93
property float x
property float y
property float z
property uchar red
property uchar green
property uchar blue
end_header
-1.064893364906311 0.23094569146633148 2.310079574584961 102 102 102
-1.0086194276809692 0.790149450302124 2.3089277744293213 11 11 11
-1.0095000267028809 0.22562526166439056 2.3258206844329834 97 97 97
-1.0113863945007324 0.20143090188503265 2.3489041328430176 52 52 52
-0.9510359168052673 0.8404297232627869 2.334469795227051 76 76 76
-0.9425946474075317 0.7899904251098633 2.341179609298706 23 23 23
-0.9568513035774231 -0.35282477736473083 2.403048038482666 46 46 46
-0.9312577843666077 0.6120809316635132 2.346385955810547 101 101 101
-0.9430516362190247 0.20908519625663757 2.389139175415039 33 33 33
-0.9259474873542786 0.5288735628128052 2.3548202514648438 118 118 118
-0.9267328381538391 -0.7744022607803345 2.4212615489959717 125 125 125
-0.9206482768058777 -0.7731696963310242 2.4282238483428955 140 140 140
-0.9206482768058777 -0.7731696963310242 2.4282238483428955 140 140 140
-0.8919024467468262 0.5082069635391235 2.3640005588531494 116 116 116
-0.9462713003158569 -0.011715750209987164 2.585585594177246 46 46 46
-0.8586101531982422 -0.9273966550827026 2.4206607341766357 131 131 131
-0.8402808904647827 0.6761749386787415 2.3922929763793945 115 115 115
-0.8522951006889343 -0.9220187664031982 2.4271891117095947 133 133 133
-0.8507630825042725 -0.9211283326148987 2.430199384689331 132 132 132
-0.8206501007080078 0.5536655783653259 2.403533697128296 140 140 140
-0.8202208280563354 0.26353755593299866 2.4120888710021973 59 59 59
-0.890076756477356 0.0769624337553978 2.6205735206604004 113 113 113
-0.8083572387695312 0.368360310792923 2.4139115810394287 38 38 38
-0.8083572387695312 0.368360310792923 2.4139115810394287 38 38 38
-0.8694427013397217 0.010584324598312378 2.603006601333618 254 254 254
-0.8694427013397217 0.010584324598312378 2.603006601333618 254 254 254
-0.8702784180641174 -0.31515833735466003 2.6237080097198486 31 31 31
-0.8702784180641174 -0.31515833735466003 2.6237080097198486 31 31 31
-0.801883339881897 0.5189821720123291 2.4188973903656006 104 104 104
-0.7933669686317444 0.5620408654212952 2.4160921573638916 11 11 11
-0.7768231630325317 0.9081966280937195 2.414454460144043 105 105 105
-0.7721062898635864 0.9014728665351868 2.4160773754119873 102 102 102
-0.8286688923835754 0.010199293494224548 2.639768600463867 88 88 88
-0.7528133392333984 0.9642941951751709 2.425997495651245 91 91 91
-0.7505515813827515 0.6780800819396973 2.4303035736083984 95 95 95
-0.7486808896064758 0.5215461850166321 2.438570499420166 117 117 117
-0.7472641468048096 0.553292453289032 2.4384994506835938 113 113 113
-0.75623619556427 0.1850530058145523 2.4871716499328613 92 92 92
-0.7926343679428101 -0.08318639546632767 2.656202793121338 70 70 70
-0.7908662557601929 -0.1156761422753334 2.6649107933044434 121 121 121
-0.725906491279602 0.5105425119400024 2.447289228439331 128 128 128
-0.7872640490531921 0.035655368119478226 2.6602325439453125 254 254 254
-0.712059497833252 0.42326968908309937 2.460336208343506 129 129 129
-0.7681204676628113 -0.29146435856819153 2.678701162338257 102 102 102
-0.6971036791801453 0.4858964681625366 2.462435722351074 35 35 35
-0.6971036791801453 0.4858964681625366 2.462435722351074 35 35 35
-0.7427928447723389 -0.3251766860485077 2.648406744003296 34 34 34
-0.7490339875221252 0.0678882822394371 2.678438663482666 250 250 250
-0.6977614164352417 0.19509238004684448 2.5116095542907715 5 5 5
-0.6761024594306946 0.5335647463798523 2.4714622497558594 128 128 128
-0.6519815921783447 0.4571065604686737 2.482869863510132 50 50 50
-0.647790253162384 0.7450774312019348 2.4672887325286865 104 104 104
-0.6406638622283936 0.6955148577690125 2.4708547592163086 108 108 108
-0.6446548104286194 0.2717072665691376 2.4906301498413086 60 60 60
-0.6473969221115112 0.23233671486377716 2.5089645385742188 109 109 109
-0.6400294899940491 0.5569512248039246 2.483630418777466 121 121 121
-0.6383985877037048 0.6068522334098816 2.4784274101257324 113 113 113
-0.6355839371681213 0.8240814805030823 2.477245569229126 92 92 92
-0.6355839371681213 0.8240814805030823 2.477245569229126 92 92 92
-0.6934735178947449 0.024495800957083702 2.7066080570220947 254 254 254
-0.629896879196167 0.4920358955860138 2.4919278621673584 160 160 160
-0.617554783821106 0.7852867245674133 2.489696979522705 21 21 21
-0.617554783821106 0.7852867245674133 2.489696979522705 21 21 21
-0.6132163405418396 0.832905113697052 2.4830331802368164 38 38 38
-0.6045066714286804 0.4997778534889221 2.4998555183410645 22 22 22
-0.6011461019515991 0.5514801144599915 2.4956700801849365 146 146 146
-0.582714319229126 0.4611855447292328 2.506112575531006 116 116 116
-0.5814661383628845 0.6055082082748413 2.5041799545288086 123 123 123
-0.5554014444351196 0.8225706219673157 2.5059571266174316 111 111 111
-0.5403744578361511 0.5336980223655701 2.5205209255218506 129 129 129
-0.535926103591919 0.9238846302032471 2.5146985054016113 92 92 92
-0.5331525206565857 0.8156443238258362 2.515106439590454 98 98 98
-0.5234849452972412 0.5186495184898376 2.529156446456909 92 92 92
-0.5188751220703125 0.20130297541618347 2.5737011432647705 62 62 62
-0.49240678548812866 0.6979392766952515 2.535735607147217 119 119 119
-0.4649401605129242 0.769173800945282 2.5440871715545654 109 109 109
-0.4201793968677521 0.5353238582611084 2.557417869567871 137 137 137
-0.410959929227829 0.9677904844284058 2.5542542934417725 110 110 110
-0.40328770875930786 0.5060364007949829 2.581940174102783 38 38 38
-0.39751848578453064 0.5994470119476318 2.568697690963745 103 103 103
-0.39126914739608765 0.7374562621116638 2.5691745281219482 102 102 102
-0.38335293531417847 0.6590985059738159 2.5769050121307373 95 95 95
-0.3799686133861542 0.7755625247955322 2.568807363510132 154 154 154
-0.3788519501686096 0.6014977097511292 2.577608346939087 46 46 46
-0.37587347626686096 0.6008338928222656 2.5724246501922607 46 46 46
-0.37587347626686096 0.6008338928222656 2.5724246501922607 46 46 46
-0.3695402145385742 0.50400310754776 2.578019618988037 23 23 23
-0.36166515946388245 0.6620342135429382 2.5802578926086426 50 50 50
-0.34367525577545166 0.5365938544273376 2.589296579360962 119 119 119
-0.31448492407798767 0.4892846643924713 2.602323532104492 36 36 36
-0.2954321801662445 0.5286988615989685 2.605522871017456 96 96 96
-0.2954321801662445 0.5286988615989685 2.605522871017456 96 96 96
-0.2732355296611786 0.5300369262695312 2.6015610694885254 95 95 95
