ply
format ascii 1.0
element vertex 269
property float x
property float y
property float z
property uchar red
property uchar green
property uchar blue
end_header
-1.6580548286437988 0.6202304363250732 4.158257007598877 130 130 130
-1.6139253377914429 -0.2653575837612152 4.070700645446777 110 110 110
-1.466744303703308 -2.080986738204956 3.8606982231140137 96 96 96
-1.68827486038208 2.2302584648132324 4.444257736206055 89 89 89
-1.526660442352295 -0.5194182991981506 4.103659152984619 24 24 24
-1.5980145931243896 1.0352225303649902 4.306238174438477 17 17 17
-1.433454990386963 -2.078575611114502 3.8941609859466553 92 92 92
-1.4980334043502808 -0.520413339138031 4.120547771453857 28 28 28
-1.4220277070999146 -2.0652432441711426 3.913506031036377 29 29 29
-1.4220277070999146 -2.0652432441711426 3.913506031036377 29 29 29
-1.4643516540527344 -0.9698241353034973 4.068921089172363 27 27 27
-1.4406304359436035 -1.2086039781570435 4.0286946296691895 117 117 117
-1.4113901853561401 -1.6354272365570068 3.975773811340332 82 82 82
-1.4814261198043823 -0.07124953716993332 4.220152854919434 33 33 33
-1.4521583318710327 -0.2794419825077057 4.161895275115967 120 120 120
-1.4608017206192017 -0.30580851435661316 4.195258617401123 25 25 25
-1.4800605773925781 0.1510135382413864 4.269287109375 134 134 134
-1.4870234727859497 0.36373454332351685 4.312953948974609 43 43 43
-1.4487576484680176 0.015797706320881844 4.2288947105407715 115 115 115
-1.446311354637146 -0.050345808267593384 4.235557556152344 114 114 114
-1.4722682237625122 1.0092194080352783 4.375558376312256 26 26 26
-1.4427598714828491 0.48010146617889404 4.2975029945373535 101 101 101
-1.4221893548965454 -0.08264677226543427 4.251041889190674 45 45 45
-1.3652875423431396 -1.1534948348999023 4.096672534942627 103 103 103
-1.3925353288650513 -0.5551753044128418 4.1967949867248535 28 28 28
-1.460016131401062 1.4589582681655884 4.441794395446777 134 134 134
-1.3580251932144165 -1.0105952024459839 4.129974842071533 114 114 114
-1.4140278100967407 0.353055477142334 4.313506126403809 40 40 40
-1.3887169361114502 -0.1010802686214447 4.28352689743042 20 20 20
-1.4215632677078247 0.7306193113327026 4.386066436767578 120 120 120
-1.4648396968841553 1.8984341621398926 4.525442600250244 122 122 122
-1.407505750656128 0.7973185777664185 4.414018630981445 35 35 35
-1.3743404150009155 0.32561397552490234 4.335301876068115 109 109 109
-1.4329254627227783 1.8944168090820312 4.537560939788818 107 107 107
-1.3773274421691895 0.5837067365646362 4.405257701873779 67 67 67
-1.3902173042297363 1.0377986431121826 4.45713472366333 28 28 28
-1.391181230545044 1.2117893695831299 4.486718654632568 32 32 32
-1.4312456846237183 2.3555798530578613 4.648874759674072 103 103 103
-1.3865647315979004 1.4507707357406616 4.539854526519775 20 20 20
-1.3944146633148193 1.889183759689331 4.589090347290039 20 20 20
-1.3651535511016846 2.058708667755127 4.602497577667236 62 62 62
-1.238431453704834 -1.2327646017074585 4.175351142883301 123 123 123
-1.1952979564666748 -2.0272834300994873 4.0695319175720215 122 122 122
-1.2960402965545654 1.6583106517791748 4.586744785308838 112 112 112
-1.1901373863220215 -0.788549542427063 4.278680324554443 107 107 107
-1.1420320272445679 -2.089559316635132 4.120723724365234 28 28 28
-1.1845676898956299 -0.10392924398183823 4.427399158477783 58 58 58
-1.182054877281189 -0.10384444892406464 4.422459125518799 58 58 58
-1.1383286714553833 -1.2466213703155518 4.273102283477783 24 24 24
-1.1160073280334473 -1.64443838596344 4.2064127922058105 35 35 35
-1.0985616445541382 -2.0865190029144287 4.142489433288574 23 23 23
-1.0985616445541382 -2.0865190029144287 4.142489433288574 23 23 23
-1.1491113901138306 -0.7779724597930908 4.340095043182373 32 32 32
-1.1561765670776367 -0.1042877733707428 4.449585437774658 57 57 57
-1.117453932762146 -0.7773052453994751 4.364922523498535 31 31 31
-1.155287265777588 0.568388044834137 4.553057670593262 154 154 154
-1.1425620317459106 0.10709144175052643 4.50775671005249 56 56 56
-1.1425620317459106 0.10709144175052643 4.50775671005249 56 56 56
-1.16854727268219 1.2536300420761108 4.649661064147949 124 124 124
-1.140531301498413 0.5386182069778442 4.536384105682373 60 60 60
-1.1191868782043457 0.3539876937866211 4.514124870300293 119 119 119
-1.1191868782043457 0.3539876937866211 4.514124870300293 119 119 119
-1.122063159942627 0.40774500370025635 4.530292510986328 115 115 115
-1.1161365509033203 0.5090431571006775 4.562592029571533 122 122 122
-1.1075676679611206 0.5042177438735962 4.543887138366699 123 123 123
-1.1189520359039307 1.2591731548309326 4.688293933868408 63 63 63
-1.1189520359039307 1.2591731548309326 4.688293933868408 63 63 63
-1.1250495910644531 1.644533634185791 4.781733989715576 19 19 19
-1.122890591621399 1.8498950004577637 4.80152702331543 25 25 25
-0.9487930536270142 -2.2987661361694336 4.205328464508057 101 101 101
-0.933525800704956 -2.364515542984009 4.228221416473389 71 71 71
-0.9223828911781311 -2.33204984664917 4.227535247802734 24 24 24
-0.9948540329933167 -0.12087072432041168 4.578737735748291 50 50 50
-0.9208245277404785 -1.6150665283203125 4.352334976196289 116 116 116
-1.0279489755630493 2.512727737426758 4.971320629119873 17 17 17
-0.9673332571983337 0.9728153347969055 4.729344367980957 127 127 127
-0.9405308961868286 -0.1252068430185318 4.610467433929443 50 50 50
-0.8741868734359741 -1.910882592201233 4.328723430633545 116 116 116
-0.8655343055725098 -2.30899977684021 4.291372299194336 87 87 87
-0.8815682530403137 -1.4676008224487305 4.4065375328063965 125 125 125
-0.9009437561035156 -0.5785009264945984 4.553001403808594 34 34 34
-0.8727747797966003 -1.4517691135406494 4.42535400390625 48 48 48
-0.8361848592758179 -1.88628351688385 4.365800380706787 43 43 43
-0.8361848592758179 -1.88628351688385 4.365800380706787 43 43 43
-0.8708365559577942 -0.5789210200309753 4.597530841827393 36 36 36
-0.8911689519882202 0.9541354775428772 4.799492835998535 21 21 21
-0.854319155216217 1.5610092878341675 4.935634613037109 81 81 81
-0.7412359714508057 -2.3327033519744873 4.3523101806640625 22 22 22
-0.7412359714508057 -2.3327033519744873 4.3523101806640625 22 22 22
-0.7967820763587952 0.15558533370494843 4.722115993499756 89 89 89
-0.708597719669342 -2.3659260272979736 4.3253679275512695 94 94 94
-0.7048705220222473 -2.2533974647521973 4.408050060272217 77 77 77
-0.6824233531951904 -2.3088786602020264 4.371525287628174 27 27 27
-0.6815446615219116 -2.122866630554199 4.4658427238464355 31 31 31
-0.7189153432846069 0.7952809929847717 4.849096298217773 55 55 55
-0.6986714005470276 0.06937479227781296 4.79874324798584 47 47 47
-0.6316080093383789 -2.1125056743621826 4.465466499328613 35 35 35
-0.6866801977157593 0.9899291396141052 4.929693698883057 92 92 92
-0.6866801977157593 0.9899291396141052 4.929693698883057 92 92 92
-0.6756190061569214 0.43392813205718994 4.860055446624756 163 163 163
-0.61871737241745 -0.15371331572532654 4.795689582824707 52 52 52
-0.6179168224334717 -0.12356580048799515 4.80558443069458 134 134 134
-0.577361524105072 -2.174482583999634 4.499906063079834 105 105 105
-0.6083571910858154 -0.5661194920539856 4.738076686859131 116 116 116
-0.6130765676498413 -0.3813595175743103 4.782419681549072 31 31 31
-0.6226574182510376 0.6564462184906006 4.939425468444824 98 98 98
-0.5362737774848938 -1.8603439331054688 4.597370147705078 111 111 111
-0.5630940794944763 -0.1597556322813034 4.866641998291016 36 36 36
-0.5215217471122742 -2.348850727081299 4.547335624694824 16 16 16
-0.5772761702537537 1.0789413452148438 5.02881383895874 90 90 90
-0.5029017925262451 -2.054610252380371 4.542840480804443 114 114 114
-0.553464949131012 1.173858404159546 5.044699192047119 90 90 90
-0.5535715818405151 1.3405505418777466 5.098524570465088 19 19 19
-0.5260493755340576 0.4497627019882202 4.965125560760498 64 64 64
-0.47902652621269226 -2.170043468475342 4.594459056854248 114 114 114
-0.4853135645389557 -1.9082262516021729 4.660506248474121 32 32 32
-0.5145364999771118 0.6207733154296875 5.004676342010498 48 48 48
-0.4744787812232971 -2.08202862739563 4.655431747436523 101 101 101
-0.4651833176612854 -1.8509095907211304 4.622251510620117 111 111 111
-0.5089908242225647 0.8311825394630432 5.129513740539551 86 86 86
-0.44913533329963684 -2.3569211959838867 4.5876784324646 34 34 34
-0.4492640793323517 -2.154242753982544 4.621085166931152 99 99 99
-0.43693065643310547 -2.0860085487365723 4.635288715362549 108 108 108
-0.47488296031951904 0.7220455408096313 5.041768550872803 51 51 51
-0.43864917755126953 -1.6638463735580444 4.716460704803467 103 103 103
-0.411065012216568 -2.454509735107422 4.575136184692383 59 59 59
-0.3990100622177124 -2.366361379623413 4.640769004821777 27 27 27
-0.41712144017219543 0.5905677676200867 5.078396320343018 98 98 98
-0.3806260824203491 -2.043525218963623 4.651996612548828 118 118 118
-0.36968564987182617 -2.1038241386413574 4.691122531890869 109 109 109
-0.35897865891456604 -2.359297275543213 4.593416690826416 33 33 33
-0.35829123854637146 -2.1326026916503906 4.683270454406738 30 30 30
-0.34498700499534607 -1.9838048219680786 4.714335918426514 50 50 50
-0.34361985325813293 -2.1615092754364014 4.7050042152404785 105 105 105
-0.32924383878707886 -2.0863242149353027 4.705802917480469 61 61 61
-0.3288668096065521 -1.9087737798690796 4.749456405639648 26 26 26
-0.3316257894039154 -1.3671214580535889 4.81383752822876 101 101 101
-0.3353739082813263 -0.42533040046691895 4.931230545043945 113 113 113
-0.3211863934993744 -1.9316606521606445 4.756344795227051 74 74 74
-0.3091362714767456 -1.9566295146942139 4.764791011810303 32 32 32
-0.30555373430252075 -1.7454622983932495 4.789844036102295 111 111 111
-0.3137236535549164 -0.21831615269184113 4.999932765960693 107 107 107
-0.30705034732818604 -0.30050140619277954 4.974964618682861 106 106 106
-0.30705034732818604 -0.30050140619277954 4.974964618682861 106 106 106
-0.2855493724346161 -1.8520309925079346 4.802947521209717 102 102 102
-0.27389293909072876 -1.7624809741973877 4.823694705963135 102 102 102
-0.28052136301994324 0.9021221995353699 5.189717769622803 49 49 49
-0.23990671336650848 -2.401884078979492 4.532042026519775 22 22 22
-0.24704502522945404 -1.9435335397720337 4.779425144195557 86 86 86
-0.2625657320022583 0.5066747665405273 5.182837963104248 79 79 79
-0.2523292601108551 -0.18697036802768707 5.078710556030273 41 41 41
-0.23036926984786987 -1.975945234298706 4.784921646118164 31 31 31
-0.23100563883781433 -1.7905713319778442 4.846136093139648 37 37 37
-0.2546766996383667 1.5212558507919312 5.333368301391602 22 22 22
-0.24339868128299713 0.5562992691993713 5.173245429992676 112 112 112
-0.23958036303520203 -0.1311379075050354 5.125710964202881 109 109 109
-0.2179584950208664 -2.09926438331604 4.779069900512695 75 75 75
-0.21496625244617462 -1.2595704793930054 4.9185709953308105 88 88 88
-0.19417452812194824 -2.4244303703308105 4.516337871551514 126 126 126
-0.1939423680305481 -1.9295693635940552 4.806230545043945 75 75 75
-0.20356862246990204 0.5094068646430969 5.1991286277771 53 53 53
-0.15602926909923553 -1.0658912658691406 5.000178337097168 31 31 31
-0.15080370008945465 -1.7165340185165405 4.917201042175293 18 18 18
-0.15061160922050476 -0.8650727272033691 5.042361259460449 0 0 0
-0.13959205150604248 -2.1018049716949463 4.844969749450684 83 83 83
-0.124765545129776 -2.157224655151367 4.891557216644287 21 21 21
-0.12568652629852295 -1.4615604877471924 4.962496757507324 94 94 94
-0.11216948926448822 -1.3953453302383423 4.9721999168396 103 103 103
-0.10850182920694351 -1.7016558647155762 4.911646366119385 37 37 37
-0.0962127149105072 -1.3695957660675049 4.968462944030762 93 93 93
-0.06901302188634872 -1.2648420333862305 5.022037029266357 81 81 81
-0.06337107717990875 -1.6762889623641968 4.943497180938721 76 76 76
-0.049237169325351715 -2.1338000297546387 4.91044807434082 47 47 47
0.011359203606843948 0.8348020315170288 4.970073223114014 118 118 118
0.024931373074650764 0.6502033472061157 5.315749645233154 77 77 77
0.03781372681260109 1.4092837572097778 4.9667582511901855 96 96 96
0.11122903972864151 1.1408945322036743 4.842228889465332 109 109 109
0.12757772207260132 1.3771514892578125 4.830056190490723 112 112 112
0.20018406212329865 0.7176641821861267 5.091994285583496 88 88 88
0.21692943572998047 1.312252163887024 4.705968379974365 104 104 104
0.234208881855011 1.471850872039795 4.713357925415039 113 113 113
0.234208881855011 1.471850872039795 4.713357925415039 113 113 113
0.268451988697052 1.2473548650741577 4.656490802764893 57 57 57
0.31666794419288635 1.6340655088424683 4.631694316864014 99 99 99
0.31591570377349854 0.8399344086647034 4.53964900970459 140 140 140
0.3867235779762268 0.8476292490959167 4.464650630950928 136 136 136
0.4921718239784241 1.2570148706436157 4.353650093078613 57 57 57
0.5127553939819336 2.099872350692749 4.435160160064697 29 29 29
0.5109691023826599 0.9644949436187744 4.27520227432251 147 147 147
0.5109691023826599 0.9644949436187744 4.27520227432251 147 147 147
0.5465638637542725 1.2357380390167236 4.289290428161621 93 93 93
0.5465638637542725 1.2357380390167236 4.289290428161621 93 93 93
0.5598915219306946 -2.1878950595855713 4.204561233520508 89 89 89
0.5598915219306946 -2.1878950595855713 4.204561233520508 89 89 89
0.7153345942497253 1.8205735683441162 4.108077049255371 104 104 104
0.7809439301490784 0.8481513261795044 4.3431549072265625 151 151 151
0.8184998631477356 0.882289469242096 4.324587821960449 84 84 84
0.8130420446395874 0.8894597887992859 4.132338047027588 103 103 103
0.8469932675361633 0.8075589537620544 4.229169845581055 55 55 55
0.8655420541763306 0.8035528659820557 4.237517833709717 41 41 41
0.8734623193740845 0.7842969298362732 4.212820529937744 109 109 109
0.8507261872291565 1.7985652685165405 3.913234233856201 118 118 118
0.8640738129615784 1.8116402626037598 3.9090511798858643 120 120 120
0.8672011494636536 1.0061010122299194 3.83168363571167 138 138 138
0.8930239677429199 1.8442440032958984 3.8614253997802734 129 129 129
0.9863215684890747 0.8600420355796814 4.051214694976807 29 29 29
0.948820948600769 1.742621660232544 3.8227903842926025 47 47 47
0.9837259650230408 0.25234538316726685 3.957838296890259 71 71 71
1.009222388267517 0.8060683012008667 4.002208232879639 122 122 122
0.9877162575721741 -0.4005720913410187 3.8822710514068604 97 97 97
1.0392355918884277 -0.24482837319374084 4.050572872161865 39 39 39
0.9991505742073059 -0.290509968996048 3.889028787612915 32 32 32
1.0613913536071777 0.6817360520362854 4.088056564331055 99 99 99
0.9908581376075745 1.6985211372375488 3.728503704071045 81 81 81
0.9758111834526062 1.2092170715332031 3.663374185562134 101 101 101
0.9819072484970093 0.9793875813484192 3.6649885177612305 141 141 141
1.007946491241455 1.553006649017334 3.7067136764526367 40 40 40
1.0443814992904663 -0.7918359637260437 3.8298707008361816 73 73 73
1.0139212608337402 1.6704943180084229 3.706092119216919 32 32 32
1.1403837203979492 0.7517101168632507 4.1603827476501465 37 37 37
1.1409002542495728 0.6462166905403137 4.16633415222168 47 47 47
1.0517114400863647 -0.8747217655181885 3.829824686050415 34 34 34
1.1237491369247437 0.7840311527252197 4.084990978240967 181 181 181
1.153860330581665 0.7134879231452942 4.174777030944824 30 30 30
1.0245792865753174 1.731931447982788 3.6932363510131836 33 33 33
1.0588198900222778 -1.1809062957763672 3.7926793098449707 23 23 23
1.0290604829788208 1.59781014919281 3.671964645385742 52 52 52
1.0936815738677979 0.8670778870582581 3.897369384765625 107 107 107
1.0252612829208374 1.376645565032959 3.647775888442993 86 86 86
1.1801992654800415 0.7474648356437683 4.16815710067749 47 47 47
1.0409036874771118 1.6919870376586914 3.676201820373535 79 79 79
1.0524622201919556 1.8751047849655151 3.66396164894104 113 113 113
1.2092976570129395 0.6556069850921631 4.194580078125 51 51 51
1.0536860227584839 1.398278832435608 3.6138670444488525 38 38 38
1.108805537223816 -0.8650344014167786 3.7756364345550537 38 38 38
1.0709984302520752 1.579115867614746 3.59806227684021 27 27 27
1.1732146739959717 -0.8677895069122314 3.7651619911193848 31 31 31
1.2491796016693115 -0.7561653256416321 4.005383491516113 49 49 49
1.4639333486557007 0.5702890157699585 4.365415096282959 40 40 40
1.1515024900436401 1.0059646368026733 3.419545888900757 123 123 123
1.3997490406036377 -0.5907673835754395 4.143414497375488 32 32 32
1.2735155820846558 -0.8543349504470825 3.646423816680908 28 28 28
1.376953125 -0.7654809951782227 3.842863082885742 62 62 62
1.225251317024231 1.0308247804641724 3.392871141433716 127 127 127
1.3860241174697876 -0.7542980909347534 3.843580961227417 123 123 123
1.2314203977584839 1.4777984619140625 3.3816797733306885 76 76 76
1.2343899011611938 1.3659831285476685 3.3641207218170166 42 42 42
1.23458731174469 1.2178211212158203 3.348109722137451 111 111 111
1.2365765571594238 1.4235378503799438 3.348512887954712 33 33 33
1.2632074356079102 1.6228655576705933 3.376007318496704 98 98 98
1.256352186203003 1.3862323760986328 3.3420238494873047 82 82 82
1.4630160331726074 0.7052288055419922 3.8625950813293457 86 86 86
1.721243143081665 0.5356060862541199 4.537313938140869 48 48 48
1.476732850074768 0.6596933603286743 3.8817474842071533 164 164 164
1.373708963394165 0.9792428612709045 3.561638593673706 129 129 129
1.7303688526153564 0.2732645273208618 4.434943199157715 115 115 115
1.7538586854934692 0.2379409521818161 4.487450122833252 34 34 34
1.475071668624878 -0.7538097500801086 3.737619400024414 123 123 123
1.4755642414093018 -0.7326425313949585 3.732469320297241 48 48 48
1.4019560813903809 0.9708254337310791 3.5352296829223633 124 124 124
1.50852632522583 -0.734908938407898 3.7364189624786377 42 42 42
1.5100045204162598 -0.7731869220733643 3.713083028793335 61 61 61
1.87422776222229 -0.5466818809509277 4.536412715911865 60 60 60
1.872942328453064 -0.5176713466644287 4.509110927581787 150 150 150
1.8765032291412354 -0.5676538348197937 4.504218578338623 165 165 165
1.572949767112732 0.7349777817726135 3.7517361640930176 67 67 67
1.547521948814392 -0.7587265968322754 3.659649133682251 79 79 79
1.4658011198043823 -1.5206661224365234 3.291297435760498 96 96 96
1.3943537473678589 1.1660641431808472 3.112919330596924 55 55 55
