ply
format ascii 1.0
element vertex 203
property float x
property float y
property float z
property uchar red
property uchar green
property uchar blue
end_header
-1.5392707586288452 0.30880799889564514 3.6293458938598633 43 43 43
-1.518917441368103 0.3250369131565094 3.6105873584747314 130 130 130
-1.533600926399231 0.7208988070487976 3.667196273803711 53 53 53
-1.4964308738708496 0.09774703532457352 3.5912082195281982 35 35 35
-1.507706642150879 0.30581825971603394 3.6239895820617676 44 44 44
-1.424649953842163 -0.9771103262901306 3.4599416255950928 114 114 114
-1.4449986219406128 -0.5483668446540833 3.52191162109375 26 26 26
-1.5290778875350952 1.1628704071044922 3.7340502738952637 123 123 123
-1.4308812618255615 -0.660822868347168 3.4984183311462402 102 102 102
-1.5008488893508911 0.9087302088737488 3.717421531677246 28 28 28
-1.359336256980896 -1.5636489391326904 3.3932535648345947 29 29 29
-1.4300909042358398 -0.23336322605609894 3.5820324420928955 27 27 27
-1.4539653062820435 0.29910558462142944 3.6474156379699707 52 52 52
-1.4312046766281128 -0.12385118007659912 3.607135534286499 20 20 20
-1.436943531036377 0.29492685198783875 3.6664295196533203 24 24 24
-1.4416576623916626 0.5544273853302002 3.6913628578186035 127 127 127
-1.4116449356079102 0.2747999429702759 3.6560988426208496 106 106 106
-1.4701868295669556 1.725242257118225 3.846309185028076 121 121 121
-1.4779757261276245 1.933302640914917 3.878796339035034 19 19 19
-1.440811276435852 1.711917757987976 3.8665146827697754 28 28 28
-1.409723162651062 1.0941452980041504 3.8062455654144287 26 26 26
-1.3998128175735474 1.104526162147522 3.820840358734131 30 30 30
-1.3824838399887085 1.0770350694656372 3.8056528568267822 115 115 115
-1.3796155452728271 1.0743046998977661 3.8010706901550293 116 116 116
-1.3903130292892456 1.308169960975647 3.8333306312561035 1 1 1
-1.378332257270813 1.1028661727905273 3.818883180618286 27 27 27
-1.4164971113204956 2.132028102874756 3.9366514682769775 94 94 94
-1.2251461744308472 -1.744006872177124 3.4174509048461914 92 92 92
-1.2232308387756348 -2.0066726207733154 3.4213480949401855 22 22 22
-1.284327745437622 -0.5860339403152466 3.591549873352051 112 112 112
-1.2345070838928223 -1.595758080482483 3.4622995853424072 82 82 82
-1.2181847095489502 -1.7777389287948608 3.439471960067749 25 25 25
-1.27101469039917 -0.5590033531188965 3.6105048656463623 106 106 106
-1.372640609741211 1.7207238674163818 3.9005205631256104 108 108 108
-1.2214014530181885 -1.5849907398223877 3.480699300765991 17 17 17
-1.2528858184814453 -0.7708610892295837 3.58896803855896 120 120 120
-1.1916574239730835 -1.9690641164779663 3.4192771911621094 106 106 106
-1.1846275329589844 -2.011202096939087 3.4497761726379395 24 24 24
-1.1846275329589844 -2.011202096939087 3.4497761726379395 24 24 24
-1.1681047677993774 -1.9838658571243286 3.4422786235809326 96 96 96
-1.1961019039154053 -1.3209282159805298 3.530790090560913 22 22 22
-1.1914952993392944 -1.3649262189865112 3.520904302597046 25 25 25
-1.1485992670059204 -1.9760843515396118 3.451996088027954 97 97 97
-1.2002389430999756 -0.7588960528373718 3.623326301574707 29 29 29
-1.2342703342437744 0.07718552649021149 3.7350878715515137 67 67 67
-1.2217738628387451 -0.12828078866004944 3.7103896141052246 76 76 76
-1.1878868341445923 -0.7421277761459351 3.6336605548858643 101 101 101
-1.1803932189941406 -0.5207556486129761 3.6789774894714355 107 107 107
-1.1978074312210083 -0.1303689330816269 3.7435083389282227 54 54 54
-1.20147705078125 0.060795363038778305 3.769044876098633 19 19 19
-1.0787063837051392 -2.0293540954589844 3.465956926345825 103 103 103
-1.1759345531463623 0.06901105493307114 3.792036533355713 58 58 58
-1.1759345531463623 0.06901105493307114 3.792036533355713 58 58 58
-1.1841462850570679 0.3016265034675598 3.8192102909088135 0 0 0
-1.1616371870040894 0.3120754659175873 3.8138840198516846 126 126 126
-1.1819710731506348 1.135090947151184 3.9276907444000244 103 103 103
-1.104288935661316 0.27047407627105713 3.8398313522338867 36 36 36
-1.1343568563461304 1.13869309425354 3.965468645095825 51 51 51
-1.1343568563461304 1.13869309425354 3.965468645095825 51 51 51
-1.1270438432693481 1.1101644039154053 3.949655294418335 46 46 46
-0.9996708631515503 -1.9812687635421753 3.5434839725494385 87 87 87
-0.9968597888946533 -1.8104826211929321 3.572702407836914 30 30 30
-1.1305477619171143 1.893571376800537 4.072550296783447 19 19 19
-0.9871109127998352 -1.5542374849319458 3.6111295223236084 110 110 110
-1.11348295211792 2.0829460620880127 4.08580207824707 92 92 92
-0.9603023529052734 -2.002939224243164 3.5387027263641357 23 23 23
-0.9452693462371826 -1.587139368057251 3.614351987838745 35 35 35
-0.9514385461807251 -0.9959722757339478 3.731595039367676 26 26 26
-0.9354358911514282 -1.4027223587036133 3.6840806007385254 39 39 39
-0.9267807602882385 -1.1742802858352661 3.707846164703369 104 104 104
-0.9478423595428467 -0.5772169232368469 3.8157613277435303 30 30 30
-0.9263045787811279 -1.0104548931121826 3.7372493743896484 115 115 115
-0.8985115885734558 -1.567215085029602 3.6258137226104736 114 114 114
-0.9200500845909119 -0.5927595496177673 3.805826425552368 97 97 97
-0.9200500845909119 -0.5927595496177673 3.805826425552368 97 97 97
-0.875262975692749 -1.8132978677749634 3.6333062648773193 42 42 42
-0.9494339823722839 0.7195896506309509 4.041084289550781 124 124 124
-0.8900590538978577 -0.5896458625793457 3.8207952976226807 85 85 85
-0.8406649231910706 -1.8148329257965088 3.646428108215332 24 24 24
-0.83963543176651 -1.364593744277954 3.72357177734375 60 60 60
-0.9084449410438538 0.8579127788543701 4.043896198272705 19 19 19
-0.816919207572937 -1.831549882888794 3.648265838623047 105 105 105
-0.9106389880180359 1.0963246822357178 4.068089485168457 56 56 56
-0.8093574047088623 -1.815550684928894 3.6621463298797607 26 26 26
-0.8290135860443115 -0.9784923791885376 3.803757429122925 109 109 109
-0.891768217086792 1.6535744667053223 4.16674280166626 18 18 18
-0.8270750045776367 0.11306916177272797 3.950545310974121 89 89 89
-0.8620039224624634 1.4617149829864502 4.161696910858154 94 94 94
-0.8555296659469604 1.4117045402526855 4.150003433227539 88 88 88
-0.7426276206970215 -2.0347845554351807 3.6719143390655518 32 32 32
-0.7429738640785217 -1.8151625394821167 3.6944797039031982 38 38 38
-0.7176886796951294 -1.997588872909546 3.662323236465454 97 97 97
-0.7525823712348938 -0.8004677295684814 3.8932807445526123 36 36 36
-0.7099247574806213 -1.8203250169754028 3.7105727195739746 31 31 31
-0.7025434374809265 -2.0390870571136475 3.6948864459991455 27 27 27
-0.707333505153656 -1.8022562265396118 3.7264583110809326 86 86 86
-0.7562110424041748 0.4656485915184021 4.054494857788086 182 182 182
-0.7562110424041748 0.4656485915184021 4.054494857788086 182 182 182
-0.7462178468704224 0.714386522769928 4.093641757965088 53 53 53
-0.7093201875686646 -0.0014591258950531483 3.993797540664673 132 132 132
-0.7045902013778687 -0.14877669513225555 3.9779245853424072 139 139 139
-0.7204451560974121 0.8364394307136536 4.123471260070801 19 19 19
-0.6823644638061523 -0.41810160875320435 3.9592878818511963 20 20 20
-0.6823644638061523 -0.41810160875320435 3.9592878818511963 20 20 20
-0.7039983868598938 0.8979594707489014 4.1592230796813965 99 99 99
-0.6283994913101196 -2.1337101459503174 3.713757038116455 124 124 124
-0.6219369769096375 -2.0097060203552246 3.6771090030670166 36 36 36
-0.6462447047233582 -0.3707260191440582 3.9874424934387207 126 126 126
-0.592221200466156 -1.789265751838684 3.786837100982666 117 117 117
-0.5800636410713196 -1.825384259223938 3.79520845413208 46 46 46
-0.6332398056983948 1.0148718357086182 4.220249652862549 70 70 70
-0.5643739700317383 -1.7800953388214111 3.7955946922302246 77 77 77
-0.5373300313949585 -2.0882725715637207 3.778444290161133 104 104 104
-0.5330380797386169 -1.827999472618103 3.8224446773529053 33 33 33
-0.585159182548523 0.9717933535575867 4.2091779708862305 92 92 92
-0.5238204002380371 -1.8474483489990234 3.804197072982788 101 101 101
-0.5256632566452026 -1.7912594079971313 3.8243160247802734 112 112 112
-0.5229310393333435 -1.991018533706665 3.8147988319396973 104 104 104
-0.5157098174095154 -2.0500898361206055 3.8041021823883057 28 28 28
-0.505176305770874 -2.0688953399658203 3.7929153442382812 114 114 114
-0.5429463386535645 0.3846193552017212 4.13838529586792 61 61 61
-0.4931069314479828 -2.0041918754577637 3.8091471195220947 104 104 104
-0.4844350516796112 -2.053053140640259 3.827396869659424 35 35 35
-0.5295011401176453 0.547462522983551 4.190994739532471 45 45 45
-0.4764641523361206 -2.031592845916748 3.838477849960327 107 107 107
-0.49353647232055664 0.731975257396698 4.200121879577637 57 57 57
-0.4492407441139221 -1.0457113981246948 4.001826286315918 61 61 61
-0.41510364413261414 -1.9714359045028687 3.85569429397583 135 135 135
-0.4129720628261566 -2.0572032928466797 3.854310989379883 33 33 33
-0.3962523937225342 -1.909488320350647 3.8727173805236816 52 52 52
-0.42752254009246826 0.5161778926849365 4.236924648284912 93 93 93
-0.423734188079834 0.5791937708854675 4.243504524230957 90 90 90
-0.3773648738861084 -1.8412586450576782 3.9108240604400635 33 33 33
-0.40943294763565063 0.8370475172996521 4.301873683929443 15 15 15
-0.36684170365333557 -1.8525285720825195 3.8933799266815186 83 83 83
-0.40469297766685486 0.9752712249755859 4.319009780883789 19 19 19
-0.3538745641708374 -1.8757280111312866 3.896946907043457 32 32 32
-0.3968447148799896 1.7805982828140259 4.445257663726807 14 14 14
-0.34986385703086853 -1.6800389289855957 3.9346249103546143 115 115 115
-0.32774022221565247 -1.7747875452041626 3.9305782318115234 100 100 100
-0.35950297117233276 1.789404273033142 4.4547905921936035 18 18 18
-0.29672545194625854 -1.8786464929580688 3.935879707336426 77 77 77
-0.29572632908821106 -1.2460213899612427 4.045070171356201 26 26 26
-0.279733270406723 -1.9055380821228027 3.9314682483673096 40 40 40
-0.2795744240283966 -1.2413995265960693 4.046538829803467 24 24 24
-0.2689440846443176 -2.0133066177368164 3.9146904945373535 74 74 74
-0.2762570083141327 -0.8330247402191162 4.1211466789245605 46 46 46
-0.2690982222557068 -0.2112550437450409 4.213084697723389 37 37 37
-0.26857298612594604 0.44049182534217834 4.320595741271973 40 40 40
-0.2513370215892792 -1.2244114875793457 4.064991474151611 91 91 91
-0.25209498405456543 -0.16328397393226624 4.271775245666504 106 106 106
-0.2524970471858978 0.48700881004333496 4.309338092803955 103 103 103
-0.2599557638168335 1.340682864189148 4.482205867767334 41 41 41
-0.23110002279281616 -0.8340056538581848 4.119006633758545 53 53 53
-0.2481444776058197 1.380615472793579 4.457268238067627 18 18 18
-0.23798398673534393 0.6883796453475952 4.348780632019043 55 55 55
-0.23777496814727783 1.3618757724761963 4.456111907958984 1 1 1
-0.20252910256385803 -1.2484253644943237 4.0924201011657715 25 25 25
-0.20033642649650574 -1.2683101892471313 4.080606937408447 105 105 105
-0.21140258014202118 0.4423409402370453 4.325816631317139 56 56 56
-0.1846204400062561 -2.0243921279907227 3.969714879989624 82 82 82
-0.1846204400062561 -2.0243921279907227 3.969714879989624 82 82 82
-0.18750643730163574 -1.6567782163619995 4.039683818817139 24 24 24
-0.18571244180202484 -1.8752704858779907 4.015646934509277 91 91 91
-0.18299368023872375 -1.8520286083221436 4.011579513549805 19 19 19
-0.18408173322677612 -1.2535334825515747 4.102723598480225 28 28 28
-0.1853756457567215 -1.0429883003234863 4.135324954986572 27 27 27
-0.18910571932792664 0.5814245343208313 4.364840984344482 24 24 24
-0.17320987582206726 -1.6248193979263306 4.028643608093262 88 88 88
-0.17533670365810394 -0.8515826463699341 4.169790744781494 23 23 23
-0.1648552119731903 -1.2494728565216064 4.116836071014404 21 21 21
-0.14618337154388428 -1.3534808158874512 4.097889423370361 96 96 96
-0.15065042674541473 -0.4386439025402069 4.244104385375977 23 23 23
-0.13218337297439575 -1.327619194984436 4.093063831329346 89 89 89
-0.14001385867595673 0.5742109417915344 4.393750190734863 26 26 26
-0.1038261353969574 -1.6331076622009277 4.0972113609313965 81 81 81
-0.09942781180143356 -1.2279748916625977 4.136568069458008 93 93 93
0.6566248536109924 0.7927952408790588 3.333380937576294 60 60 60
0.7499178647994995 0.7518117427825928 3.116375207901001 33 33 33
0.7382614612579346 -0.27876511216163635 2.9654476642608643 26 26 26
0.7464984059333801 -0.555596113204956 2.9334371089935303 254 254 254
0.8360418677330017 0.6604782342910767 3.2255420684814453 97 97 97
0.7713747620582581 -0.726926326751709 2.920442581176758 224 224 224
0.7841867208480835 -0.8408896923065186 2.893472671508789 27 27 27
0.9082003235816956 0.6051962971687317 3.2419581413269043 48 48 48
0.9134345054626465 0.7214750051498413 3.252676010131836 42 42 42
0.8330154418945312 -0.834169328212738 2.842815637588501 34 34 34
0.8928952217102051 -0.6867526173591614 3.035801649093628 99 99 99
0.9581599831581116 0.4920556843280792 3.248652219772339 74 74 74
0.9825406074523926 0.6255491375923157 3.2675304412841797 74 74 74
0.9927020072937012 0.7063314318656921 3.2896981239318848 255 255 255
0.9863090515136719 -0.6441110968589783 3.0488905906677246 93 93 93
1.0003689527511597 -0.6271042823791504 3.060335636138916 39 39 39
1.0734755992889404 0.6496032476425171 3.1188840866088867 116 116 116
1.0912678241729736 -0.7303860783576965 2.856736898422241 62 62 62
1.284256100654602 0.4153827428817749 3.3511626720428467 47 47 47
1.1861228942871094 0.6897401213645935 2.9388411045074463 82 82 82
1.2128100395202637 0.6650499105453491 2.9182276725769043 77 77 77
1.1949383020401 0.8150843977928162 2.830223798751831 126 126 126
1.1690562963485718 -0.7383862137794495 2.7374982833862305 231 231 231
1.2461459636688232 0.6562060117721558 2.880568027496338 149 149 149
1.1988188028335571 -0.7279285192489624 2.687238931655884 214 214 214
1.2199803590774536 -0.7036129832267761 2.6595842838287354 127 127 127
