ply
format ascii 1.0
element vertex 65
property float x
property float y
property float z
property uchar red
property uchar green
property uchar blue
end_header
-0.5734867453575134 -0.19479933381080627 1.9509897232055664 122 122 122
-0.5547359585762024 -0.023335382342338562 1.9882088899612427 37 37 37
-0.5576223134994507 0.160349503159523 2.005469560623169 42 42 42
-0.5480459332466125 -0.11179665476083755 1.9753073453903198 125 125 125
-0.5491610169410706 0.1597098708152771 2.014303684234619 67 67 67
-0.5431672930717468 -0.015351029112935066 1.9994763135910034 119 119 119
-0.5357232689857483 0.538564920425415 2.053910732269287 47 47 47
-0.5233296155929565 0.3128487765789032 2.048706531524658 126 126 126
-0.48828545212745667 -0.2720023989677429 2.024357557296753 123 123 123
-0.48828545212745667 -0.2720023989677429 2.024357557296753 123 123 123
-0.48828545212745667 -0.2720023989677429 2.024357557296753 123 123 123
-0.4438507854938507 -0.506026029586792 2.0646722316741943 113 113 113
-0.4325501024723053 0.5313645005226135 2.1749322414398193 120 120 120
-0.43607452511787415 0.9656355381011963 2.2000796794891357 4 4 4
-0.40476468205451965 -0.8977663516998291 2.0498175621032715 110 110 110
-0.3581870496273041 -0.9775756597518921 2.0989949703216553 95 95 95
-0.3376920223236084 -0.8013115525245667 2.1460721492767334 46 46 46
-0.3440004289150238 0.33525902032852173 2.23663067817688 130 130 130
-0.3052656054496765 -0.9605078101158142 2.1669762134552 79 79 79
-0.3061771094799042 0.30511999130249023 2.2847447395324707 77 77 77
-0.28647780418395996 0.2261311411857605 2.2983436584472656 180 180 180
-0.27750587463378906 0.33448976278305054 2.3050270080566406 64 64 64
-0.26555076241493225 0.18127281963825226 2.3122642040252686 164 164 164
-0.2528432607650757 -0.9445244669914246 2.218695640563965 144 144 144
-0.23970064520835876 -0.9984172582626343 2.23569393157959 29 29 29
-0.23432695865631104 -0.8050711750984192 2.2509326934814453 51 51 51
-0.24384793639183044 0.2735389173030853 2.343108892440796 146 146 146
-0.23281645774841309 -0.8827755451202393 2.24518084526062 114 114 114
-0.21795065701007843 -0.9185637831687927 2.2489612102508545 106 106 106
-0.21735547482967377 -1.007092833518982 2.2654356956481934 39 39 39
-0.21674910187721252 -0.8193930387496948 2.2705283164978027 101 101 101
-0.21566301584243774 -0.7919366359710693 2.271784543991089 113 113 113
-0.20916371047496796 0.18230025470256805 2.3597640991210938 74 74 74
-0.2158612459897995 0.9656003713607788 2.4328980445861816 43 43 43
-0.20052897930145264 -0.7039443850517273 2.2950797080993652 115 115 115
-0.20764701068401337 0.25737813115119934 2.382155179977417 53 53 53
-0.1976369321346283 -1.0072814226150513 2.2849338054656982 32 32 32
-0.2023126482963562 0.3437859117984772 2.413472890853882 59 59 59
-0.1900264322757721 -1.0210832357406616 2.276430606842041 25 25 25
-0.18862949311733246 -0.8762063384056091 2.2962446212768555 106 106 106
-0.16650265455245972 -0.812955379486084 2.326864719390869 40 40 40
-0.17179176211357117 0.2422129064798355 2.4147260189056396 95 95 95
-0.16927482187747955 0.26935410499572754 2.416289806365967 102 102 102
-0.1611863374710083 -0.5813837051391602 2.3460426330566406 109 109 109
-0.14867493510246277 -0.7860660552978516 2.344827890396118 102 102 102
-0.14545057713985443 -0.7486512660980225 2.356356382369995 107 107 107
-0.140908345580101 -0.13269786536693573 2.4000816345214844 110 110 110
-0.13822995126247406 -0.8302633166313171 2.350654363632202 86 86 86
-0.12662403285503387 -1.0307424068450928 2.261725425720215 23 23 23
-0.12074197828769684 -0.06118646264076233 2.46089243888855 115 115 115
-0.12039601057767868 0.20533090829849243 2.472736358642578 140 140 140
-0.11152400076389313 0.2269284725189209 2.472442150115967 131 131 131
-0.10020508617162704 -0.824562132358551 2.390984535217285 108 108 108
-0.0971374586224556 0.20665517449378967 2.483870506286621 57 57 57
-0.08390644192695618 -0.5956322550773621 2.426360607147217 102 102 102
-0.07180367410182953 -0.7195177674293518 2.4320335388183594 84 84 84
-0.06788595020771027 -0.9084698557853699 2.413908004760742 57 57 57
0.46418631076812744 -0.2541552782058716 2.1020328998565674 104 104 104
0.4989602565765381 -0.36626359820365906 2.0722787380218506 221 221 221
0.546659529209137 0.2769089937210083 2.210087299346924 30 30 30
0.5698238611221313 -0.32921114563941956 2.149048089981079 136 136 136
0.5603863596916199 0.3338277339935303 2.0981297492980957 24 24 24
0.573760986328125 -0.3642975687980652 2.1430466175079346 60 60 60
0.6233510971069336 0.3826199471950531 1.9252371788024902 123 123 123
0.7181200385093689 0.36075446009635925 1.9881694316864014 142 142 142
