ply
format ascii 1.0
element vertex 65
property float x
property float y
property float z
property uchar red
property uchar green
property uchar blue
end_header
-0.4971470534801483 -0.6553428769111633 2.822514057159424 129 129 129
-0.40153756737709045 -0.42786240577697754 2.972839593887329 40 40 40
-0.358424574136734 -0.5621160268783569 3.0439517498016357 119 119 119
-0.3025497496128082 0.4898151159286499 3.3074448108673096 113 113 113
-0.29438772797584534 0.20165486633777618 3.2764923572540283 167 167 167
-0.26093432307243347 -1.2980235815048218 2.9545249938964844 105 105 105
-0.25862693786621094 -1.2755011320114136 2.9741406440734863 112 112 112
-0.24785950779914856 -1.2778072357177734 3.1547296047210693 41 41 41
-0.23524650931358337 -1.010493516921997 3.2271487712860107 116 116 116
-0.23068037629127502 -1.2668296098709106 3.2154362201690674 40 40 40
-0.22933970391750336 -1.2638773918151855 3.2103970050811768 33 33 33
-0.23484115302562714 0.30411314964294434 3.40055775642395 56 56 56
-0.2300327867269516 0.4099881947040558 3.424722909927368 100 100 100
-0.2093164622783661 -1.170465111732483 3.235560894012451 103 103 103
-0.20665356516838074 -1.28773033618927 3.2774527072906494 41 41 41
-0.1846369206905365 -1.2894837856292725 3.3064165115356445 34 34 34
-0.19563549757003784 0.4583666920661926 3.5060954093933105 21 21 21
-0.17953021824359894 -1.1295521259307861 3.3360419273376465 127 127 127
-0.1675320416688919 -1.1700657606124878 3.3405113220214844 14 14 14
-0.15785127878189087 -1.2850021123886108 3.2806129455566406 37 37 37
-0.12315242737531662 -1.3560551404953003 3.252825975418091 145 145 145
-0.12228216230869293 -1.078362226486206 3.426475763320923 92 92 92
-0.126540869474411 -0.09491555392742157 3.5611820220947266 112 112 112
-0.11210767924785614 0.25324520468711853 3.613225221633911 72 72 72
-0.10461492091417313 -1.082742691040039 3.481271266937256 80 80 80
-0.0907745361328125 -1.3074647188186646 3.259063959121704 3 3 3
-0.0730561763048172 -0.7927804589271545 3.586364984512329 114 114 114
-0.05617501959204674 -0.9633192420005798 3.6277015209198 87 87 87
-0.054714497178792953 -0.7214118242263794 3.6248159408569336 113 113 113
0.044841717928647995 1.5146901607513428 3.2411625385284424 33 33 33
0.07594742625951767 0.5553017258644104 3.3585338592529297 92 92 92
0.1682358980178833 -0.17719529569149017 3.8438689708709717 255 255 255
0.21694064140319824 0.5898541808128357 3.193988561630249 58 58 58
0.3102445602416992 0.43155020475387573 3.067868232727051 129 129 129
0.3917310833930969 0.5575540661811829 2.9750473499298096 102 102 102
0.5123647451400757 0.7504387497901917 2.810136556625366 55 55 55
0.5290173292160034 0.37181058526039124 2.882619619369507 114 114 114
0.5720062851905823 0.7870743274688721 2.734403371810913 111 111 111
0.57747882604599 0.8065686821937561 2.7212862968444824 147 147 147
0.5791440010070801 0.7901157736778259 2.7248730659484863 122 122 122
0.5898326635360718 0.8237841129302979 2.7221100330352783 75 75 75
0.6062046885490417 0.8740272521972656 2.6890153884887695 127 127 127
0.6065733432769775 0.7955977320671082 2.689995765686035 67 67 67
0.6209936141967773 0.8759623169898987 2.6691949367523193 125 125 125
0.6644783616065979 -0.6199501156806946 2.8447701930999756 29 29 29
0.6237301826477051 1.0218700170516968 2.6660945415496826 114 114 114
0.6237301826477051 1.0218700170516968 2.6660945415496826 114 114 114
0.6356734037399292 0.7601544260978699 2.6411149501800537 26 26 26
0.6392200589179993 0.8861678242683411 2.6401705741882324 122 122 122
0.708335280418396 0.3610953390598297 2.7911617755889893 99 99 99
0.6778399348258972 0.7543825507164001 2.6110236644744873 27 27 27
0.6831784844398499 0.8540290594100952 2.602193593978882 76 76 76
0.7666333317756653 0.3760303556919098 2.7215349674224854 26 26 26
0.7371952533721924 0.7594039440155029 2.5285592079162598 81 81 81
0.7418281435966492 0.79350346326828 2.501892566680908 121 121 121
0.768503725528717 0.5613136887550354 2.473360538482666 81 81 81
0.768503725528717 0.5613136887550354 2.473360538482666 81 81 81
0.7811962366104126 0.5490707755088806 2.4678285121917725 22 22 22
0.7924244999885559 0.8518754243850708 2.453260898590088 34 34 34
0.8010883927345276 0.7460526823997498 2.446133852005005 39 39 39
0.8068317174911499 0.7737224102020264 2.4201152324676514 96 96 96
0.8137737512588501 -0.6189586520195007 2.295484781265259 74 74 74
0.876075029373169 0.5829545855522156 2.338045358657837 120 120 120
0.876075029373169 0.5829545855522156 2.338045358657837 120 120 120
0.9069821238517761 0.7156468033790588 2.3099639415740967 47 47 47
