ply
format ascii 1.0
element vertex 72
property float x
property float y
property float z
property uchar red
property uchar green
property uchar blue
end_header
-10.013383865356445 -4.022634029388428 21.28127098083496 14 14 14
-9.160541534423828 -0.07239804416894913 19.914823532104492 15 15 15
-9.160541534423828 -0.07239804416894913 19.914823532104492 15 15 15
-9.047800064086914 0.7546740174293518 19.747604370117188 16 16 16
-8.779199600219727 -6.64171838760376 21.889568328857422 18 18 18
-8.402463912963867 -2.5587944984436035 20.967105865478516 87 87 87
-8.437005043029785 -2.881329298019409 21.389516830444336 75 75 75
-8.4675931930542 -3.4320878982543945 21.535503387451172 79 79 79
-9.02006721496582 -9.494056701660156 22.99575424194336 128 128 128
-8.379439353942871 -3.794247627258301 21.63005828857422 15 15 15
-8.27881145477295 -2.8614697456359863 21.390750885009766 14 14 14
-8.084260940551758 -1.4079716205596924 20.902490615844727 13 13 13
-7.942114353179932 -0.3354904353618622 20.557735443115234 12 12 12
-7.516834259033203 3.0988640785217285 19.75542449951172 9 9 9
-7.418211460113525 3.9079482555389404 19.541728973388672 12 12 12
-7.59753942489624 1.8894368410110474 20.08563804626465 13 13 13
-7.231004238128662 5.836225986480713 19.356163024902344 13 13 13
-7.026153087615967 5.867741584777832 19.14158058166504 96 96 96
-7.385574817657471 2.0758299827575684 20.66551399230957 85 85 85
-7.015079498291016 1.1739256381988525 20.948413848876953 82 82 82
-7.015079498291016 1.1739256381988525 20.948413848876953 82 82 82
-6.945861339569092 1.1720561981201172 20.76256561279297 82 82 82
-6.945861339569092 1.1720561981201172 20.76256561279297 82 82 82
-6.158352851867676 11.277191162109375 18.877124786376953 14 14 14
-6.158352851867676 11.277191162109375 18.877124786376953 14 14 14
-7.002545356750488 -2.5621957778930664 21.9378604888916 80 80 80
-6.935299873352051 -2.568911075592041 22.082273483276367 16 16 16
-6.95045280456543 -2.698159694671631 22.220977783203125 18 18 18
-7.042728900909424 -4.164031982421875 22.653247833251953 13 13 13
-7.167445659637451 -5.299502849578857 23.12405776977539 11 11 11
-7.338196277618408 -8.507369041442871 23.743824005126953 70 70 70
-6.30580997467041 4.189204692840576 20.536012649536133 12 12 12
-6.535804748535156 -0.21327880024909973 21.5343074798584 9 9 9
-6.110874652862549 4.954728603363037 20.13783836364746 13 13 13
-6.377624034881592 0.8711479306221008 21.16837501525879 10 10 10
-5.9476318359375 6.080275058746338 19.80687713623047 12 12 12
-6.347691535949707 -0.2421158254146576 21.5677490234375 11 11 11
-5.8960862159729 0.09891065210103989 21.85222625732422 84 84 84
-5.694793224334717 3.430462121963501 21.45494842529297 68 68 68
-5.274303913116455 -0.35882511734962463 22.3140869140625 57 57 57
-5.662533283233643 -7.3166584968566895 24.520517349243164 11 11 11
-5.064332485198975 -0.2501548230648041 22.093120574951172 10 10 10
-4.3046770095825195 11.217973709106445 18.80833625793457 10 10 10
-4.746826171875 4.1990251541137695 20.794315338134766 9 9 9
-5.328710079193115 -2.8722035884857178 23.407108306884766 13 13 13
-4.97155237197876 1.2369786500930786 21.953147888183594 14 14 14
-4.879391193389893 2.12947940826416 21.6422176361084 10 10 10
-5.229637145996094 -3.008915901184082 23.34893035888672 102 102 102
-4.564630508422852 5.2530975341796875 20.423763275146484 10 10 10
-4.9371185302734375 1.2191461324691772 22.205018997192383 85 85 85
-4.895704746246338 1.1496213674545288 22.091915130615234 94 94 94
-5.154594421386719 -5.95097017288208 24.38845443725586 60 60 60
-3.403740644454956 2.4159884452819824 21.876428604125977 13 13 13
-3.228081703186035 5.292469501495361 20.77657127380371 9 9 9
-3.6672513484954834 -2.776914119720459 23.632497787475586 17 17 17
-3.32894229888916 3.2577521800994873 21.547075271606445 10 10 10
-3.561081886291504 -1.5044634342193604 23.231597900390625 9 9 9
-3.341158151626587 1.010468602180481 22.33186912536621 11 11 11
-0.5544949173927307 0.5605160593986511 3.732032537460327 11 11 11
-3.38865065574646 -0.15211349725723267 22.79146385192871 9 9 9
-3.3943686485290527 -4.303247928619385 24.48734474182129 16 16 16
-3.2177741527557373 -1.3852674961090088 23.398822784423828 83 83 83
-2.8922595977783203 1.0684384107589722 22.42270278930664 13 13 13
-1.755515217781067 11.127227783203125 20.119359970092773 9 9 9
-1.8932043313980103 -0.2934049069881439 23.670625686645508 48 48 48
-1.7754747867584229 -1.3847134113311768 23.739526748657227 9 9 9
-1.7176142930984497 -0.18378032743930817 23.280086517333984 11 11 11
-1.816312313079834 -3.631009340286255 25.10607147216797 11 11 11
-1.9112014770507812 -6.284545421600342 26.577861785888672 8 8 8
-1.6783403158187866 -1.2844014167785645 23.880231857299805 88 88 88
-1.3892581462860107 2.2788777351379395 21.68915557861328 76 76 76
-1.2466356754302979 -7.943464279174805 27.988588333129883 62 62 62
