ply
format ascii 1.0
element vertex 64
property float x
property float y
property float z
property uchar red
property uchar green
property uchar blue
end_header
-0.5445963740348816 0.21112798154354095 1.5915889739990234 35 35 35
-0.504120945930481 -0.37564927339553833 1.5333906412124634 114 114 114
-0.522564709186554 0.1299494355916977 1.593963861465454 40 40 40
-0.5130175352096558 -0.037734560668468475 1.582460880279541 20 20 20
-0.5230600237846375 0.26677924394607544 1.612776279449463 120 120 120
-0.5365845561027527 0.6976823210716248 1.659470796585083 122 122 122
-0.5123982429504395 0.04948173835873604 1.5958507061004639 48 48 48
-0.496243953704834 0.04843144863843918 1.607688546180725 47 47 47
-0.46023303270339966 -0.4601016342639923 1.552614450454712 123 123 123
-0.4421152174472809 -0.2940172255039215 1.5898276567459106 107 107 107
-0.45450639724731445 0.05155206099152565 1.6397278308868408 135 135 135
-0.4127451181411743 -0.04246866703033447 1.6562614440917969 39 39 39
-0.41277801990509033 0.18799838423728943 1.6872180700302124 122 122 122
-0.4108474850654602 0.1867678016424179 1.6854301691055298 123 123 123
-0.40122589468955994 0.022250372916460037 1.670818567276001 135 135 135
-0.41233766078948975 0.4638342559337616 1.7275004386901855 63 63 63
-0.41286927461624146 0.5153207778930664 1.7336336374282837 23 23 23
-0.33366793394088745 -0.5458520650863647 1.6383708715438843 69 69 69
-0.3235223889350891 -0.7049726843833923 1.6257495880126953 33 33 33
-0.3237358629703522 -0.04327327758073807 1.7252975702285767 124 124 124
-0.313163697719574 -0.13349179923534393 1.7174171209335327 58 58 58
-0.26741600036621094 0.29554083943367004 1.8033829927444458 55 55 55
-0.25485384464263916 0.36861100792884827 1.831203818321228 92 92 92
-0.2511448264122009 0.15940171480178833 1.8046778440475464 163 163 163
-0.2408103197813034 -0.13957065343856812 1.7663447856903076 38 38 38
-0.22993963956832886 -0.04589444026350975 1.7883999347686768 134 134 134
-0.23068276047706604 0.24271638691425323 1.8293200731277466 98 98 98
-0.22169402241706848 0.11385048925876617 1.8128217458724976 114 114 114
-0.19992244243621826 -0.6935735940933228 1.7139447927474976 111 111 111
-0.21351799368858337 0.39993858337402344 1.861308217048645 90 90 90
-0.19528785347938538 0.16534116864204407 1.8411308526992798 64 64 64
-0.17903703451156616 -0.8106120228767395 1.7165124416351318 114 114 114
-0.19122600555419922 0.2306702882051468 1.859909176826477 48 48 48
-0.16784901916980743 -0.8048858046531677 1.7264779806137085 99 99 99
-0.16343607008457184 -0.7208188772201538 1.7321451902389526 56 56 56
-0.16343607008457184 -0.7208188772201538 1.7321451902389526 56 56 56
-0.16354069113731384 -0.7795130610466003 1.7333353757858276 108 108 108
-0.15658502280712128 -0.6970048546791077 1.7432043552398682 99 99 99
-0.1380944699048996 -0.7859318256378174 1.7525362968444824 109 109 109
-0.12894585728645325 -0.7411994934082031 1.761671543121338 50 50 50
-0.130828395485878 -0.3166539669036865 1.8187631368637085 35 35 35
-0.12564340233802795 -0.16048435866832733 1.847500205039978 113 113 113
-0.1152048259973526 -0.7295624613761902 1.776243805885315 32 32 32
-0.114216148853302 -0.6506761908531189 1.7878038883209229 111 111 111
-0.11707247793674469 -0.08217665553092957 1.8653796911239624 107 107 107
-0.11465281248092651 -0.11322586983442307 1.8573302030563354 106 106 106
-0.11465281248092651 -0.11322586983442307 1.8573302030563354 106 106 106
-0.10647409409284592 -0.689548909664154 1.7894179821014404 102 102 102
-0.10321378707885742 -0.7306743264198303 1.7774133682250977 46 46 46
-0.10177894681692123 -0.6564757227897644 1.7952812910079956 102 102 102
-0.09533555060625076 -0.4783967435359955 1.8261168003082275 27 27 27
-0.09533555060625076 -0.4783967435359955 1.8261168003082275 27 27 27
-0.09257656335830688 -0.7275715470314026 1.7898368835449219 86 86 86
-0.09757731854915619 0.18821077048778534 1.9258899688720703 79 79 79
-0.08618498593568802 -0.6671415567398071 1.806862473487854 37 37 37
-0.09063898026943207 0.20653869211673737 1.924690842628479 112 112 112
-0.09063898026943207 0.20653869211673737 1.924690842628479 112 112 112
-0.09049738943576813 0.21890175342559814 1.9287537336349487 47 47 47
-0.0887511596083641 -0.04858017712831497 1.8987892866134644 109 109 109
-0.0887511596083641 -0.04858017712831497 1.8987892866134644 109 109 109
-0.07601186633110046 0.189910426735878 1.940415382385254 53 53 53
-0.050574690103530884 -0.5560612678527832 1.8493987321853638 30 30 30
-0.041911378502845764 -0.5213963985443115 1.85841703414917 103 103 103
-0.025754345580935478 -0.4721742570400238 1.8754241466522217 81 81 81
