ply
format ascii 1.0
element vertex 49
property float x
property float y
property float z
property uchar red
property uchar green
property uchar blue
end_header
-0.39130204916000366 6.017385005950928 10.976037979125977 126 126 126
-0.10635893791913986 5.873963356018066 9.66451358795166 47 47 47
0.2163318395614624 5.83404016494751 9.231600761413574 113 113 113
0.4287102222442627 5.937493801116943 10.729619026184082 65 65 65
0.3737645447254181 5.808850288391113 9.103711128234863 119 119 119
0.6599157452583313 -3.9599311351776123 7.721238136291504 108 108 108
0.8893014788627625 -3.6476433277130127 6.307188987731934 111 111 111
0.9178513884544373 -3.321835994720459 6.415265083312988 133 133 133
0.9533780217170715 -1.7356034517288208 6.598691940307617 100 100 100
0.9673803448677063 -1.4794353246688843 6.649943828582764 113 113 113
0.9536524415016174 -2.1967387199401855 6.4848737716674805 72 72 72
1.1269515752792358 3.031670331954956 7.447329998016357 27 27 27
0.9582662582397461 -3.2636806964874268 6.276118278503418 47 47 47
0.9910767674446106 -2.8642544746398926 6.370372772216797 35 35 35
1.070658802986145 -2.840695381164551 6.328042030334473 38 38 38
1.070658802986145 -2.840695381164551 6.328042030334473 38 38 38
1.178011417388916 -1.8251396417617798 6.6356892585754395 32 32 32
1.1736868619918823 -2.679283857345581 6.569111347198486 69 69 69
1.247721552848816 -2.4982070922851562 6.523743629455566 109 109 109
1.294948935508728 -1.6694440841674805 6.728945255279541 56 56 56
1.4850497245788574 3.1868340969085693 7.593484401702881 46 46 46
1.3365994691848755 -1.3981651067733765 6.8121209144592285 63 63 63
1.3607691526412964 -1.4464412927627563 6.819169521331787 139 139 139
1.3608444929122925 -1.477007508277893 6.788285255432129 32 32 32
1.3423268795013428 -1.83990478515625 6.683664321899414 12 12 12
1.4239460229873657 0.03349357470870018 7.081422805786133 140 140 140
1.4138599634170532 -0.35514676570892334 6.972772598266602 52 52 52
1.4138599634170532 -0.35514676570892334 6.972772598266602 52 52 52
1.4961594343185425 1.1356545686721802 7.267265796661377 25 25 25
1.4961594343185425 1.1356545686721802 7.267265796661377 25 25 25
1.4961594343185425 1.1356545686721802 7.267265796661377 25 25 25
1.5451470613479614 1.9269330501556396 7.310557842254639 119 119 119
1.497046947479248 -3.1148459911346436 6.530684947967529 118 118 118
1.7001959085464478 -0.5629734992980957 6.777742385864258 140 140 140
1.7001959085464478 -0.5629734992980957 6.777742385864258 140 140 140
2.498490333557129 0.3778368830680847 7.361495018005371 18 18 18
2.6671700477600098 0.6639540195465088 7.439620018005371 127 127 127
2.6153292655944824 -0.40118178725242615 7.00173807144165 38 38 38
2.6001787185668945 -0.4790193736553192 6.9486799240112305 159 159 159
2.6480720043182373 0.04071420058608055 7.049961090087891 127 127 127
2.7231006622314453 0.5923346877098083 7.228247165679932 39 39 39
2.7092554569244385 1.415306568145752 7.177004337310791 41 41 41
2.625967264175415 0.7544984221458435 6.530487537384033 138 138 138
2.77095627784729 1.1777369976043701 6.707991123199463 140 140 140
2.7719953060150146 1.2392151355743408 6.694511890411377 47 47 47
2.783200740814209 0.8099780082702637 6.445992946624756 33 33 33
2.732664108276367 0.6510006785392761 6.275241851806641 30 30 30
2.8195013999938965 0.7692448496818542 6.412383079528809 112 112 112
2.8042967319488525 0.3903087377548218 6.104165077209473 66 66 66
