ply
format ascii 1.0
element vertex 132
property float x
property float y
property float z
property uchar red
property uchar green
property uchar blue
end_header
-0.60202556848526 -0.7908029556274414 2.3320565223693848 44 44 44
-0.515893816947937 -0.40402284264564514 2.411736488342285 164 164 164
-0.5040578246116638 -0.21762371063232422 2.4372403621673584 21 21 21
-0.3946123719215393 -0.6546790599822998 2.391923427581787 40 40 40
-0.3749244213104248 -0.2050536572933197 2.4726226329803467 127 127 127
-0.3675451874732971 -0.40218305587768555 2.481224775314331 42 42 42
-0.31300002336502075 -0.27677130699157715 2.55879807472229 129 129 129
-0.27051591873168945 -0.5009645223617554 2.6212821006774902 30 30 30
-0.23531189560890198 0.1335528939962387 2.833517551422119 131 131 131
-0.20961211621761322 -1.0286973714828491 2.628972053527832 107 107 107
-0.21360546350479126 0.2935141921043396 2.7569408416748047 138 138 138
-0.20409467816352844 -0.9703056216239929 2.64376163482666 113 113 113
-0.20409467816352844 -0.9703056216239929 2.64376163482666 113 113 113
-0.17473798990249634 -0.9354798793792725 2.695482015609741 36 36 36
-0.1731761395931244 0.19557054340839386 2.8224985599517822 179 179 179
-0.1534716635942459 -0.9701142907142639 2.6380555629730225 118 118 118
-0.16426987946033478 0.29901647567749023 2.8274362087249756 71 71 71
-0.15973976254463196 0.15647490322589874 2.8465614318847656 167 167 167
-0.14260172843933105 -0.9932966232299805 2.6639087200164795 99 99 99
-0.14152801036834717 -0.9582141637802124 2.7576725482940674 38 38 38
-0.12738847732543945 -0.940666913986206 2.781748056411743 45 45 45
-0.12998491525650024 0.4890276789665222 2.907137632369995 94 94 94
-0.11796761304140091 -0.8351392149925232 2.782705545425415 109 109 109
-0.11499867588281631 -0.9522095918655396 2.8183040618896484 43 43 43
-0.11678116768598557 0.3058686852455139 2.931952476501465 88 88 88
-0.11369885504245758 0.15169544517993927 2.8841352462768555 76 76 76
-0.09062928706407547 -0.8287692666053772 2.841204881668091 115 115 115
-0.06276681274175644 -0.7094283699989319 2.900498390197754 105 105 105
-0.046055249869823456 0.19587896764278412 2.9959208965301514 121 121 121
-0.046055249869823456 0.19587896764278412 2.9959208965301514 121 121 121
-0.03890817612409592 -1.0731546878814697 2.8385205268859863 47 47 47
-0.03379301354289055 -0.7928728461265564 2.9326438903808594 40 40 40
-0.033679213374853134 -0.7922607660293579 2.9319894313812256 40 40 40
-0.033679213374853134 -0.7922607660293579 2.9319894313812256 40 40 40
-0.031039591878652573 -0.9734303951263428 2.831031084060669 3 3 3
-0.008704514242708683 -0.6799880266189575 2.970536470413208 99 99 99
0.00200131768360734 0.48683854937553406 3.0186586380004883 3 3 3
0.11412196606397629 0.28512370586395264 2.9015238285064697 130 130 130
0.12199872732162476 0.3632095456123352 2.9269161224365234 67 67 67
0.16079552471637726 0.6660081148147583 2.952380895614624 15 15 15
0.20786330103874207 0.34275224804878235 2.901911973953247 61 61 61
0.20868369936943054 0.4751143753528595 2.9115207195281982 98 98 98
0.2203064113855362 0.5335019826889038 2.909602165222168 99 99 99
0.2999788224697113 0.565841019153595 2.8769748210906982 110 110 110
0.31242793798446655 0.5507986545562744 2.874107599258423 83 83 83
0.31242793798446655 0.5507986545562744 2.874107599258423 83 83 83
0.3158997595310211 0.3263435363769531 2.8448166847229004 119 119 119
0.3457162082195282 0.41373181343078613 2.8430545330047607 12 12 12
0.3485172688961029 0.554684579372406 2.848597288131714 106 106 106
0.4098150134086609 0.49288448691368103 2.8236477375030518 106 106 106
0.424064964056015 0.9804653525352478 2.862565040588379 19 19 19
0.43379247188568115 1.0300233364105225 2.8612661361694336 71 71 71
0.442504346370697 0.7064585089683533 2.8146891593933105 103 103 103
0.4513701796531677 -1.024511456489563 2.633662700653076 91 91 91
0.4939354360103607 -0.27172884345054626 2.81095290184021 78 78 78
0.5055716633796692 0.2862520217895508 2.814061164855957 113 113 113
0.5193840861320496 0.7628639340400696 2.7841451168060303 117 117 117
0.5612859725952148 1.0039575099945068 2.7924749851226807 88 88 88
0.5682828426361084 1.1237773895263672 2.801784038543701 86 86 86
0.5562862157821655 -0.768035352230072 2.7350714206695557 83 83 83
0.5684331655502319 0.6393877863883972 2.746716260910034 114 114 114
0.5740692019462585 0.3155052661895752 2.7279670238494873 79 79 79
0.6040846705436707 0.22718073427677155 2.847780704498291 52 52 52
0.5801006555557251 0.46797293424606323 2.732686996459961 22 22 22
0.618163526058197 0.6206645369529724 2.7435104846954346 37 37 37
0.6259117126464844 0.8490567207336426 2.7364501953125 121 121 121
0.6389479041099548 1.0049227476119995 2.7584452629089355 74 74 74
0.6288642883300781 0.6703925728797913 2.702388286590576 168 168 168
0.6349995732307434 0.6280816793441772 2.7179489135742188 2 2 2
0.6133086085319519 -0.9707159399986267 2.6079540252685547 27 27 27
0.6459982991218567 0.9286268353462219 2.745826244354248 96 96 96
0.6453704237937927 0.7675684690475464 2.719421863555908 123 123 123
0.6468092799186707 0.5328984260559082 2.7024083137512207 37 37 37
0.6555889248847961 0.7010766863822937 2.715725898742676 150 150 150
0.6826276779174805 0.1822502613067627 2.8269128799438477 77 77 77
0.6537556648254395 0.5507822036743164 2.68692946434021 81 81 81
0.6642481088638306 0.4680332839488983 2.683112621307373 78 78 78
0.674344003200531 0.621967613697052 2.701475143432617 48 48 48
0.7458920478820801 -0.1578349769115448 2.9848427772521973 179 179 179
0.6712982654571533 0.3434674143791199 2.6732687950134277 63 63 63
0.6822652816772461 0.6607967615127563 2.6997392177581787 112 112 112
0.6897329688072205 0.899916410446167 2.7224130630493164 39 39 39
0.6847001314163208 0.7098702788352966 2.6955578327178955 82 82 82
0.701461136341095 1.0408917665481567 2.7255446910858154 104 104 104
0.6910982131958008 -0.895728588104248 2.6723761558532715 68 68 68
0.7100946307182312 1.0515961647033691 2.725271224975586 57 57 57
0.6712408661842346 -1.060181975364685 2.5612902641296387 137 137 137
0.7099542617797852 1.0363481044769287 2.722046136856079 53 53 53
0.8223501443862915 -0.18130525946617126 3.020620107650757 224 224 224
0.7289302945137024 0.6527174115180969 2.672618865966797 132 132 132
0.7347327470779419 0.8640108108520508 2.693875789642334 108 108 108
0.7406617999076843 -0.418730229139328 2.7086353302001953 52 52 52
0.8197823166847229 -0.32593557238578796 2.989227533340454 27 27 27
0.7062317728996277 -0.9735774993896484 2.5647084712982178 117 117 117
0.7421523332595825 0.2835843563079834 2.6898932456970215 27 27 27
0.7461570501327515 0.6694579124450684 2.6670897006988525 122 122 122
0.7540512084960938 -0.43546295166015625 2.701423406600952 29 29 29
0.850845456123352 -0.247653067111969 2.9768221378326416 59 59 59
0.8614732623100281 -0.14634865522384644 3.009979248046875 53 53 53
0.7918330430984497 0.29052111506462097 2.6953272819519043 29 29 29
0.786790132522583 0.6674436330795288 2.6434640884399414 72 72 72
0.7964525818824768 0.5565093159675598 2.639028310775757 114 114 114
0.8975164890289307 -0.24970844388008118 2.972193479537964 40 40 40
0.7725739479064941 -1.003053069114685 2.542809009552002 86 86 86
0.8031604290008545 0.725562572479248 2.6458165645599365 12 12 12
0.8161236047744751 1.0074366331100464 2.670008897781372 22 22 22
0.8082518577575684 0.6321496367454529 2.6389639377593994 39 39 39
0.9295863509178162 -0.3187107443809509 3.000234842300415 37 37 37
0.818840742111206 0.6582510471343994 2.6250486373901367 124 124 124
0.8348287343978882 -0.4047662615776062 2.6664745807647705 30 30 30
0.9372650980949402 0.082284115254879 2.9888691902160645 254 254 254
0.8293090462684631 0.6245219707489014 2.6232473850250244 41 41 41
0.8700466752052307 0.7897262573242188 2.6238014698028564 127 127 127
0.8714996576309204 0.7188147902488708 2.6064953804016113 129 129 129
0.8746130466461182 0.3690142333507538 2.5745363235473633 61 61 61
0.877841055393219 0.5066174268722534 2.578547716140747 16 16 16
0.8986068367958069 1.0067298412322998 2.6393978595733643 47 47 47
0.8867976069450378 0.4878441393375397 2.5637121200561523 89 89 89
0.8867976069450378 0.4878441393375397 2.5637121200561523 89 89 89
1.0054712295532227 -0.043928373605012894 2.897905111312866 133 133 133
0.9022397398948669 0.6197159290313721 2.5846216678619385 58 58 58
0.8981320261955261 0.4909230172634125 2.56241512298584 78 78 78
0.8981320261955261 0.4909230172634125 2.56241512298584 78 78 78
0.9109823107719421 0.7443571090698242 2.594729423522949 61 61 61
0.9075973629951477 0.5059643387794495 2.5631892681121826 33 33 33
0.9310702681541443 0.8188155889511108 2.59480881690979 130 130 130
0.9383378028869629 0.6098811030387878 2.5655698776245117 105 105 105
0.9370307922363281 0.4870030879974365 2.5388376712799072 85 85 85
0.9472386240959167 0.6325206756591797 2.565347194671631 63 63 63
0.938376784324646 0.46607649326324463 2.529697895050049 46 46 46
0.9797285795211792 1.0106476545333862 2.595405340194702 97 97 97
0.9935093522071838 0.9951009750366211 2.581768274307251 52 52 52
