ply
format ascii 1.0
element vertex 251
property float x
property float y
property float z
property uchar red
property uchar green
property uchar blue
end_header
-2.0312564373016357 -0.632415771484375 5.136053562164307 55 55 55
-2.013367176055908 -0.7313284873962402 5.1950178146362305 32 32 32
-2.013367176055908 -0.7313284873962402 5.1950178146362305 32 32 32
-2.01104474067688 -0.6421206593513489 5.209905624389648 32 32 32
-1.9706276655197144 -0.6967810988426208 5.281477928161621 132 132 132
-1.9706276655197144 -0.6967810988426208 5.281477928161621 132 132 132
-1.9639604091644287 -0.7421104907989502 5.287217617034912 36 36 36
-1.9639604091644287 -0.7421104907989502 5.287217617034912 36 36 36
-1.571015477180481 -1.7173889875411987 4.239809036254883 123 123 123
-1.9599039554595947 -0.6734187602996826 5.307675361633301 32 32 32
-1.5507169961929321 -2.2433314323425293 4.389290809631348 35 35 35
-1.4593311548233032 -1.7234081029891968 4.465710163116455 33 33 33
-1.398939609527588 -2.237060308456421 4.614977836608887 36 36 36
-1.398939609527588 -2.237060308456421 4.614977836608887 36 36 36
-1.4130522012710571 -2.457669734954834 4.684352874755859 24 24 24
-1.4130522012710571 -2.457669734954834 4.684352874755859 24 24 24
-1.386671781539917 -1.684240460395813 4.619211196899414 46 46 46
-1.6767125129699707 -1.6761900186538696 5.800704002380371 29 29 29
-1.3390499353408813 -1.802201509475708 4.772085189819336 138 138 138
-1.3233870267868042 -2.2556495666503906 4.792923927307129 35 35 35
-1.2883200645446777 -2.2574658393859863 4.83137845993042 37 37 37
-1.2396059036254883 -2.270085573196411 4.950137138366699 34 34 34
-1.2396059036254883 -2.270085573196411 4.950137138366699 34 34 34
-1.162888765335083 -1.7886313199996948 4.996885299682617 127 127 127
-1.4704455137252808 2.6623241901397705 6.418378829956055 91 91 91
-1.1609463691711426 -2.279017210006714 5.082611083984375 42 42 42
-1.3116891384124756 -1.6051470041275024 5.778832912445068 42 42 42
-1.1377965211868286 -2.2670352458953857 5.100863456726074 34 34 34
-1.215725064277649 -1.6369432210922241 5.6872687339782715 35 35 35
-1.1314047574996948 -1.6270982027053833 5.708939075469971 155 155 155
-1.0549033880233765 -1.760657548904419 5.577992916107178 27 27 27
-1.0306826829910278 -0.8380628228187561 5.758596420288086 85 85 85
-1.0476950407028198 0.43271851539611816 5.938371658325195 113 113 113
-0.9890820980072021 -1.8319753408432007 5.667087554931641 24 24 24
-0.9822448492050171 -1.326204776763916 5.680104732513428 75 75 75
-0.9666219353675842 -1.8073407411575317 5.588417053222656 24 24 24
-0.9326908588409424 -0.6203737258911133 5.66609001159668 69 69 69
-0.9327994585037231 -0.2601572871208191 5.783443927764893 55 55 55
-0.9050299525260925 -1.463144302368164 5.646495342254639 34 34 34
-0.9050299525260925 -1.463144302368164 5.646495342254639 34 34 34
-0.9550876617431641 2.6294381618499756 5.951196670532227 52 52 52
-0.9150412082672119 0.07425212860107422 5.8013176918029785 51 51 51
-0.8594908714294434 -1.2625350952148438 5.559408664703369 30 30 30
-0.9714224934577942 2.1428029537200928 6.244558334350586 23 23 23
-0.8650645017623901 -1.544573426246643 5.615877628326416 118 118 118
-0.8507880568504333 -1.722558617591858 5.603933811187744 135 135 135
-0.8950818181037903 0.7814377546310425 5.91064453125 38 38 38
-0.9450700283050537 2.5955240726470947 6.231323719024658 28 28 28
-0.8416635394096375 -0.7289131283760071 5.7015061378479 125 125 125
-0.8821510076522827 1.1409140825271606 5.973060607910156 35 35 35
-0.89970463514328 2.6387240886688232 6.075353622436523 100 100 100
-0.8935675621032715 1.4880940914154053 6.102907657623291 40 40 40
-0.821212112903595 -1.0373743772506714 5.736656188964844 125 125 125
-0.8192498683929443 -0.01988636702299118 5.776917934417725 132 132 132
-0.7984260320663452 -0.6834314465522766 5.785992622375488 125 125 125
-0.8163118958473206 0.30693989992141724 5.919307231903076 19 19 19
-0.8183892369270325 1.0343761444091797 5.966598033905029 27 27 27
-0.7914285659790039 -0.32482627034187317 5.887820243835449 114 114 114
-0.7647414803504944 -0.2973136901855469 5.913571834564209 146 146 146
-0.7602271437644958 1.0834654569625854 5.996102333068848 118 118 118
-0.8177496790885925 2.589351177215576 6.489692687988281 23 23 23
-0.7340394854545593 1.51975679397583 6.15944242477417 101 101 101
-0.7340394854545593 1.51975679397583 6.15944242477417 101 101 101
-0.6853627562522888 1.3814998865127563 6.246225357055664 7 7 7
-0.6853627562522888 1.3814998865127563 6.246225357055664 7 7 7
-0.6527403593063354 -0.5368673205375671 6.083767414093018 134 134 134
-0.6731774210929871 1.744175910949707 6.281126499176025 25 25 25
-0.6731774210929871 1.744175910949707 6.281126499176025 25 25 25
-0.673448383808136 1.5473095178604126 6.2928948402404785 20 20 20
-0.6494633555412292 -2.364516258239746 6.126254081726074 30 30 30
-0.5907528400421143 -1.937008023262024 6.4384074211120605 30 30 30
-0.5217903852462769 -1.9238355159759521 6.481678009033203 52 52 52
-0.5217903852462769 -1.9238355159759521 6.481678009033203 52 52 52
-0.5329993367195129 0.34614771604537964 6.988648414611816 144 144 144
-0.4811285138130188 -1.9452259540557861 6.46743106842041 35 35 35
-0.4721519351005554 -2.0212697982788086 6.347822189331055 118 118 118
-0.4689129889011383 -1.907580018043518 6.534445762634277 35 35 35
-0.4451656639575958 -1.771707534790039 6.63399600982666 105 105 105
-0.4388633072376251 0.6297093629837036 6.595861434936523 140 140 140
-0.41115885972976685 -1.956559658050537 6.67784309387207 39 39 39
-0.37555286288261414 -2.027214765548706 6.396985054016113 34 34 34
-0.37555286288261414 -2.027214765548706 6.396985054016113 34 34 34
-0.36869367957115173 -2.01090931892395 6.599099159240723 104 104 104
-0.3762062191963196 0.4403514862060547 6.799100875854492 179 179 179
-0.3591850996017456 -1.9399601221084595 6.7836785316467285 42 42 42
-0.3510432839393616 -1.5751168727874756 6.693877696990967 103 103 103
-0.34372666478157043 0.6620826125144958 6.793893814086914 74 74 74
-0.34131699800491333 0.8050916194915771 6.9208083152771 108 108 108
-0.29972830414772034 -1.7378020286560059 6.903535842895508 124 124 124
-0.27239352464675903 0.3529534935951233 7.01641845703125 79 79 79
-0.27403542399406433 0.4995422661304474 7.05377197265625 64 64 64
-0.24812521040439606 -2.0754170417785645 6.861275672912598 144 144 144
-0.24812521040439606 -2.0754170417785645 6.861275672912598 144 144 144
-0.23708613216876984 -1.4353148937225342 6.930183410644531 108 108 108
-0.2202305644750595 -2.2073278427124023 6.88036584854126 46 46 46
-0.1593168079853058 2.5481932163238525 6.395148277282715 126 126 126
-0.1741626113653183 -0.2614423930644989 7.1464056968688965 109 109 109
-0.17124240100383759 -0.11830305308103561 7.249443054199219 119 119 119
-0.15309730172157288 -2.1555445194244385 6.966148853302002 48 48 48
-0.15798920392990112 0.40995660424232483 7.320217609405518 147 147 147
-0.1469835340976715 0.43137890100479126 7.194272518157959 68 68 68
-0.14513255655765533 -1.132385492324829 7.24806022644043 108 108 108
-0.03044624999165535 0.9137181043624878 7.38731050491333 113 113 113
0.10664539039134979 -1.6779383420944214 7.3048505783081055 40 40 40
0.1691148728132248 2.4604923725128174 6.851339817047119 18 18 18
0.22494681179523468 0.6173241138458252 7.023380756378174 99 99 99
0.2438240498304367 0.75972580909729 6.9752678871154785 67 67 67
0.3685956597328186 2.487639904022217 7.14705753326416 64 64 64
0.4379033148288727 1.0048986673355103 7.070967674255371 102 102 102
0.5397769212722778 0.6099581122398376 7.147137641906738 138 138 138
0.5661303997039795 0.6387156248092651 6.963541030883789 102 102 102
0.7378153800964355 1.1312776803970337 6.84598445892334 104 104 104
0.7678468227386475 0.6249495148658752 6.945820331573486 119 119 119
0.7860443592071533 -1.7773001194000244 7.042726039886475 119 119 119
0.786973774433136 -2.0149359703063965 6.073312759399414 92 92 92
0.9496086239814758 2.046806812286377 6.954470634460449 20 20 20
0.958939790725708 1.4524919986724854 6.845263957977295 115 115 115
0.9523425102233887 -0.5898429751396179 6.735366344451904 82 82 82
0.8508873581886292 -1.896779179573059 5.974905014038086 102 102 102
1.0099918842315674 0.5114029049873352 6.973008632659912 56 56 56
1.1171576976776123 2.039393424987793 6.855421543121338 24 24 24
1.1469008922576904 1.3363832235336304 6.722536087036133 130 130 130
1.1916656494140625 0.5294289588928223 6.870972633361816 29 29 29
1.2828176021575928 0.46096351742744446 7.165802478790283 59 59 59
1.2160431146621704 1.2844332456588745 6.666985988616943 109 109 109
1.1256487369537354 -1.7592504024505615 6.122381210327148 138 138 138
1.1289571523666382 -1.729175090789795 6.030939102172852 134 134 134
1.2673087120056152 1.4296599626541138 6.706998825073242 135 135 135
1.3377193212509155 1.2690759897232056 6.774061679840088 32 32 32
1.3039299249649048 1.2222973108291626 6.581142425537109 37 37 37
1.2378480434417725 1.368898868560791 6.196103572845459 85 85 85
1.7472419738769531 -0.4242110252380371 8.650087356567383 163 163 163
1.2276732921600342 -1.746461272239685 6.064365386962891 63 63 63
1.3727847337722778 1.7363965511322021 6.708040237426758 110 110 110
1.1951608657836914 -2.013490676879883 5.784518241882324 136 136 136
1.353899359703064 1.3425759077072144 6.582301616668701 67 67 67
1.3687372207641602 1.2615548372268677 6.647296905517578 54 54 54
1.4602559804916382 0.5573991537094116 7.0149078369140625 26 26 26
1.408686876296997 1.4025276899337769 6.612546920776367 158 158 158
1.4262661933898926 0.6665003895759583 6.638739109039307 59 59 59
1.7436118125915527 -0.5713865160942078 8.052826881408691 49 49 49
1.7718639373779297 -0.5779920816421509 8.185441970825195 49 49 49
1.2353756427764893 -1.848540186882019 5.730213165283203 116 116 116
1.4270321130752563 1.153266429901123 6.535708427429199 78 78 78
1.2760130167007446 -2.317164182662964 5.8248677253723145 113 113 113
1.7806779146194458 -0.809198796749115 8.061991691589355 50 50 50
1.4484258890151978 1.297529935836792 6.515554428100586 137 137 137
1.4777125120162964 1.4238635301589966 6.583871841430664 82 82 82
1.7590041160583496 0.34715378284454346 7.772852420806885 158 158 158
1.4848625659942627 1.7901862859725952 6.551619529724121 16 16 16
1.4848625659942627 1.7901862859725952 6.551619529724121 16 16 16
1.51860773563385 2.284600257873535 6.528570652008057 150 150 150
1.9194036722183228 -0.3903157413005829 8.21812629699707 65 65 65
2.1730918884277344 -0.12542173266410828 9.069025993347168 71 71 71
2.1730918884277344 -0.12542173266410828 9.069025993347168 71 71 71
1.59183931350708 1.735304355621338 6.580728530883789 104 104 104
1.585052490234375 1.3120651245117188 6.489602565765381 120 120 120
1.5910496711730957 1.3994566202163696 6.509768486022949 123 123 123
2.0888819694519043 -0.03748173639178276 8.49451732635498 254 254 254
1.8495980501174927 0.20412038266658783 7.5110039710998535 79 79 79
1.6271418333053589 -0.8399301171302795 6.639573574066162 206 206 206
1.973602294921875 0.02170996367931366 7.9683403968811035 253 253 253
1.973602294921875 0.02170996367931366 7.9683403968811035 253 253 253
1.6879490613937378 1.3179858922958374 6.497321128845215 63 63 63
1.6857880353927612 1.0645803213119507 6.47220516204834 3 3 3
1.6879774332046509 1.077380895614624 6.45559549331665 113 113 113
1.7208970785140991 0.5937129855155945 6.561647891998291 101 101 101
1.7049260139465332 1.220215916633606 6.402707099914551 44 44 44
1.9941564798355103 0.030981408432126045 7.4466872215271 124 124 124
1.4972354173660278 -1.8148685693740845 5.543941974639893 41 41 41
1.7510616779327393 1.291278600692749 6.450293064117432 163 163 163
2.5528388023376465 -0.056288305670022964 9.343637466430664 104 104 104
2.3242478370666504 -0.06593601405620575 8.492693901062012 97 97 97
1.7682877779006958 1.3495304584503174 6.418235778808594 118 118 118
1.53636634349823 -1.2352558374404907 5.527911186218262 61 61 61
2.0738282203674316 -0.2216166853904724 7.344512462615967 35 35 35
1.5223368406295776 -1.826022744178772 5.419613838195801 104 104 104
2.2275478839874268 -0.3438068926334381 7.829910755157471 41 41 41
2.2319352626800537 0.10301429778337479 7.834113121032715 255 255 255
1.8268646001815796 1.9021528959274292 6.420933723449707 104 104 104
2.340172290802002 -0.16924817860126495 8.152366638183594 165 165 165
1.83977472782135 1.7699373960494995 6.393851280212402 109 109 109
1.8547002077102661 0.6871533989906311 6.404178619384766 60 60 60
1.839422583580017 1.5277423858642578 6.340982437133789 122 122 122
2.2872982025146484 -0.8345280289649963 7.786482810974121 195 195 195
2.2872982025146484 -0.8345280289649963 7.786482810974121 195 195 195
1.9359492063522339 0.5669116377830505 6.580394744873047 75 75 75
1.9042590856552124 1.2567821741104126 6.441905975341797 111 111 111
1.8945711851119995 0.9346466064453125 6.377208232879639 79 79 79
1.9046759605407715 1.9826511144638062 6.329500675201416 21 21 21
2.793242931365967 -0.0009436148684471846 9.291717529296875 130 130 130
2.7458932399749756 -1.0742840766906738 9.104243278503418 35 35 35
1.9029828310012817 2.429549217224121 6.273179054260254 108 108 108
1.9379147291183472 0.968603253364563 6.377570152282715 33 33 33
2.3606534004211426 0.09922496229410172 7.741822719573975 139 139 139
1.9141854047775269 1.9376589059829712 6.258681297302246 57 57 57
1.9486565589904785 1.0913200378417969 6.382959842681885 13 13 13
1.9206386804580688 1.3793072700500488 6.264918804168701 145 145 145
2.045720100402832 0.5974359512329102 6.530353546142578 113 113 113
1.9903790950775146 1.5313925743103027 6.302405834197998 132 132 132
2.008413076400757 1.7417927980422974 6.303096771240234 121 121 121
2.5280964374542236 -0.40410545468330383 7.872949600219727 254 254 254
2.0060276985168457 2.222583293914795 6.187129974365234 52 52 52
2.596468925476074 0.07638107240200043 8.002357482910156 255 255 255
2.034048557281494 2.0752735137939453 6.228005886077881 101 101 101
2.0330636501312256 2.188779354095459 6.1953349113464355 101 101 101
2.059904098510742 2.2779719829559326 6.275514602661133 100 100 100
2.0546600818634033 1.9719158411026 6.2037811279296875 24 24 24
2.052173614501953 2.1446309089660645 6.194027423858643 27 27 27
2.0915541648864746 1.3244709968566895 6.301965236663818 135 135 135
2.0806469917297363 1.345699667930603 6.230131149291992 131 131 131
2.9407083988189697 -0.6446546912193298 8.74316692352295 48 48 48
2.063674211502075 2.0314276218414307 6.1267242431640625 100 100 100
2.063674211502075 2.0314276218414307 6.1267242431640625 100 100 100
2.0726959705352783 1.8871550559997559 6.144366264343262 48 48 48
2.6362147331237793 -0.18132692575454712 7.804746150970459 237 237 237
2.3096113204956055 0.3683668375015259 6.815223217010498 117 117 117
2.643625497817993 -0.802577793598175 7.749862194061279 56 56 56
2.7393479347229004 -0.8290336728096008 8.026772499084473 57 57 57
1.77263343334198 -1.6031689643859863 5.174744129180908 82 82 82
2.620497703552246 0.029179224744439125 7.612824440002441 254 254 254
2.239003896713257 0.5745681524276733 6.443528652191162 124 124 124
3.899399757385254 -1.396203875541687 11.184685707092285 116 116 116
2.364077091217041 0.5444047451019287 6.705862045288086 61 61 61
2.1660516262054443 1.7368996143341064 6.086212158203125 121 121 121
2.496234178543091 -0.40504103899002075 6.962524890899658 87 87 87
2.222452163696289 1.894060730934143 6.0932841300964355 50 50 50
2.222452163696289 1.894060730934143 6.0932841300964355 50 50 50
2.2542953491210938 2.2846059799194336 6.142910480499268 81 81 81
2.2334394454956055 1.9231815338134766 6.063002109527588 107 107 107
2.2447361946105957 2.4016029834747314 6.080794811248779 43 43 43
2.299821376800537 1.2603209018707275 6.072784900665283 95 95 95
2.308445692062378 1.5300896167755127 6.0035719871521 132 132 132
2.3255679607391357 1.9284075498580933 6.010679721832275 111 111 111
2.3255679607391357 1.9284075498580933 6.010679721832275 111 111 111
2.359560251235962 1.2737360000610352 6.11001443862915 39 39 39
2.342489719390869 1.3436110019683838 6.03836727142334 143 143 143
2.456605911254883 0.5082614421844482 6.296090602874756 87 87 87
2.3464841842651367 1.9781489372253418 6.001011848449707 112 112 112
2.3413498401641846 1.9854484796524048 5.983836650848389 120 120 120
2.5407731533050537 0.4262995719909668 6.374723434448242 75 75 75
2.4094510078430176 1.5101566314697266 6.032101154327393 95 95 95
2.4172582626342773 1.2730532884597778 6.0442328453063965 51 51 51
2.4122021198272705 1.5857948064804077 6.012226581573486 99 99 99
2.3795273303985596 1.823866605758667 5.907762050628662 101 101 101
2.4202282428741455 1.643666386604309 5.949819564819336 121 121 121
2.4250617027282715 1.497908115386963 5.930409908294678 45 45 45
2.4250617027282715 1.497908115386963 5.930409908294678 45 45 45
2.433199405670166 1.7148590087890625 5.945056438446045 40 40 40
2.450631856918335 1.3150804042816162 5.964439392089844 126 126 126
2.478067636489868 1.6612135171890259 5.948400497436523 88 88 88
