ply
format ascii 1.0
element vertex 54
property float x
property float y
property float z
property uchar red
property uchar green
property uchar blue
end_header
-0.0016727267066016793 0.4074936807155609 1.794750452041626 125 125 125
-0.001532885362394154 0.36879199743270874 1.7889660596847534 125 125 125
0.02395935170352459 0.6548856496810913 1.8082550764083862 31 31 31
0.024329492822289467 0.3654428720474243 1.7824007272720337 140 140 140
0.02779693715274334 0.34303373098373413 1.7821788787841797 114 114 114
0.0351683534681797 0.1418227106332779 1.81235933303833 53 53 53
0.05141376703977585 -0.5719127655029297 1.7075940370559692 114 114 114
0.05998467653989792 0.14758214354515076 1.7946979999542236 110 110 110
0.06401965767145157 0.5186523795127869 1.7778321504592896 90 90 90
0.06552201509475708 0.28116574883461 1.7642806768417358 17 17 17
0.06552201509475708 0.28116574883461 1.7642806768417358 17 17 17
0.06749719381332397 0.35373958945274353 1.7672888040542603 133 133 133
0.07457298785448074 -0.5075088143348694 1.7646424770355225 23 23 23
0.07965893298387527 0.34323227405548096 1.7625973224639893 129 129 129
0.08282142132520676 0.32510051131248474 1.7621042728424072 139 139 139
0.08621951192617416 0.10188573598861694 1.8157540559768677 255 255 255
0.08712857961654663 0.315528005361557 1.7620571851730347 54 54 54
0.0916469395160675 0.3325050175189972 1.763110876083374 21 21 21
0.10166925191879272 0.4676350951194763 1.7619645595550537 120 120 120
0.11992208659648895 0.6504673957824707 1.772426724433899 46 46 46
0.116845041513443 -0.5800492763519287 1.7051016092300415 183 183 183
0.12980325520038605 0.6510064005851746 1.7695744037628174 45 45 45
0.1444721668958664 0.49444833397865295 1.7509797811508179 132 132 132
0.14882226288318634 0.35464489459991455 1.7374972105026245 133 133 133
0.15427318215370178 0.12735587358474731 1.7805569171905518 89 89 89
0.15433694422245026 0.38165515661239624 1.7450535297393799 13 13 13
0.16003328561782837 0.5056518912315369 1.7461251020431519 62 62 62
0.1600484549999237 0.361454576253891 1.7412312030792236 133 133 133
0.17282485961914062 0.5264018177986145 1.7422504425048828 45 45 45
0.17720533907413483 0.4411103129386902 1.7424427270889282 79 79 79
0.17835713922977448 0.40023893117904663 1.734795093536377 43 43 43
0.17835713922977448 0.40023893117904663 1.734795093536377 43 43 43
0.18053263425827026 0.4015127122402191 1.7374697923660278 46 46 46
0.18338243663311005 0.4047352075576782 1.7300348281860352 51 51 51
0.18751968443393707 0.3151366412639618 1.7293401956558228 76 76 76
0.20852750539779663 0.07951735705137253 1.7953308820724487 255 255 255
0.2029190957546234 0.353456974029541 1.7230377197265625 122 122 122
0.21194683015346527 0.13444221019744873 1.7523869276046753 72 72 72
0.22825060784816742 0.3639986515045166 1.7160372734069824 58 58 58
0.23741120100021362 -0.4271743893623352 1.757784128189087 240 240 240
0.23467369377613068 0.35072898864746094 1.7139555215835571 100 100 100
0.2455943524837494 0.3523499071598053 1.7098146677017212 97 97 97
0.24321232736110687 -0.5988820195198059 1.6671595573425293 99 99 99
0.25310301780700684 0.20711573958396912 1.7016727924346924 58 58 58
0.2937907576560974 0.18956853449344635 1.6870816946029663 89 89 89
0.29675060510635376 0.18184387683868408 1.6857929229736328 139 139 139
0.2987663447856903 0.20295603573322296 1.6860690116882324 145 145 145
0.3057876527309418 0.2632999122142792 1.6879842281341553 98 98 98
0.30967259407043457 0.17747758328914642 1.6676782369613647 101 101 101
0.322153240442276 0.2939518094062805 1.6827313899993896 43 43 43
0.32129448652267456 0.5824249386787415 1.5741147994995117 14 14 14
0.3742820620536804 0.08886335790157318 1.7321974039077759 100 100 100
0.4102731943130493 0.2818117141723633 1.654750943183899 22 22 22
0.41966140270233154 0.24417203664779663 1.6449624300003052 85 85 85
