ply
format ascii 1.0
element vertex 116
property float x
property float y
property float z
property uchar red
property uchar green
property uchar blue
end_header
-7.4392242431640625 3.1987056732177734 15.36855697631836 87 87 87
-7.4392242431640625 3.1987056732177734 15.36855697631836 87 87 87
-7.30368185043335 3.318082332611084 15.1610746383667 15 15 15
-3.977989912033081 2.0867867469787598 10.44185733795166 85 85 85
-4.043463230133057 2.382894992828369 10.726372718811035 104 104 104
-3.990499973297119 2.171395778656006 10.649053573608398 62 62 62
-3.9704833030700684 2.209994077682495 10.66489315032959 21 21 21
-1.7369468212127686 -1.8204337358474731 7.660915851593018 90 90 90
-1.499893307685852 -1.347016453742981 6.858131408691406 34 34 34
-1.4354889392852783 -2.311227798461914 7.52310848236084 27 27 27
-1.7714810371398926 -2.284287452697754 9.523992538452148 47 47 47
-1.6955527067184448 -2.4856889247894287 9.176579475402832 47 47 47
-1.4881185293197632 -1.720539927482605 8.104333877563477 31 31 31
-1.778732419013977 -2.696155071258545 9.914676666259766 116 116 116
-1.778732419013977 -2.696155071258545 9.914676666259766 116 116 116
-1.5870263576507568 -2.409173011779785 8.882164001464844 111 111 111
-1.4507310390472412 -1.7672964334487915 8.190195083618164 122 122 122
-1.6924688816070557 -2.4979310035705566 9.922517776489258 108 108 108
-1.2972111701965332 -1.7119483947753906 7.671725273132324 18 18 18
-1.6714022159576416 -2.4916906356811523 10.434711456298828 25 25 25
-0.8075655698776245 -1.9215714931488037 5.519547462463379 97 97 97
-0.7130282521247864 -1.474539875984192 4.928772926330566 32 32 32
-0.8696261644363403 -0.5665063261985779 6.155336380004883 110 110 110
-0.8298435211181641 -1.3989298343658447 6.028316974639893 18 18 18
-0.7851753234863281 -1.2524551153182983 6.084419250488281 104 104 104
-0.6960412263870239 -1.9873729944229126 5.556812286376953 106 106 106
-0.6900086998939514 -1.0958517789840698 6.017599582672119 40 40 40
-0.6840770840644836 -0.12607130408287048 5.927797794342041 141 141 141
-0.5724371075630188 -1.5689743757247925 5.002686023712158 102 102 102
-0.722597062587738 2.32822585105896 6.375603675842285 22 22 22
-0.6497617363929749 -0.8795645833015442 5.882582664489746 32 32 32
-0.6198071241378784 0.9115750789642334 5.974983215332031 97 97 97
-0.5207492709159851 -1.2344306707382202 5.701842784881592 126 126 126
-0.44586536288261414 -2.356605291366577 5.080471515655518 43 43 43
-0.5038039088249207 -1.0824577808380127 5.773855209350586 21 21 21
-0.5142614245414734 2.1207046508789062 6.065508842468262 123 123 123
-0.46292591094970703 -1.1282589435577393 5.789666175842285 117 117 117
-0.441522479057312 1.117690920829773 5.784709453582764 92 92 92
-0.3999248743057251 0.7621819376945496 5.678284645080566 96 96 96
-0.39190003275871277 -0.7757794857025146 5.584900856018066 141 141 141
-0.33437874913215637 -1.6814196109771729 4.781578540802002 128 128 128
-0.3902091979980469 0.0076543064787983894 5.612523555755615 106 106 106
-0.3902091979980469 0.0076543064787983894 5.612523555755615 106 106 106
-0.34762606024742126 -1.4436405897140503 5.162641525268555 134 134 134
-0.34762606024742126 -1.4436405897140503 5.162641525268555 134 134 134
-0.31207993626594543 -1.8724868297576904 5.014416217803955 40 40 40
-0.31207993626594543 -1.8724868297576904 5.014416217803955 40 40 40
-0.33067718148231506 -0.8244229555130005 5.525245189666748 148 148 148
-0.32563576102256775 -1.673625111579895 5.54782772064209 45 45 45
-0.3137384057044983 -1.6033233404159546 5.39508581161499 127 127 127
-0.2406170517206192 -1.8529348373413086 4.774850368499756 106 106 106
-0.23870162665843964 -0.13123451173305511 5.632528781890869 56 56 56
-0.22325965762138367 -1.2002865076065063 5.354759216308594 163 163 163
-0.22128181159496307 -1.4457720518112183 5.330673694610596 81 81 81
-0.22972673177719116 -0.7039382457733154 5.555498123168945 78 78 78
-0.2334839403629303 -0.8989579677581787 5.653140068054199 78 78 78
-0.22546866536140442 -1.0699353218078613 5.476537227630615 79 79 79
-0.22515074908733368 -0.3377012014389038 5.5717902183532715 61 61 61
-0.18885451555252075 -2.3104004859924316 4.775877952575684 130 130 130
-0.22608935832977295 0.07025393843650818 5.682211399078369 57 57 57
-0.2204851359128952 0.7427288293838501 5.5417022705078125 54 54 54
-0.22233667969703674 2.013887882232666 5.891110897064209 37 37 37
-0.17224450409412384 -1.274409294128418 4.579105377197266 84 84 84
-0.17224450409412384 -1.274409294128418 4.579105377197266 84 84 84
-0.17786476016044617 -2.3401036262512207 4.795023441314697 42 42 42
-0.17786476016044617 -2.3401036262512207 4.795023441314697 42 42 42
-0.17786476016044617 -2.3401036262512207 4.795023441314697 42 42 42
-0.21074961125850677 1.232249140739441 5.745183944702148 49 49 49
-0.1781611293554306 -1.9556617736816406 4.956063270568848 75 75 75
-0.20221535861492157 0.20631231367588043 5.5548601150512695 61 61 61
-0.1872950792312622 -0.9700731635093689 5.586147308349609 64 64 64
-0.15576346218585968 -1.9042733907699585 5.22664213180542 36 36 36
-0.15576346218585968 -1.9042733907699585 5.22664213180542 36 36 36
-0.1449098289012909 1.279124140739441 5.854153156280518 28 28 28
-0.10760071873664856 -2.3929288387298584 4.790067195892334 46 46 46
-0.11493416130542755 -1.7594387531280518 5.169095039367676 57 57 57
-0.10821373015642166 -0.918716549873352 5.428817272186279 148 148 148
-0.10887891054153442 -0.24124717712402344 5.705839157104492 135 135 135
-0.11280879378318787 1.1183985471725464 5.840859413146973 112 112 112
-0.0996401235461235 -1.7218745946884155 5.2228851318359375 156 156 156
-0.11162945628166199 2.8326950073242188 5.864975929260254 107 107 107
-0.11162945628166199 2.8326950073242188 5.864975929260254 107 107 107
-0.1076013520359993 0.30668526887893677 5.667111396789551 121 121 121
-0.10357148945331573 1.2146632671356201 5.789255619049072 105 105 105
-0.10518735647201538 1.3456093072891235 5.775839328765869 107 107 107
-0.0813172459602356 -1.871909737586975 4.728615760803223 128 128 128
-0.07850920408964157 -1.612160086631775 5.180398464202881 216 216 216
-0.049435123801231384 -1.7442742586135864 5.178884029388428 68 68 68
-0.03079102374613285 2.5684523582458496 5.984012603759766 94 94 94
-0.0171902384608984 -1.7320088148117065 5.214256763458252 60 60 60
0.004338154569268227 -1.6883496046066284 5.297515869140625 161 161 161
0.3328123390674591 0.7846343517303467 5.868166446685791 115 115 115
0.3328123390674591 0.7846343517303467 5.868166446685791 115 115 115
0.34980884194374084 0.8241362571716309 5.944014072418213 119 119 119
0.34980884194374084 0.8241362571716309 5.944014072418213 119 119 119
0.34962210059165955 -0.06637543439865112 5.877215385437012 132 132 132
0.34953391551971436 -0.06671196222305298 5.873746395111084 132 132 132
0.35760077834129333 0.4039672613143921 5.879405498504639 126 126 126
0.35760077834129333 0.4039672613143921 5.879405498504639 126 126 126
0.37776631116867065 0.4744011461734772 5.883138656616211 58 58 58
0.40303435921669006 0.09356366097927094 5.747842311859131 155 155 155
0.41502854228019714 0.3245636522769928 5.881617069244385 39 39 39
0.41460028290748596 0.5663689970970154 5.862329006195068 50 50 50
0.4147588014602661 0.27877989411354065 5.746213436126709 59 59 59
0.45319414138793945 0.30365410447120667 5.8246026039123535 129 129 129
0.4730641841888428 0.46886152029037476 5.8195576667785645 125 125 125
0.47801291942596436 0.10502155125141144 5.828340530395508 155 155 155
0.4877060055732727 0.18546506762504578 5.708320617675781 39 39 39
0.5153399109840393 0.2530243992805481 5.583131313323975 132 132 132
0.5398231744766235 0.326507031917572 5.665176868438721 139 139 139
0.5283103585243225 0.19764702022075653 5.559284687042236 76 76 76
0.5724527835845947 0.490802526473999 5.831798076629639 53 53 53
0.5536366105079651 0.4636821746826172 5.674214839935303 128 128 128
0.55655437707901 0.158199280500412 5.483458042144775 137 137 137
0.6107888221740723 0.100711390376091 5.442756652832031 147 147 147
0.6398541927337646 0.1904267966747284 5.563076972961426 32 32 32
