ply
format ascii 1.0
element vertex 165
property float x
property float y
property float z
property uchar red
property uchar green
property uchar blue
end_header
-3.5704262256622314 1.0148110389709473 7.422789096832275 110 110 110
-3.5772202014923096 1.3599441051483154 7.461653232574463 92 92 92
-3.5306434631347656 0.7492051720619202 7.447084903717041 133 133 133
-3.5306434631347656 0.7492051720619202 7.447084903717041 133 133 133
-3.456712007522583 -2.2773008346557617 7.522093772888184 204 204 204
-3.2510805130004883 -2.744051694869995 7.36916971206665 97 97 97
-3.184727191925049 2.1481995582580566 7.550518989562988 23 23 23
-3.0915565490722656 -3.6875762939453125 7.444911956787109 82 82 82
-3.1232364177703857 -0.8286941647529602 7.5871405601501465 68 68 68
-3.1062257289886475 -0.9561022520065308 7.660773277282715 251 251 251
-3.110262632369995 -0.8733313083648682 7.673943519592285 250 250 250
-3.0484890937805176 1.847367763519287 7.535191535949707 104 104 104
-3.1069228649139404 -0.8925020694732666 7.730872631072998 67 67 67
-3.025995969772339 1.5825927257537842 7.545541286468506 121 121 121
-3.021226167678833 1.4277145862579346 7.597312927246094 39 39 39
-3.0656118392944336 -1.1087408065795898 7.764500617980957 159 159 159
-3.076746702194214 0.46531686186790466 7.794564723968506 46 46 46
-3.0571680068969727 0.5302159190177917 7.781906604766846 94 94 94
-2.513917922973633 3.716769218444824 6.439478397369385 70 70 70
-2.9100093841552734 -3.181321144104004 7.5078959465026855 120 120 120
-2.926927089691162 1.5228654146194458 7.578653335571289 114 114 114
-2.9052836894989014 -2.9763145446777344 7.52690315246582 136 136 136
-3.063192844390869 -0.5513859391212463 8.22594928741455 228 228 228
-2.804616928100586 1.740649938583374 7.596347808837891 85 85 85
-2.770904541015625 -2.9567763805389404 7.511819362640381 132 132 132
-2.840937852859497 0.5894773006439209 7.761932849884033 17 17 17
-2.776613235473633 -2.9588966369628906 7.595538139343262 132 132 132
-2.7587358951568604 2.0579988956451416 7.659820556640625 109 109 109
-2.699978828430176 1.5805171728134155 7.537881851196289 56 56 56
-3.0379478931427 -0.1503387838602066 8.532894134521484 46 46 46
-2.913374900817871 -0.9673727750778198 8.236687660217285 31 31 31
-2.666323661804199 1.8173205852508545 7.58549690246582 113 113 113
-2.6912288665771484 1.664715051651001 7.66064977645874 134 134 134
-2.69700026512146 0.7464417219161987 7.696719646453857 55 55 55
-2.6624906063079834 1.7781696319580078 7.677961826324463 109 109 109
-2.6624906063079834 1.7781696319580078 7.677961826324463 109 109 109
-2.6522960662841797 1.0016767978668213 7.669350624084473 26 26 26
-2.838874101638794 -0.514000415802002 8.35058307647705 55 55 55
-2.6299920082092285 1.9856984615325928 7.758371829986572 57 57 57
-2.556137800216675 1.6670026779174805 7.579219341278076 38 38 38
-2.548206329345703 2.1284191608428955 7.611583232879639 16 16 16
-2.548206329345703 2.1284191608428955 7.611583232879639 16 16 16
-2.9097187519073486 -0.3935701549053192 8.748398780822754 254 254 254
-2.538954734802246 2.7809460163116455 7.727962970733643 69 69 69
-2.8085925579071045 0.710192859172821 8.549461364746094 107 107 107
-2.661011219024658 0.2812485694885254 8.12181282043457 155 155 155
-2.7620537281036377 -0.9759037494659424 8.483418464660645 241 241 241
-2.670916795730591 0.14811724424362183 8.22380542755127 85 85 85
-2.5703718662261963 -1.0259127616882324 7.973126411437988 43 43 43
-2.4534552097320557 2.053276777267456 7.695023059844971 91 91 91
-2.4409096240997314 1.5542889833450317 7.699844837188721 121 121 121
-2.426650285720825 0.6397640109062195 7.7017412185668945 107 107 107
-2.6094970703125 -1.0901321172714233 8.334796905517578 30 30 30
-2.4330177307128906 2.3073530197143555 7.772272109985352 90 90 90
-2.624213457107544 0.06007368490099907 8.465790748596191 254 254 254
-2.301536798477173 1.2293084859848022 7.662866592407227 31 31 31
-2.533494710922241 -2.646794319152832 8.491815567016602 22 22 22
-2.283409833908081 1.936509132385254 7.737428665161133 3 3 3
-2.2665774822235107 1.445054292678833 7.734508514404297 33 33 33
-2.5164270401000977 -1.1622874736785889 8.649371147155762 15 15 15
-2.5164270401000977 -1.1622874736785889 8.649371147155762 15 15 15
-2.4410793781280518 0.02156178466975689 8.560659408569336 254 254 254
-2.5731570720672607 0.2916352152824402 9.034002304077148 107 107 107
-2.23427414894104 2.987213611602783 7.850147247314453 98 98 98
-2.208319664001465 1.60360848903656 7.785792827606201 131 131 131
-2.189018726348877 2.134835958480835 7.820296287536621 103 103 103
-2.1199052333831787 2.265690326690674 7.757394313812256 94 94 94
-2.070005178451538 -3.4719948768615723 7.649625778198242 130 130 130
-2.1028077602386475 2.112828493118286 7.782687664031982 115 115 115
-2.314337730407715 0.1180940717458725 8.586233139038086 254 254 254
-2.100895643234253 1.4224586486816406 7.8161211013793945 110 110 110
-2.1022441387176514 1.8430299758911133 7.822478294372559 121 121 121
-2.073596715927124 1.6543437242507935 7.746647834777832 124 124 124
-2.2739357948303223 0.008609194308519363 8.590255737304688 139 139 139
-2.2207674980163574 -0.2010016143321991 8.530707359313965 243 243 243
-1.7299197912216187 0.29556959867477417 6.7002692222595215 80 80 80
-1.9995347261428833 1.2720088958740234 7.841737270355225 19 19 19
-1.9383207559585571 0.5257923603057861 7.799005508422852 63 63 63
-2.0044257640838623 0.39021551609039307 8.074433326721191 128 128 128
-1.8663674592971802 2.0780417919158936 7.825160980224609 115 115 115
-1.8034788370132446 -2.7390997409820557 7.5877156257629395 111 111 111
-1.8076794147491455 0.6279445886611938 7.802230358123779 122 122 122
-1.8191474676132202 2.5409095287323 7.8555450439453125 102 102 102
-1.8110151290893555 2.742072582244873 7.864309787750244 108 108 108
-1.796123743057251 1.2705464363098145 7.8826375007629395 20 20 20
-1.7794678211212158 -2.4203431606292725 7.8235859870910645 25 25 25
-1.7763307094573975 1.5427250862121582 7.853080749511719 121 121 121
-1.7548843622207642 1.5862700939178467 7.806217670440674 126 126 126
-1.7405753135681152 1.6728447675704956 7.854132652282715 137 137 137
-1.7154908180236816 1.5499753952026367 7.864279747009277 114 114 114
-1.6805225610733032 1.4213083982467651 7.8642754554748535 56 56 56
-1.653143048286438 0.533652663230896 7.882801532745361 63 63 63
-1.545506238937378 -2.81147837638855 7.7849955558776855 183 183 183
-1.2541693449020386 3.8382813930511475 6.399999618530273 122 122 122
-1.3983030319213867 1.4970980882644653 7.915529251098633 15 15 15
-1.3543941974639893 1.5290136337280273 7.898829936981201 160 160 160
-1.3543941974639893 1.5290136337280273 7.898829936981201 160 160 160
-1.3447318077087402 2.969871759414673 7.927156448364258 134 134 134
-1.3468197584152222 1.4877384901046753 7.941254138946533 24 24 24
-1.3329331874847412 3.016493558883667 7.918128490447998 65 65 65
-1.313347578048706 0.9477156400680542 7.817259311676025 44 44 44
-1.2875930070877075 0.6309606432914734 7.786947727203369 122 122 122
-1.306671142578125 1.8145474195480347 7.939669132232666 103 103 103
-1.2948298454284668 1.907466173171997 7.942964553833008 121 121 121
-1.2632040977478027 2.0316338539123535 7.963364601135254 100 100 100
-1.2559951543807983 1.9966073036193848 7.9537577629089355 137 137 137
-1.2386605739593506 1.8182220458984375 7.949189186096191 48 48 48
-1.227569341659546 1.7999180555343628 7.878172397613525 48 48 48
-1.1935722827911377 2.0096888542175293 7.961204528808594 91 91 91
-1.168833613395691 0.4535347521305084 7.929989814758301 88 88 88
-1.121802806854248 1.592000961303711 7.93565559387207 121 121 121
-1.0488699674606323 1.4707026481628418 8.048788070678711 30 30 30
-1.0157268047332764 2.0708117485046387 8.033291816711426 54 54 54
-1.001367211341858 1.6430110931396484 7.956540107727051 56 56 56
-0.964516282081604 1.5760905742645264 7.934111595153809 99 99 99
-0.9404320120811462 -2.7601912021636963 7.820418834686279 102 102 102
-0.9611873626708984 -2.9591498374938965 8.002938270568848 94 94 94
-0.9128218293190002 1.5819523334503174 7.947874069213867 98 98 98
-0.9297370910644531 -0.9589287638664246 8.213885307312012 255 255 255
-0.8668230772018433 2.7163901329040527 7.703292369842529 23 23 23
-0.8782122731208801 0.9062843918800354 7.943220138549805 56 56 56
-0.8044692277908325 3.0925376415252686 7.855597496032715 112 112 112
-0.7584869265556335 2.3451852798461914 7.863296985626221 47 47 47
-0.7477326393127441 1.2614816427230835 8.026335716247559 19 19 19
-0.7192288041114807 0.9896512627601624 7.995286464691162 42 42 42
-0.7159088253974915 -2.7699882984161377 7.961245059967041 91 91 91
-0.6711843609809875 1.405655026435852 7.993082523345947 137 137 137
-0.6563114523887634 0.889157235622406 7.970151901245117 187 187 187
-0.6551507115364075 1.1082361936569214 8.030025482177734 53 53 53
-0.6058084964752197 1.0273953676223755 7.987585067749023 132 132 132
-0.5530412197113037 0.7574080228805542 7.785749435424805 96 96 96
-0.5265754461288452 2.6882424354553223 7.6063103675842285 53 53 53
-0.5465089678764343 1.3102282285690308 8.011326789855957 33 33 33
-0.46638551354408264 3.5734238624572754 6.977051258087158 70 70 70
-0.5201607942581177 2.4569649696350098 7.8841729164123535 124 124 124
-0.4785386919975281 2.425898790359497 7.725749969482422 131 131 131
-0.4962502717971802 -2.204414129257202 8.255411148071289 211 211 211
-0.3859727680683136 3.601485252380371 6.977606773376465 55 55 55
-0.4033498466014862 2.2291555404663086 8.087281227111816 141 141 141
-0.38074955344200134 0.21984796226024628 8.180215835571289 190 190 190
-0.2987009584903717 2.4823997020721436 7.628522872924805 42 42 42
-0.2946608364582062 2.1288001537323 8.08457088470459 33 33 33
-0.2913762032985687 1.7727859020233154 8.110033988952637 80 80 80
-0.19683265686035156 3.1150782108306885 7.866315841674805 12 12 12
-0.18853111565113068 -2.4908347129821777 7.920726299285889 25 25 25
-0.17585070431232452 1.2276767492294312 7.973648548126221 56 56 56
-0.17585070431232452 1.2276767492294312 7.973648548126221 56 56 56
-0.16108354926109314 2.2556889057159424 7.884322166442871 119 119 119
-0.13530878722667694 2.042741060256958 8.012665748596191 40 40 40
-0.13530878722667694 2.042741060256958 8.012665748596191 40 40 40
-0.12462913990020752 1.261059284210205 8.115080833435059 19 19 19
-0.11447940021753311 3.311584234237671 7.700933933258057 45 45 45
-0.09569299221038818 3.1232283115386963 7.847168445587158 116 116 116
-0.07241924852132797 1.085809350013733 8.123392105102539 82 82 82
0.17229440808296204 0.37880563735961914 7.630781650543213 137 137 137
0.2881568670272827 2.5199172496795654 7.070812225341797 38 38 38
0.3429888188838959 2.158087968826294 7.040947437286377 24 24 24
0.37840211391448975 2.4247097969055176 7.094135284423828 19 19 19
0.38450390100479126 -0.6399582028388977 6.866053581237793 38 38 38
0.3671514689922333 3.912935495376587 6.472680568695068 52 52 52
0.39379581809043884 -0.5405395030975342 6.91228723526001 56 56 56
0.6123624444007874 1.3913698196411133 7.010919570922852 26 26 26
0.6662403345108032 0.3148239254951477 6.944092750549316 123 123 123
0.7045617699623108 3.5855915546417236 6.985555648803711 88 88 88
0.7168872356414795 -2.647301197052002 6.826988697052002 223 223 223
