ply
format ascii 1.0
element vertex 144
property float x
property float y
property float z
property uchar red
property uchar green
property uchar blue
end_header
-2.6682183742523193 -1.8298537731170654 6.298118591308594 60 60 60
-2.3611950874328613 -2.7558181285858154 5.585278511047363 36 36 36
-2.3627748489379883 -2.7350680828094482 5.627351760864258 111 111 111
-2.374232769012451 -2.120419979095459 5.731192588806152 34 34 34
-2.367180109024048 -2.093003749847412 5.714305877685547 37 37 37
-2.3345375061035156 -2.7798995971679688 5.689750671386719 33 33 33
-2.5432753562927246 -1.7984248399734497 6.192784786224365 168 168 168
-2.5242068767547607 -0.13715359568595886 6.2383551597595215 160 160 160
-2.5242068767547607 -0.13715359568595886 6.2383551597595215 160 160 160
-2.496626138687134 2.0014705657958984 6.175830841064453 62 62 62
-2.4021072387695312 -1.9361956119537354 6.147857666015625 42 42 42
-2.420207977294922 -1.8843085765838623 6.19806432723999 159 159 159
-2.420207977294922 -1.8843085765838623 6.19806432723999 159 159 159
-2.39780855178833 -1.932741403579712 6.2117719650268555 137 137 137
-2.400668144226074 -1.9359203577041626 6.218528747558594 137 137 137
-2.3400187492370605 -2.0696516036987305 6.094020843505859 33 33 33
-2.3695790767669678 -1.9855512380599976 6.184240818023682 33 33 33
-2.365558624267578 -1.9396259784698486 6.215788841247559 45 45 45
-2.3688619136810303 -0.09297153353691101 6.235829830169678 139 139 139
-2.3478353023529053 -0.8976230025291443 6.310675144195557 40 40 40
-2.3072092533111572 0.307859867811203 6.268085479736328 33 33 33
-2.279184103012085 1.4896413087844849 6.197813510894775 125 125 125
-2.1803879737854004 -2.160943031311035 5.972177028656006 130 130 130
-2.255847930908203 -1.972290277481079 6.187739372253418 102 102 102
-2.2455663681030273 -2.1421239376068115 6.182180881500244 33 33 33
-2.2455663681030273 -2.1421239376068115 6.182180881500244 33 33 33
-2.264320135116577 -1.6548937559127808 6.237022399902344 21 21 21
-2.2525954246520996 2.153013229370117 6.218196392059326 33 33 33
-2.2569925785064697 3.101897954940796 6.235319137573242 29 29 29
-2.2607579231262207 0.6502124667167664 6.256490230560303 56 56 56
-2.2597503662109375 -1.4257417917251587 6.261826515197754 86 86 86
-2.2340216636657715 -1.1610602140426636 6.228085994720459 73 73 73
-2.2086503505706787 0.04022032022476196 6.189050197601318 113 113 113
-2.179367780685425 0.939693033695221 6.16046667098999 81 81 81
-2.1291303634643555 -1.8859127759933472 6.117732524871826 40 40 40
-2.1345558166503906 -1.3913536071777344 6.146975040435791 37 37 37
-2.1345558166503906 -1.3913536071777344 6.146975040435791 37 37 37
-2.0714027881622314 -1.9866595268249512 6.072875022888184 130 130 130
-2.022984743118286 2.6299476623535156 6.084103584289551 28 28 28
-1.9251508712768555 2.3694305419921875 6.115298271179199 89 89 89
-2.013617515563965 -1.4203206300735474 6.498096942901611 38 38 38
-1.9967318773269653 -1.9184852838516235 6.45876932144165 47 47 47
-1.9662795066833496 -0.4146163761615753 6.4473185539245605 32 32 32
-2.085667371749878 -2.412473440170288 6.861153602600098 107 107 107
-2.085667371749878 -2.412473440170288 6.861153602600098 107 107 107
-1.9811278581619263 -1.1631639003753662 6.544286727905273 30 30 30
-1.9796583652496338 -0.9178609251976013 6.60414457321167 31 31 31
-1.8741501569747925 -2.045469284057617 6.737618446350098 122 122 122
-1.8732722997665405 -1.5727251768112183 6.77304220199585 119 119 119
-1.8867721557617188 -1.7020601034164429 6.841238975524902 37 37 37
-1.839371919631958 -1.2487353086471558 6.758448600769043 114 114 114
-1.827903151512146 -2.1282408237457275 6.739511013031006 123 123 123
-1.7960636615753174 -1.6443116664886475 6.657223224639893 32 32 32
-1.8503628969192505 -1.2259763479232788 7.035404682159424 18 18 18
-1.8445818424224854 -1.3542689085006714 7.028273105621338 18 18 18
-1.8168184757232666 -1.3385124206542969 6.938616752624512 18 18 18
-1.7682150602340698 -1.44142746925354 6.770153999328613 22 22 22
-1.7845337390899658 -0.6731248497962952 6.843436241149902 40 40 40
-1.8068243265151978 -2.1634747982025146 6.9406609535217285 24 24 24
-1.7480955123901367 -0.18984165787696838 6.775359630584717 31 31 31
-1.6763826608657837 -2.759124755859375 6.666098594665527 32 32 32
-1.6763826608657837 -2.759124755859375 6.666098594665527 32 32 32
-1.771058201789856 -2.280681848526001 7.050697326660156 102 102 102
-1.6569386720657349 -1.692714810371399 7.291635036468506 14 14 14
-1.6338895559310913 -1.1132575273513794 7.3294219970703125 107 107 107
-1.6228746175765991 -2.3165833950042725 7.341785907745361 87 87 87
-1.4266436100006104 3.08127760887146 7.069974899291992 57 57 57
-1.4161040782928467 3.062222957611084 7.0804619789123535 19 19 19
-1.5193089246749878 -1.3810386657714844 7.826457977294922 21 21 21
-1.3777767419815063 3.594473361968994 7.119346618652344 26 26 26
-1.6620222330093384 -1.83585786819458 8.737828254699707 109 109 109
-1.6620222330093384 -1.83585786819458 8.737828254699707 109 109 109
-1.33974289894104 2.563175678253174 7.222202301025391 20 20 20
-1.2850128412246704 3.039280891418457 7.263185501098633 19 19 19
-1.513900637626648 -1.5986284017562866 8.583174705505371 29 29 29
-1.450317144393921 -1.4958056211471558 8.477874755859375 120 120 120
-1.4203523397445679 -1.3410414457321167 8.357362747192383 29 29 29
-1.2296643257141113 2.581963300704956 7.454783916473389 24 24 24
-1.5085363388061523 -1.9454472064971924 9.144073486328125 58 58 58
-1.4515776634216309 -2.387968063354492 8.828063011169434 27 27 27
-1.2096127271652222 2.624481678009033 7.475679397583008 54 54 54
-1.1751701831817627 3.0477216243743896 7.5086894035339355 21 21 21
-1.2360785007476807 -2.242610454559326 8.609076499938965 81 81 81
-1.2194308042526245 -1.6516320705413818 8.995746612548828 39 39 39
-1.0377029180526733 2.7992753982543945 7.740349292755127 18 18 18
0.8090415000915527 3.5517642498016357 7.737602233886719 16 16 16
2.4669148921966553 -1.2076025009155273 12.975664138793945 93 93 93
2.304497718811035 -1.7405263185501099 11.724796295166016 16 16 16
2.658358097076416 -1.1790374517440796 12.997422218322754 112 112 112
2.331871747970581 -1.6274532079696655 11.281886100769043 22 22 22
3.0769035816192627 1.8518341779708862 14.213923454284668 51 51 51
2.5925204753875732 -1.7766798734664917 11.975689888000488 195 195 195
2.8212168216705322 -1.3624204397201538 13.001988410949707 132 132 132
3.189620018005371 1.3109194040298462 14.361153602600098 104 104 104
3.055280923843384 -1.9315528869628906 13.18338680267334 39 39 39
3.1530442237854004 -1.6472080945968628 13.559209823608398 42 42 42
3.8331570625305176 2.231109619140625 16.42327117919922 154 154 154
3.8374428749084473 2.1541519165039062 16.23301124572754 48 48 48
3.743952989578247 3.147244691848755 15.704556465148926 94 94 94
3.7740330696105957 2.1932036876678467 15.786332130432129 106 106 106
4.144632816314697 2.256162405014038 17.255945205688477 123 123 123
3.003221035003662 -2.151139259338379 12.328635215759277 142 142 142
3.258758068084717 -1.824097752571106 13.35695743560791 86 86 86
3.258758068084717 -1.824097752571106 13.35695743560791 86 86 86
3.5152063369750977 -0.9840542674064636 14.301718711853027 125 125 125
4.019541263580322 2.763108015060425 16.098220825195312 20 20 20
3.557765483856201 -2.0776846408843994 13.86946964263916 160 160 160
4.068337917327881 0.16987480223178864 15.457948684692383 61 61 61
4.224533557891846 1.8716400861740112 16.029769897460938 43 43 43
4.314787864685059 1.4581713676452637 16.358266830444336 53 53 53
4.68687105178833 1.1082872152328491 17.715408325195312 47 47 47
3.9408440589904785 -0.6409187316894531 14.959748268127441 101 101 101
4.276920318603516 -0.2628006339073181 16.147489547729492 84 84 84
3.9672534465789795 -1.9851746559143066 14.961302757263184 161 161 161
4.001733779907227 -1.2124184370040894 14.990811347961426 148 148 148
4.436245918273926 1.2463819980621338 16.56620979309082 85 85 85
4.436245918273926 1.2463819980621338 16.56620979309082 85 85 85
4.403808116912842 1.5083882808685303 16.434226989746094 38 38 38
4.659030437469482 1.876427173614502 17.02215003967285 88 88 88
4.162771701812744 -2.109631299972534 15.049100875854492 170 170 170
7.278105735778809 2.7131388187408447 21.45693588256836 89 89 89
8.05207347869873 2.6671245098114014 22.96315574645996 32 32 32
7.4116692543029785 -0.6631508469581604 21.08806610107422 28 28 28
7.478298187255859 0.10537010431289673 21.260608673095703 34 34 34
7.101607322692871 -1.348924994468689 20.175609588623047 26 26 26
7.236149311065674 -0.9935054183006287 20.55743980407715 28 28 28
7.5102739334106445 -2.2572007179260254 21.209274291992188 22 22 22
10.31176471710205 1.6817671060562134 28.822925567626953 77 77 77
7.901672840118408 -1.6951041221618652 21.529739379882812 30 30 30
7.884958267211914 -2.167534828186035 21.473220825195312 23 23 23
8.29886531829834 -1.6144849061965942 22.17694664001465 172 172 172
9.012170791625977 -1.9698781967163086 23.402950286865234 201 201 201
8.781808853149414 -0.4527515172958374 22.736862182617188 144 144 144
5.179797649383545 -3.6700642108917236 13.346217155456543 250 250 250
9.731315612792969 -2.4257266521453857 24.842859268188477 27 27 27
9.519891738891602 -0.7594703435897827 24.079814910888672 29 29 29
9.831021308898926 -0.9641266465187073 24.806161880493164 40 40 40
10.331393241882324 -0.12624454498291016 25.040937423706055 56 56 56
11.606736183166504 -1.0369969606399536 27.599105834960938 29 29 29
11.405783653259277 -0.6611629724502563 27.09893035888672 28 28 28
11.713476181030273 -0.3967079520225525 27.828968048095703 29 29 29
13.79649829864502 -1.6685632467269897 31.067087173461914 45 45 45
14.729072570800781 0.32041242718696594 33.09749221801758 54 54 54
14.953054428100586 1.6886364221572876 33.519290924072266 53 53 53
