ply
format ascii 1.0
element vertex 287
property float x
property float y
property float z
property uchar red
property uchar green
property uchar blue
end_header
-2.6789162158966064 -1.6485090255737305 5.4656171798706055 22 22 22
-2.8018746376037598 0.14543351531028748 5.771219730377197 143 143 143
-2.8110666275024414 0.5051946640014648 5.795664310455322 134 134 134
-2.8239150047302246 0.8162071704864502 5.8247199058532715 56 56 56
-2.6818079948425293 -1.1958110332489014 5.5345988273620605 33 33 33
-2.633634328842163 -1.6666158437728882 5.457136631011963 117 117 117
-2.7837436199188232 0.516525149345398 5.793665409088135 22 22 22
-2.7891528606414795 0.784206211566925 5.805054187774658 92 92 92
-2.831873893737793 1.1654901504516602 5.897818565368652 55 55 55
-2.6655595302581787 -0.9308661818504333 5.56887674331665 28 28 28
-2.6428139209747314 -1.1394399404525757 5.524887561798096 104 104 104
-2.7866177558898926 0.8018582463264465 5.857071876525879 21 21 21
-2.808255672454834 1.895647644996643 5.98718786239624 105 105 105
-2.7251696586608887 0.4749370515346527 5.814305305480957 32 32 32
-2.7693991661071777 1.4811792373657227 5.973143100738525 30 30 30
-2.68093204498291 0.46299290657043457 5.812613010406494 62 62 62
-2.6571855545043945 0.15415814518928528 5.770262241363525 47 47 47
-2.626957654953003 -0.23985573649406433 5.705960273742676 23 23 23
-2.4001271724700928 -2.9450292587280273 5.264723300933838 99 99 99
-2.646054744720459 0.4563395082950592 5.837487697601318 16 16 16
-2.6154000759124756 0.12541258335113525 5.772167205810547 44 44 44
-2.8693642616271973 3.9565417766571045 6.338447570800781 18 18 18
-2.7563300132751465 2.8099417686462402 6.114126682281494 49 49 49
-2.578441858291626 -0.22505789995193481 5.743342399597168 35 35 35
-2.3235390186309814 -3.3355491161346436 5.268372535705566 97 97 97
-2.7152817249298096 2.8440237045288086 6.196913242340088 115 115 115
-2.6223878860473633 1.5048069953918457 6.019040584564209 119 119 119
-2.422821283340454 -1.1058655977249146 5.606493949890137 100 100 100
-2.6745076179504395 3.1890652179718018 6.242888450622559 99 99 99
-2.27066707611084 -3.401909112930298 5.3112969398498535 23 23 23
-2.603158712387085 1.799504041671753 6.103966236114502 21 21 21
-2.2951884269714355 -2.7087979316711426 5.392188549041748 80 80 80
-2.2654130458831787 -3.0092313289642334 5.339505672454834 24 24 24
-2.470993995666504 0.11192753165960312 5.8281755447387695 34 34 34
-2.3279800415039062 -1.973258137702942 5.507251739501953 37 37 37
-2.386997699737549 -1.011888861656189 5.658495903015137 115 115 115
-2.5485780239105225 1.7644978761672974 6.071118354797363 115 115 115
-2.354362964630127 -1.230494499206543 5.6120781898498535 123 123 123
-2.228127956390381 -3.3427541255950928 5.313100337982178 96 96 96
-2.2713563442230225 -2.692495584487915 5.426346778869629 17 17 17
-2.4940073490142822 0.45972785353660583 5.9582624435424805 51 51 51
-2.3361992835998535 -0.9558104872703552 5.629518032073975 104 104 104
-2.575507879257202 2.840161085128784 6.220274448394775 110 110 110
-2.4161911010742188 0.1407424360513687 5.849655628204346 134 134 134
-2.2168636322021484 -2.981618642807007 5.37265157699585 94 94 94
-2.2168636322021484 -2.981618642807007 5.37265157699585 94 94 94
-2.5703299045562744 2.8302652835845947 6.245885848999023 18 18 18
-2.5890276432037354 3.783447265625 6.292450428009033 16 16 16
-2.5433175563812256 2.4919118881225586 6.18301248550415 122 122 122
-2.5663249492645264 2.866014003753662 6.240152835845947 17 17 17
-2.5663249492645264 2.866014003753662 6.240152835845947 17 17 17
-2.2540807723999023 -2.0087759494781494 5.531126499176025 92 92 92
-2.215471029281616 -2.28320574760437 5.4784040451049805 20 20 20
-2.2170920372009277 -2.3172903060913086 5.482776641845703 29 29 29
-2.218534469604492 -2.2398202419281006 5.489971160888672 18 18 18
-2.132392168045044 -3.3322200775146484 5.319771766662598 88 88 88
-2.526115894317627 3.16353178024292 6.324835777282715 17 17 17
-2.3410706520080566 0.14027224481105804 5.892520904541016 134 134 134
-2.2216532230377197 -1.2959955930709839 5.6589531898498535 30 30 30
-2.2530784606933594 -0.23943787813186646 5.812862873077393 63 63 63
-2.1817073822021484 -0.8947775363922119 5.749598979949951 106 106 106
-2.0360233783721924 -3.006594657897949 5.414078235626221 95 95 95
-2.212329149246216 0.07763095200061798 5.915748119354248 25 25 25
-2.206094741821289 0.08429931849241257 5.923730850219727 14 14 14
-2.174180030822754 0.12454898655414581 5.899330139160156 154 154 154
-1.9724247455596924 -3.3459742069244385 5.373261451721191 90 90 90
-2.142666816711426 -0.25189700722694397 5.887838840484619 44 44 44
-2.1588194370269775 0.08966223895549774 5.93327522277832 60 60 60
-2.1588194370269775 0.08966223895549774 5.93327522277832 60 60 60
-2.1376023292541504 0.4975660741329193 5.964906215667725 100 100 100
-2.17474365234375 1.448529601097107 6.149325370788574 72 72 72
-2.1820037364959717 1.8675616979599 6.205180644989014 109 109 109
-2.0661263465881348 0.02205429971218109 5.906825542449951 131 131 131
-2.0661263465881348 0.02205429971218109 5.906825542449951 131 131 131
-1.859566569328308 -3.337526798248291 5.427539825439453 87 87 87
-1.843794345855713 -3.0349764823913574 5.450899600982666 27 27 27
-2.0774388313293457 1.8617573976516724 6.208508014678955 56 56 56
-2.088789463043213 2.0859408378601074 6.265198707580566 17 17 17
-1.82002592086792 -3.0140020847320557 5.4666218757629395 81 81 81
-1.8051472902297974 -3.391373634338379 5.435582637786865 26 26 26
-1.8317276239395142 -2.6120591163635254 5.530139446258545 113 113 113
-2.07224440574646 2.4561636447906494 6.354624271392822 16 16 16
-2.079268217086792 3.1225578784942627 6.424753189086914 18 18 18
-1.7665834426879883 -3.354886054992676 5.461119651794434 100 100 100
-1.7683147192001343 -3.100712776184082 5.4933977127075195 110 110 110
-1.7716633081436157 -2.6795923709869385 5.554676532745361 34 34 34
-1.785945177078247 -2.3777379989624023 5.609435558319092 56 56 56
-1.778369665145874 -1.232507348060608 5.739631175994873 93 93 93
-1.7641148567199707 -1.6807818412780762 5.744228839874268 23 23 23
-1.7223583459854126 -1.9763332605361938 5.689892768859863 111 111 111
-1.7223583459854126 -1.9763332605361938 5.689892768859863 111 111 111
-1.7221839427947998 -1.705446720123291 5.751430988311768 111 111 111
-1.739966630935669 -0.9738360643386841 5.857630252838135 29 29 29
-1.62397301197052 -3.0348169803619385 5.508658409118652 37 37 37
-1.82628333568573 0.787449300289154 6.204096794128418 167 167 167
-1.7133389711380005 -1.007623553276062 5.887153625488281 100 100 100
-1.7133389711380005 -1.007623553276062 5.887153625488281 100 100 100
-1.5711673498153687 -3.051952838897705 5.547791481018066 22 22 22
-1.7235957384109497 0.35159996151924133 6.096760272979736 78 78 78
-1.6894134283065796 0.06886604428291321 6.090191841125488 61 61 61
-1.6814135313034058 1.149341344833374 6.08056116104126 126 126 126
-1.6561641693115234 -0.3228602707386017 5.991869926452637 108 108 108
-1.645723581314087 -0.6273397207260132 5.9735307693481445 54 54 54
-1.5399280786514282 -2.3143012523651123 5.695716857910156 66 66 66
-1.6707310676574707 1.7945970296859741 6.277584552764893 57 57 57
-1.651754379272461 2.7700889110565186 6.500953197479248 16 16 16
-1.651750087738037 2.771364212036133 6.500978946685791 16 16 16
-1.651750087738037 2.771364212036133 6.500978946685791 16 16 16
-1.655327320098877 2.750300645828247 6.527260780334473 17 17 17
-1.545559048652649 0.18134872615337372 6.110233306884766 84 84 84
-1.545559048652649 0.18134872615337372 6.110233306884766 84 84 84
-1.6549116373062134 3.4275617599487305 6.629654884338379 19 19 19
-1.5844855308532715 2.4119036197662354 6.447589874267578 96 96 96
-1.373844861984253 -3.40118145942688 5.606692790985107 79 79 79
-1.6182045936584473 3.4327962398529053 6.632399082183838 82 82 82
-1.3377834558486938 -3.0627942085266113 5.6241679191589355 34 34 34
-1.3204296827316284 -3.4304072856903076 5.590756416320801 27 27 27
-1.3257871866226196 -3.0250751972198486 5.636325359344482 83 83 83
-1.4630249738693237 2.373300075531006 6.449025630950928 17 17 17
-1.4005179405212402 0.7555802464485168 6.216916084289551 180 180 180
-1.4005179405212402 0.7555802464485168 6.216916084289551 180 180 180
-1.2672574520111084 -3.0066604614257812 5.670525074005127 113 113 113
-1.3866386413574219 1.1837998628616333 6.300354957580566 52 52 52
-1.2227369546890259 -3.441969871520996 5.573401927947998 107 107 107
-1.3404217958450317 0.046625860035419464 6.129051685333252 53 53 53
-1.308875322341919 -0.6964340806007385 6.008420944213867 106 106 106
-1.3027609586715698 -0.9961097836494446 5.992098808288574 47 47 47
-1.3027609586715698 -0.9961097836494446 5.992098808288574 47 47 47
-1.325879693031311 -0.2555188536643982 6.126928806304932 131 131 131
-1.1810592412948608 -3.5683796405792236 5.566338539123535 140 140 140
-1.2772618532180786 -0.7029047012329102 6.058429718017578 19 19 19
-1.2772618532180786 -0.7029047012329102 6.058429718017578 19 19 19
-1.1608458757400513 -3.5849921703338623 5.566993236541748 121 121 121
-1.255937099456787 -0.1704162210226059 6.1362996101379395 115 115 115
-1.3056581020355225 1.4958258867263794 6.4057297706604 96 96 96
-1.2113288640975952 -0.9343804717063904 5.94424295425415 115 115 115
-1.2113288640975952 -0.9343804717063904 5.94424295425415 115 115 115
-1.2603425979614258 0.6846014261245728 6.268049240112305 143 143 143
-1.114701271057129 -3.6877622604370117 5.581249713897705 110 110 110
-1.2237696647644043 -0.24494564533233643 6.157473087310791 133 133 133
-1.2398512363433838 0.42962387204170227 6.262728691101074 31 31 31
-1.111013650894165 -2.9818973541259766 5.66847562789917 132 132 132
-1.2168256044387817 0.45115718245506287 6.262099266052246 217 217 217
-1.2206403017044067 1.454000473022461 6.3672895431518555 67 67 67
-1.0696580410003662 -2.98290753364563 5.7088117599487305 77 77 77
-1.064278483390808 -3.211134195327759 5.708254337310791 40 40 40
-1.0436410903930664 -3.4676003456115723 5.655546188354492 128 128 128
-1.0098059177398682 -3.4851319789886475 5.634372711181641 107 107 107
-1.1748814582824707 2.693510055541992 6.62365198135376 16 16 16
-1.0598666667938232 -1.3621134757995605 6.046022891998291 48 48 48
-1.0598666667938232 -1.3621134757995605 6.046022891998291 48 48 48
-0.9983260631561279 -3.103472948074341 5.719998359680176 94 94 94
-1.1657710075378418 3.0502264499664307 6.695366382598877 14 14 14
-0.9960800409317017 -3.005251407623291 5.748238563537598 104 104 104
-1.1236801147460938 2.037532329559326 6.56157922744751 23 23 23
-1.101043701171875 1.6268608570098877 6.465123176574707 101 101 101
-0.9580776691436768 -3.470369338989258 5.677934646606445 106 106 106
-1.0693085193634033 1.2966307401657104 6.425589084625244 59 59 59
-1.0873838663101196 1.9569979906082153 6.542849540710449 107 107 107
-0.9966090321540833 -1.355826735496521 6.0380940437316895 47 47 47
-0.9385820031166077 -3.3657445907592773 5.71552038192749 107 107 107
-1.0660125017166138 1.8090898990631104 6.547523498535156 79 79 79
-1.027000069618225 0.643332302570343 6.321288585662842 62 62 62
-0.9070667624473572 -3.41896390914917 5.689978122711182 30 30 30
-0.9769022464752197 -0.6486090421676636 6.1780219078063965 11 11 11
-0.9105950593948364 -3.0177721977233887 5.7687482833862305 94 94 94
-0.9954754710197449 0.9212805032730103 6.411868095397949 45 45 45
-1.0067245960235596 1.7229149341583252 6.573053359985352 22 22 22
-0.9677470922470093 1.7072299718856812 6.556450843811035 16 16 16
-0.8433125019073486 -3.4225575923919678 5.755645275115967 103 103 103
-0.8557987809181213 -2.4956183433532715 5.865951061248779 36 36 36
-0.8339274525642395 -3.4039299488067627 5.726947784423828 108 108 108
-0.8539584279060364 -2.4650301933288574 5.885612964630127 35 35 35
-0.8900818824768066 -0.6791813373565674 6.14952278137207 25 25 25
-0.8241543173789978 -3.433795928955078 5.725372314453125 28 28 28
-0.8177390694618225 -3.238150119781494 5.770413875579834 124 124 124
-0.8416720628738403 -1.732917308807373 5.991849422454834 49 49 49
-0.8389620780944824 -1.8757072687149048 6.000378131866455 76 76 76
-0.859966516494751 -0.6313542127609253 6.208630561828613 109 109 109
-0.7985162138938904 -3.135862350463867 5.774643898010254 16 16 16
-0.8414022326469421 -1.202133297920227 6.091017723083496 101 101 101
-0.7923362255096436 -3.2980544567108154 5.746979236602783 124 124 124
-0.7923362255096436 -3.2980544567108154 5.746979236602783 124 124 124
-0.7959036827087402 -3.0979995727539062 5.785800933837891 30 30 30
-0.8170562982559204 -1.8197481632232666 6.023227214813232 107 107 107
-0.8089329600334167 -1.3761810064315796 6.069768905639648 20 20 20
-0.8385184407234192 0.3276289105415344 6.349972724914551 71 71 71
-0.821854829788208 -0.36133185029029846 6.224712371826172 103 103 103
-0.7595994472503662 -3.1946792602539062 5.775752067565918 41 41 41
-0.8081743121147156 0.870419442653656 6.428674221038818 89 89 89
-0.8042237162590027 0.9743870496749878 6.450234889984131 95 95 95
-0.7783514857292175 -0.3412283658981323 6.271246910095215 22 22 22
-0.7251588702201843 -3.106936454772949 5.885456562042236 31 31 31
-0.7165341973304749 -2.2077367305755615 5.949934482574463 96 96 96
-0.7744565010070801 1.4049196243286133 6.553017616271973 23 23 23
-0.6847923994064331 -3.145249366760254 5.817385673522949 28 28 28
-0.7608359456062317 1.0184683799743652 6.498985290527344 23 23 23
-0.7738230228424072 1.6771235466003418 6.615187644958496 15 15 15
-0.7696528434753418 1.6422126293182373 6.598312854766846 5 5 5
-0.715650200843811 -0.6812471151351929 6.19459867477417 44 44 44
-0.7494632005691528 2.6888976097106934 6.774796009063721 15 15 15
-0.6351312398910522 -2.967832088470459 5.861114025115967 100 100 100
-0.6398669481277466 -0.3324246108531952 6.280084133148193 31 31 31
-0.5688657760620117 -2.0701217651367188 6.0385518074035645 24 24 24
-0.5688657760620117 -2.0701217651367188 6.0385518074035645 24 24 24
-0.5471424460411072 -3.179487466812134 5.827064514160156 29 29 29
-0.5316373109817505 -3.3607394695281982 5.804210662841797 81 81 81
-0.5323222875595093 -1.3794612884521484 6.174320220947266 53 53 53
-0.5533906817436218 0.8094626665115356 6.528175354003906 63 63 63
-0.5150017142295837 0.7515586614608765 6.508349895477295 150 150 150
-0.49937596917152405 0.7723167538642883 6.514084815979004 138 138 138
-0.4973885118961334 0.8327233791351318 6.5183258056640625 85 85 85
-0.4617254436016083 -1.3878108263015747 6.195058822631836 52 52 52
-0.46319782733917236 -0.24615228176116943 6.254738807678223 103 103 103
-0.46747103333473206 0.9273084998130798 6.528759956359863 41 41 41
-0.45830005407333374 0.8005617260932922 6.51603364944458 76 76 76
-0.40947380661964417 -1.7392747402191162 6.166426181793213 38 38 38
-0.42730513215065 0.6919764876365662 6.4923014640808105 135 135 135
-0.3993643522262573 -2.107009172439575 6.074855327606201 99 99 99
-0.3993643522262573 -2.107009172439575 6.074855327606201 99 99 99
-0.42818009853363037 0.7711519598960876 6.62451696395874 52 52 52
-0.3711602985858917 -3.3762290477752686 5.8545989990234375 71 71 71
-0.3725535571575165 -2.768672466278076 6.003751277923584 22 22 22
-0.3635488450527191 -3.114577293395996 5.912173748016357 78 78 78
-0.364692360162735 -2.075223684310913 6.088747978210449 26 26 26
-0.3670584261417389 -1.726711630821228 6.158986568450928 27 27 27
-0.3553362786769867 -2.714568614959717 5.990681171417236 78 78 78
-0.3592000901699066 -2.138404369354248 6.1026225090026855 38 38 38
-0.36267033219337463 -1.4974948167800903 6.182773590087891 27 27 27
-0.38202786445617676 0.8650504350662231 6.56003999710083 41 41 41
-0.3466265797615051 -2.4012699127197266 6.06702995300293 24 24 24
-0.3499937951564789 -1.4124749898910522 6.24407958984375 21 21 21
-0.3499937951564789 -1.4124749898910522 6.24407958984375 21 21 21
-0.3320111036300659 -2.862905979156494 5.953787803649902 68 68 68
-0.3368954360485077 -2.341097593307495 6.070794105529785 99 99 99
-0.33492374420166016 0.8623984456062317 6.564560413360596 53 53 53
-0.2996644973754883 -2.246737003326416 6.079751491546631 87 87 87
-0.30415579676628113 -1.4002584218978882 6.252447128295898 23 23 23
-0.3043018877506256 -0.7131761908531189 6.351805210113525 23 23 23
-0.2842065095901489 -0.6810870170593262 6.343849182128906 74 74 74
-0.28803184628486633 0.9818477034568787 6.613809585571289 27 27 27
-0.21577562391757965 -2.0317673683166504 6.127584934234619 73 73 73
-0.21443824470043182 -0.2875184714794159 6.431772708892822 99 99 99
-0.17034901678562164 -2.753170967102051 6.030113697052002 22 22 22
-0.030808908864855766 1.1441470384597778 6.2649126052856445 59 59 59
0.5048415064811707 1.6469122171401978 3.828364849090576 167 167 167
0.761631965637207 1.1317113637924194 4.198525428771973 2 2 2
0.7578060030937195 0.6448786854743958 4.115895748138428 14 14 14
0.7488342523574829 0.03421202301979065 4.00576114654541 21 21 21
0.7227736115455627 -0.8235275745391846 3.8465991020202637 254 254 254
0.7133230566978455 -1.1143345832824707 3.795668125152588 67 67 67
0.7434079051017761 -0.7049164772033691 3.8753769397735596 98 98 98
0.7343219518661499 -1.0927294492721558 3.816072702407837 224 224 224
0.7377634644508362 -1.0791020393371582 3.809770107269287 66 66 66
0.7419834733009338 -1.1062679290771484 3.7864127159118652 212 212 212
0.7657387256622314 -1.101858377456665 3.8008720874786377 222 222 222
0.8108378648757935 -1.146891474723816 3.8053948879241943 58 58 58
0.7165589928627014 1.7642099857330322 3.3025319576263428 59 59 59
0.9402540922164917 1.3870881795883179 4.245479583740234 73 73 73
0.8564532399177551 1.6703598499298096 3.6975581645965576 79 79 79
0.8564532399177551 1.6703598499298096 3.6975581645965576 79 79 79
1.0332410335540771 1.2701380252838135 4.3659844398498535 167 167 167
1.0332410335540771 1.2701380252838135 4.3659844398498535 167 167 167
0.7536963820457458 1.797003984451294 3.1674728393554688 138 138 138
1.0446795225143433 1.322478175163269 4.38318395614624 41 41 41
1.0705480575561523 1.2487866878509521 4.3702239990234375 56 56 56
1.1400684118270874 1.2100656032562256 4.37398099899292 254 254 254
1.0420498847961426 1.4479113817214966 3.9599995613098145 66 66 66
1.1634407043457031 1.1994351148605347 4.36902379989624 126 126 126
1.1631193161010742 1.1594765186309814 4.362757682800293 84 84 84
1.1674951314926147 1.2819610834121704 4.33530855178833 255 255 255
1.1372214555740356 -1.0020958185195923 3.9748847484588623 51 51 51
1.1867247819900513 0.020679576322436333 4.136051654815674 10 10 10
1.183106780052185 -0.746964156627655 4.00341272354126 19 19 19
1.1869829893112183 -0.8186434507369995 3.9934520721435547 27 27 27
1.2632697820663452 1.2024439573287964 4.104921817779541 113 113 113
1.1660704612731934 1.506670594215393 3.663498640060425 128 128 128
1.1181776523590088 1.5326056480407715 3.460925817489624 32 32 32
1.1632121801376343 1.5598417520523071 3.3504598140716553 29 29 29
1.3550817966461182 1.509000539779663 3.5622429847717285 97 97 97
1.367030143737793 1.5041753053665161 3.5121779441833496 64 64 64
1.7115092277526855 -0.13601942360401154 4.313063621520996 126 126 126
1.7115092277526855 -0.13601942360401154 4.313063621520996 126 126 126
1.28505277633667 1.6250054836273193 3.0410754680633545 93 93 93
1.2725001573562622 1.655312180519104 2.893091917037964 109 109 109
1.458609700202942 -1.0311599969863892 3.033693313598633 96 96 96
1.4300941228866577 1.6654607057571411 2.9297266006469727 122 122 122
