ply
format ascii 1.0
element vertex 200
property float x
property float y
property float z
property uchar red
property uchar green
property uchar blue
end_header
-2.9643337726593018 1.5099223852157593 6.140192985534668 28 28 28
-2.8609628677368164 0.27624160051345825 5.991626262664795 91 91 91
-2.8320679664611816 0.27052539587020874 5.940585136413574 93 93 93
-3.0010063648223877 2.345491409301758 6.304997444152832 31 31 31
-3.0010063648223877 2.345491409301758 6.304997444152832 31 31 31
-2.3971738815307617 2.973957061767578 5.063780784606934 135 135 135
-2.8074023723602295 -1.173231840133667 5.952625751495361 119 119 119
-2.977325439453125 2.851867437362671 6.3110527992248535 29 29 29
-2.7700438499450684 -0.6642728447914124 5.903208255767822 108 108 108
-2.897199869155884 2.916043519973755 6.183393478393555 91 91 91
-2.7652857303619385 -1.0455399751663208 5.9064249992370605 130 130 130
-2.793226718902588 -0.8798406720161438 5.981364727020264 125 125 125
-2.8739938735961914 1.9358763694763184 6.191014766693115 46 46 46
-2.82289981842041 -1.9895087480545044 6.168255805969238 28 28 28
-2.726810932159424 0.4330155849456787 5.978799819946289 116 116 116
-2.7088782787323 1.105535626411438 5.98424768447876 27 27 27
-2.7119131088256836 -0.03588991239666939 6.001967430114746 124 124 124
-2.7128281593322754 0.42136961221694946 6.060513496398926 117 117 117
-2.682746648788452 1.142747402191162 5.994955539703369 121 121 121
-2.712181568145752 -0.37116047739982605 6.115260601043701 103 103 103
-2.712181568145752 -0.37116047739982605 6.115260601043701 103 103 103
-2.680095911026001 1.1714686155319214 6.078045845031738 121 121 121
-2.683316469192505 -0.5070447325706482 6.09294319152832 32 32 32
-2.7232518196105957 -1.5441718101501465 6.202986717224121 42 42 42
-2.7232518196105957 -1.5441718101501465 6.202986717224121 42 42 42
-2.6947295665740967 -0.7274511456489563 6.159597396850586 45 45 45
-2.6947295665740967 -0.7274511456489563 6.159597396850586 45 45 45
-2.659771203994751 1.6237471103668213 6.17357063293457 104 104 104
-2.659771203994751 1.6237471103668213 6.17357063293457 104 104 104
-2.615518569946289 1.4618819952011108 6.243119716644287 24 24 24
-2.6147701740264893 1.8516548871994019 6.28090763092041 24 24 24
-2.6029715538024902 1.6298099756240845 6.264118671417236 19 19 19
-2.665224313735962 -2.796971559524536 6.553950309753418 24 24 24
-2.6144509315490723 2.0525929927825928 6.428765773773193 21 21 21
-2.5854997634887695 -0.3421350121498108 6.479456424713135 39 39 39
-2.537846565246582 1.2446439266204834 6.395218372344971 129 129 129
-2.6315767765045166 -2.218093156814575 6.658565521240234 32 32 32
-2.603116989135742 -2.4301178455352783 6.708259582519531 105 105 105
-2.5147314071655273 -0.15475881099700928 6.628770351409912 67 67 67
-2.522874593734741 -2.353407144546509 6.706748008728027 114 114 114
-2.53417706489563 -2.2362184524536133 6.751069068908691 36 36 36
-2.540386438369751 -2.1941909790039062 6.825961589813232 35 35 35
-2.5237314701080322 0.669512152671814 6.841550350189209 135 135 135
-2.5508878231048584 -2.013927459716797 6.947539806365967 31 31 31
-2.460207939147949 -2.2806365489959717 6.730818271636963 118 118 118
-2.4813671112060547 0.5630170106887817 6.880914211273193 138 138 138
-2.4666574001312256 -2.204155921936035 6.868773937225342 34 34 34
-2.4666574001312256 -2.204155921936035 6.868773937225342 34 34 34
-2.423117160797119 -2.3508026599884033 6.769898414611816 28 28 28
-2.423117160797119 -2.3508026599884033 6.769898414611816 28 28 28
-2.500328302383423 -1.7670559883117676 7.004880905151367 111 111 111
-2.3825857639312744 -2.3729100227355957 6.7046122550964355 97 97 97
-2.4541380405426025 0.4408102035522461 6.9239068031311035 175 175 175
-2.3976950645446777 -2.3985788822174072 6.790413856506348 105 105 105
-2.442732334136963 0.4278680980205536 6.935596942901611 182 182 182
-2.424421787261963 0.35184112191200256 6.9329609870910645 163 163 163
-2.429133415222168 -2.0079710483551025 6.974747657775879 111 111 111
-2.413785696029663 0.8211439847946167 6.958959579467773 106 106 106
-2.4425482749938965 -1.803741693496704 7.050593376159668 103 103 103
-2.4673938751220703 -2.2224936485290527 7.148128032684326 32 32 32
-2.4309825897216797 -1.9347565174102783 7.151256561279297 110 110 110
-2.4442429542541504 -1.985902190208435 7.209176540374756 110 110 110
-2.412849187850952 -2.2232091426849365 7.147985935211182 39 39 39
-2.4071102142333984 0.3449627459049225 7.179208755493164 81 81 81
-2.3929994106292725 1.109246015548706 7.130159854888916 84 84 84
-2.350569248199463 0.676954984664917 7.064636707305908 102 102 102
-2.3646605014801025 -2.3539249897003174 7.155564308166504 144 144 144
-2.3646605014801025 -2.3539249897003174 7.155564308166504 144 144 144
-2.3704326152801514 -1.6358246803283691 7.214178562164307 107 107 107
-2.3813395500183105 -1.9960336685180664 7.266605854034424 30 30 30
-2.3621134757995605 -2.5263140201568604 7.243651866912842 44 44 44
-2.3398799896240234 -1.9012447595596313 7.265330791473389 42 42 42
-2.288637399673462 -2.2576663494110107 7.128352165222168 10 10 10
-2.3215880393981934 -1.8114920854568481 7.253954887390137 36 36 36
-2.3347222805023193 0.39089471101760864 7.406728267669678 106 106 106
-2.292820692062378 0.41900280117988586 7.298865795135498 148 148 148
-2.3356142044067383 -1.960688591003418 7.461437225341797 29 29 29
-2.34875226020813 -1.305362343788147 7.520397186279297 103 103 103
-2.254277229309082 0.928051769733429 7.41501522064209 46 46 46
-2.2249159812927246 0.9315578937530518 7.513232231140137 90 90 90
-2.136449098587036 -1.9324532747268677 7.795548915863037 51 51 51
-1.9114490747451782 0.8793192505836487 7.206099510192871 92 92 92
-1.9057981967926025 0.6371557116508484 7.370458602905273 107 107 107
-1.7422407865524292 2.575702428817749 7.321070671081543 62 62 62
-1.61333429813385 1.0088837146759033 7.165954113006592 89 89 89
-1.5187445878982544 0.65240478515625 7.345341205596924 109 109 109
-1.427445411682129 2.0099782943725586 7.195513725280762 22 22 22
-1.216422200202942 1.1161353588104248 6.869297504425049 110 110 110
-1.1988372802734375 0.5940536260604858 6.911685466766357 66 66 66
-1.1784218549728394 0.6226794123649597 6.844691753387451 138 138 138
-1.1784218549728394 0.6226794123649597 6.844691753387451 138 138 138
-1.2714437246322632 -1.959223985671997 7.47605037689209 133 133 133
-1.065993070602417 -2.3575761318206787 6.8988261222839355 76 76 76
-1.0330592393875122 2.149158477783203 7.071520805358887 78 78 78
-0.9748096466064453 -2.254725933074951 6.907951831817627 103 103 103
-0.814270555973053 1.535552978515625 6.84676456451416 113 113 113
-0.7798072695732117 1.306698203086853 6.779775619506836 126 126 126
-0.8091989159584045 -0.7736963033676147 7.171645164489746 253 253 253
-0.7363342046737671 1.1398817300796509 6.586474895477295 34 34 34
-0.8050306439399719 -1.2799127101898193 7.459552764892578 37 37 37
-0.7216343879699707 0.4004659354686737 6.90267276763916 23 23 23
-0.7113145589828491 0.45420974493026733 6.902812957763672 93 93 93
-0.6805762648582458 1.2285538911819458 6.617860794067383 121 121 121
-0.6855719685554504 -2.08062481880188 7.147555828094482 130 130 130
-0.5361168384552002 1.3052862882614136 6.137466907501221 93 93 93
-0.586209774017334 1.18988835811615 6.650675296783447 31 31 31
-0.5641489028930664 1.1430139541625977 6.439647674560547 42 42 42
-0.5800325870513916 -2.087681770324707 7.176923751831055 61 61 61
-0.561280369758606 1.7049514055252075 6.823204517364502 107 107 107
-0.5335941314697266 1.2902967929840088 6.587769508361816 64 64 64
-0.592797577381134 -0.42412105202674866 7.493384838104248 205 205 205
-0.5955730676651001 -0.6468585133552551 7.699464797973633 124 124 124
-0.4979209005832672 0.47488608956336975 6.577903747558594 33 33 33
-0.498494952917099 1.4738887548446655 6.585429668426514 119 119 119
-0.4887969195842743 1.3474849462509155 6.625034332275391 183 183 183
-0.44220975041389465 0.5879601836204529 6.30619478225708 57 57 57
-0.4773027002811432 -0.39944782853126526 7.21015739440918 4 4 4
-0.4183560013771057 -2.6077070236206055 6.560903549194336 111 111 111
-0.4187714457511902 1.224538803100586 6.447617053985596 108 108 108
-0.4120117723941803 1.347703218460083 6.533136367797852 84 84 84
-0.4120117723941803 1.347703218460083 6.533136367797852 84 84 84
-0.4546968936920166 -0.9764301180839539 7.327864170074463 82 82 82
-0.4121924936771393 1.7527488470077515 6.676722049713135 3 3 3
-0.4121924936771393 1.7527488470077515 6.676722049713135 3 3 3
-0.43609416484832764 -0.28163614869117737 7.544915676116943 114 114 114
-0.44754695892333984 -0.4540777802467346 8.784650802612305 56 56 56
-0.31349387764930725 1.6842069625854492 6.683962821960449 101 101 101
-0.28065812587738037 1.225943684577942 6.398133754730225 121 121 121
-0.5212489366531372 -1.0288621187210083 12.476401329040527 38 38 38
-0.31462398171424866 0.17562727630138397 7.893845558166504 87 87 87
-0.24804021418094635 0.5007907152175903 6.1431474685668945 107 107 107
-0.2756481468677521 1.8925799131393433 6.732336521148682 99 99 99
-0.4024282395839691 -0.8242536187171936 9.999054908752441 2 2 2
-0.30527734756469727 -0.2787559926509857 7.586866855621338 253 253 253
-0.30215349793434143 -0.08115153759717941 7.936011791229248 254 254 254
-0.27505773305892944 -0.024245621636509895 7.432742595672607 171 171 171
-0.23977182805538177 0.30756786465644836 6.535959720611572 65 65 65
-0.1811605840921402 0.9594112634658813 6.235544681549072 7 7 7
-0.15723833441734314 0.5096613764762878 6.15825891494751 110 110 110
-0.1453777551651001 1.1324163675308228 6.305169105529785 31 31 31
-0.18227899074554443 -0.534765362739563 8.507721900939941 128 128 128
-0.13782507181167603 0.001260075718164444 7.417740821838379 129 129 129
-0.1395273506641388 -1.0774880647659302 7.78983211517334 31 31 31
-0.11787319928407669 1.1989740133285522 6.363273620605469 126 126 126
-0.11989372223615646 0.06919023394584656 7.080170154571533 149 149 149
-0.11367912590503693 -0.44961321353912354 7.315227508544922 7 7 7
-0.09451963007450104 1.2765419483184814 6.429296970367432 113 113 113
-0.12154140323400497 -1.045638084411621 10.283651351928711 33 33 33
-0.07876060903072357 1.7221133708953857 6.568580150604248 102 102 102
-0.05459967628121376 0.2974860370159149 6.361734390258789 77 77 77
-0.050291579216718674 0.47285670042037964 5.823726654052734 110 110 110
-0.04904237017035484 1.8352702856063843 6.54890251159668 100 100 100
-0.04070829600095749 -0.5837650895118713 8.810111045837402 7 7 7
-0.02671153098344803 1.688739538192749 6.465397834777832 114 114 114
-0.02152063511312008 0.06387756019830704 7.787487030029297 254 254 254
-0.011336087249219418 1.4919110536575317 6.535079002380371 125 125 125
-0.006808990612626076 1.330399751663208 6.433793544769287 125 125 125
-0.004198187962174416 -0.1940115988254547 7.772902011871338 90 90 90
-0.004198187962174416 -0.1940115988254547 7.772902011871338 90 90 90
0.05801909789443016 -0.9409202337265015 8.766188621520996 36 36 36
0.05949677526950836 2.4142069816589355 6.587073802947998 102 102 102
0.07663916796445847 0.9882745742797852 6.2184157371521 20 20 20
0.07753514498472214 1.356825828552246 6.3588762283325195 37 37 37
0.07753514498472214 1.356825828552246 6.3588762283325195 37 37 37
0.07868541032075882 1.911655306816101 6.529064178466797 61 61 61
0.09257759153842926 -0.1816592663526535 6.742351531982422 161 161 161
0.13766081631183624 -0.32502904534339905 9.254143714904785 26 26 26
0.11069317907094955 0.05176829174160957 7.140491485595703 134 134 134
0.13186705112457275 1.6844558715820312 6.455704689025879 115 115 115
0.2416396588087082 -0.017084915190935135 11.677239418029785 254 254 254
0.15816999971866608 1.6687729358673096 6.440151691436768 117 117 117
0.22748376429080963 1.885661005973816 6.444246292114258 90 90 90
0.22695136070251465 1.1895281076431274 6.130117893218994 143 143 143
0.2339998036623001 1.2382925748825073 6.174969673156738 133 133 133
0.2608603537082672 -0.6164931058883667 6.657614231109619 34 34 34
0.2564122676849365 2.0232298374176025 6.485731601715088 106 106 106
0.25856491923332214 1.3177958726882935 6.27036190032959 138 138 138
0.31138885021209717 -0.18472276628017426 7.035290241241455 155 155 155
0.28136947751045227 1.5564590692520142 6.345595359802246 130 130 130
0.23808987438678741 -0.29942721128463745 5.278210639953613 125 125 125
0.2778959274291992 1.205826997756958 6.184188365936279 129 129 129
0.3190871775150299 -0.6734102964401245 6.678447723388672 55 55 55
0.2859753966331482 0.32836291193962097 5.904948711395264 255 255 255
0.29760152101516724 1.090906023979187 6.07379150390625 54 54 54
0.26692551374435425 -0.31761056184768677 5.157544136047363 118 118 118
0.32340991497039795 0.41934406757354736 5.906753063201904 58 58 58
0.3596886992454529 1.6806509494781494 6.314001560211182 120 120 120
0.3033944070339203 -0.14135321974754333 5.179975986480713 88 88 88
0.40388280153274536 1.150286078453064 6.046372890472412 26 26 26
0.5488103032112122 -0.915416955947876 6.688056468963623 125 125 125
0.5110339522361755 1.4684669971466064 6.219254970550537 134 134 134
0.5186968445777893 1.2411730289459229 6.07021951675415 133 133 133
0.5434424877166748 0.32941585779190063 5.699069976806641 59 59 59
0.5891775488853455 1.4779043197631836 6.10979700088501 127 127 127
0.6145423054695129 1.542932152748108 6.087921142578125 79 79 79
0.6126912236213684 1.3771779537200928 5.964975833892822 43 43 43
0.6263330578804016 1.4038912057876587 6.06077241897583 46 46 46
0.6369054317474365 1.631365418434143 6.156249523162842 42 42 42
0.6444611549377441 1.2373374700546265 6.113097667694092 132 132 132
0.662114143371582 1.5489012002944946 6.066770076751709 130 130 130
