ply
format ascii 1.0
element vertex 52
property float x
property float y
property float z
property uchar red
property uchar green
property uchar blue
end_header
-0.7173805832862854 0.7222983837127686 2.6550052165985107 115 115 115
-0.709481954574585 0.6205788850784302 2.640024185180664 121 121 121
-0.7046217322349548 0.5619599223136902 2.63236665725708 124 124 124
-0.7004669904708862 0.6024507284164429 2.6412618160247803 128 128 128
-0.6955705285072327 0.6369386911392212 2.644348382949829 127 127 127
-0.6424457430839539 0.6163619756698608 2.6410129070281982 132 132 132
-0.6424457430839539 0.6163619756698608 2.6410129070281982 132 132 132
-0.5955828428268433 0.4203871190547943 2.6140077114105225 20 20 20
-0.5867819786071777 -0.8033366203308105 2.5820252895355225 25 25 25
-0.5987508296966553 -0.41304659843444824 2.644907236099243 54 54 54
-0.5996867418289185 0.6383231282234192 2.649188756942749 133 133 133
-0.5929349064826965 0.5359185934066772 2.637524366378784 126 126 126
-0.5836244225502014 0.49868616461753845 2.6278514862060547 26 26 26
-0.5736945271492004 0.5184324979782104 2.6299822330474854 114 114 114
-0.5627778768539429 0.4750022888183594 2.6337666511535645 56 56 56
-0.49378079175949097 -0.9025285840034485 2.489565372467041 183 183 183
-0.5231176614761353 0.7783104777336121 2.6687111854553223 52 52 52
-0.5231176614761353 0.7783104777336121 2.6687111854553223 52 52 52
-0.4864250421524048 0.5214440226554871 2.644456624984741 148 148 148
-0.4631630778312683 -0.7573558688163757 2.6132543087005615 214 214 214
-0.4494155943393707 0.4957587420940399 2.649998426437378 24 24 24
-0.4455495774745941 0.3255942463874817 2.6511330604553223 44 44 44
-0.43734458088874817 0.5015119314193726 2.646482229232788 23 23 23
-0.4367451071739197 0.6041309237480164 2.6540026664733887 103 103 103
-0.42224791646003723 0.6721107959747314 2.673814296722412 137 137 137
-0.41497838497161865 0.6088135838508606 2.663177967071533 48 48 48
-0.41497838497161865 0.6088135838508606 2.663177967071533 48 48 48
-0.42314258217811584 0.1003054827451706 2.7222468852996826 255 255 255
-0.3345121741294861 0.5486357808113098 2.6579325199127197 56 56 56
-0.3235120475292206 0.5291028618812561 2.661139488220215 99 99 99
-0.3235120475292206 0.5291028618812561 2.661139488220215 99 99 99
-0.29937905073165894 -0.9314250946044922 2.4988062381744385 94 94 94
-0.3057102859020233 0.5303521156311035 2.6615867614746094 98 98 98
-0.29204508662223816 0.30115246772766113 2.6413729190826416 56 56 56
-0.2358606457710266 0.3655101954936981 2.6529440879821777 58 58 58
-0.22396273910999298 0.3117299973964691 2.652280569076538 131 131 131
-0.21811600029468536 0.2940932512283325 2.6491856575012207 187 187 187
-0.20201516151428223 0.34221863746643066 2.6635565757751465 132 132 132
-0.20201516151428223 0.34221863746643066 2.6635565757751465 132 132 132
-0.18745549023151398 0.2550034523010254 2.6395795345306396 96 96 96
-0.17324568331241608 0.8839207291603088 2.502528429031372 53 53 53
-0.18198704719543457 0.43552079796791077 2.667511224746704 33 33 33
-0.18198704719543457 0.43552079796791077 2.667511224746704 33 33 33
-0.16216948628425598 -0.7232540845870972 2.700193166732788 211 211 211
-0.1333046704530716 0.735271155834198 2.6731746196746826 141 141 141
-0.03734787181019783 0.6436264514923096 2.701655864715576 99 99 99
-0.024084102362394333 0.2686435282230377 2.65387225151062 64 64 64
-0.02382500469684601 0.3564944863319397 2.668919324874878 82 82 82
0.1505909115076065 -0.7743511199951172 1.9584616422653198 91 91 91
0.17548637092113495 -0.7608674764633179 1.960079550743103 98 98 98
0.19445790350437164 -0.7552934885025024 1.9655877351760864 169 169 169
0.23650924861431122 -0.7517020106315613 1.9385579824447632 36 36 36
