ply
format ascii 1.0
element vertex 42
property float x
property float y
property float z
property uchar red
property uchar green
property uchar blue
end_header
-2.366786241531372 -3.2530038356781006 28.486040115356445 14 14 14
-2.106440305709839 -5.840340614318848 34.58906936645508 12 12 12
-1.0775727033615112 -2.481365203857422 18.6114501953125 71 71 71
-0.3517119288444519 16.734302520751953 30.140743255615234 10 10 10
0.049330953508615494 1.2074928283691406 28.23698616027832 52 52 52
0.1512550413608551 -0.047599054872989655 21.28833770751953 9 9 9
0.3136550486087799 -3.7574915885925293 22.274988174438477 9 9 9
0.3136550486087799 -3.7574915885925293 22.274988174438477 9 9 9
0.5818607211112976 -6.977453708648682 24.774959564208984 13 13 13
0.877533495426178 -4.54326057434082 21.456899642944336 59 59 59
1.1895090341567993 5.609884738922119 18.533504486083984 9 9 9
1.2152965068817139 3.751960515975952 18.62938690185547 10 10 10
1.273436188697815 1.6599892377853394 16.908309936523438 10 10 10
1.1482175588607788 -0.06505018472671509 15.00029182434082 9 9 9
1.3419088125228882 -1.7402986288070679 16.178340911865234 14 14 14
1.7641172409057617 -4.903122425079346 18.49285125732422 11 11 11
1.5806951522827148 8.837427139282227 14.752952575683594 55 55 55
1.7266923189163208 8.925414085388184 13.964035987854004 11 11 11
1.7659246921539307 4.010119915008545 13.10819149017334 17 17 17
1.9152954816818237 1.9999566078186035 13.336030006408691 7 7 7
1.8534904718399048 0.6162859797477722 12.716485023498535 11 11 11
1.8945106267929077 1.3064988851547241 12.923253059387207 10 10 10
1.8796072006225586 0.09105397760868073 12.707083702087402 10 10 10
2.0058610439300537 6.925517559051514 11.832650184631348 13 13 13
2.022575616836548 6.809197425842285 11.55545711517334 76 76 76
2.084458827972412 6.573605537414551 11.283719062805176 13 13 13
2.0908992290496826 5.049739360809326 11.01572322845459 17 17 17
2.0856237411499023 3.7892086505889893 10.925393104553223 9 9 9
2.116764783859253 1.7507355213165283 11.091804504394531 55 55 55
2.1166608333587646 6.941859722137451 10.901817321777344 54 54 54
2.207754611968994 0.5330188870429993 10.463397026062012 10 10 10
2.2173726558685303 -0.030357740819454193 10.462225914001465 11 11 11
2.3253965377807617 4.986613750457764 9.456788063049316 12 12 12
2.61240816116333 -0.28503844141960144 7.599491119384766 11 11 11
2.6413302421569824 2.689401865005493 7.0775675773620605 11 11 11
2.681212902069092 0.9977073073387146 6.849526405334473 10 10 10
2.776632308959961 -0.0008477250812575221 6.449714660644531 55 55 55
2.726227283477783 2.096503973007202 6.325705051422119 6 6 6
2.807887315750122 -0.15056772530078888 6.4157609939575195 73 73 73
2.7700870037078857 1.2057596445083618 6.2517313957214355 11 11 11
2.7886364459991455 0.963046133518219 6.159508228302002 61 61 61
2.7886364459991455 0.963046133518219 6.159508228302002 61 61 61
