ply
format ascii 1.0
element vertex 62
property float x
property float y
property float z
property uchar red
property uchar green
property uchar blue
end_header
-0.7463434338569641 -0.494843989610672 1.8062193393707275 24 24 24
-0.7214140892028809 -0.6758925318717957 1.8609508275985718 105 105 105
-0.7214078903198242 -0.6392004489898682 1.8643947839736938 127 127 127
-0.7096487879753113 -0.6129353642463684 1.9068050384521484 35 35 35
-0.7096487879753113 -0.6129353642463684 1.9068050384521484 35 35 35
-0.686820924282074 -0.6385908722877502 1.8805845975875854 118 118 118
-0.6985865235328674 -0.6242104172706604 1.945159673690796 34 34 34
-0.7050178050994873 0.13160490989685059 1.9924743175506592 175 175 175
-0.6914693117141724 -0.5691102743148804 1.9833424091339111 111 111 111
-0.6834176182746887 -0.5403996109962463 2.0075740814208984 110 110 110
-0.6840780377388 0.10139168053865433 2.0425961017608643 81 81 81
-0.6854259967803955 0.15056397020816803 2.0519583225250244 57 57 57
-0.6850968599319458 0.20082727074623108 2.062553882598877 102 102 102
-0.67250657081604 -0.4613766372203827 2.0449628829956055 107 107 107
-0.6588757634162903 -0.7013249397277832 2.0168426036834717 44 44 44
-0.6471835374832153 -0.6353961229324341 2.012803792953491 10 10 10
-0.6634034514427185 -0.048249829560518265 2.0954527854919434 115 115 115
-0.6147390604019165 -0.5821495056152344 2.1069648265838623 28 28 28
-0.5458728671073914 0.1824256181716919 2.111769676208496 107 107 107
-0.47975146770477295 0.30182695388793945 2.135235548019409 89 89 89
-0.37623685598373413 0.3475458025932312 2.131199836730957 110 110 110
-0.3633275628089905 0.19481296837329865 2.1174633502960205 138 138 138
-0.3172893524169922 -0.6895740032196045 2.027674436569214 76 76 76
-0.29818928241729736 0.37189292907714844 2.1342623233795166 82 82 82
-0.25476348400115967 0.48102518916130066 2.1457977294921875 113 113 113
-0.22198693454265594 0.14067654311656952 2.147928237915039 93 93 93
-0.21832965314388275 0.3963783085346222 2.131220579147339 121 121 121
-0.20705851912498474 0.46300604939460754 2.1392791271209717 69 69 69
-0.19929303228855133 -0.14982253313064575 2.195605993270874 84 84 84
-0.18716178834438324 0.37996217608451843 2.137641668319702 42 42 42
-0.17300128936767578 -0.6096028089523315 2.103199005126953 61 61 61
-0.17300128936767578 -0.6096028089523315 2.103199005126953 61 61 61
-0.17560473084449768 0.5357396006584167 2.1467905044555664 107 107 107
-0.1712501347064972 0.4164157211780548 2.1243672370910645 64 64 64
-0.1787227839231491 -0.12803201377391815 2.259813070297241 205 205 205
-0.14751040935516357 0.19893309473991394 2.111660957336426 57 57 57
-0.14169804751873016 0.26317644119262695 2.113610029220581 10 10 10
-0.14031021296977997 0.28220003843307495 2.116204023361206 35 35 35
-0.15097074210643768 -0.12629932165145874 2.2804880142211914 4 4 4
-0.13704746961593628 0.40599679946899414 2.131319999694824 108 108 108
-0.13437969982624054 0.4398280680179596 2.1337740421295166 84 84 84
-0.13196733593940735 0.5652344226837158 2.1534111499786377 3 3 3
-0.12707607448101044 -0.2713044285774231 2.1576130390167236 217 217 217
-0.1177532747387886 -0.1591569185256958 2.273911476135254 132 132 132
-0.1177532747387886 -0.1591569185256958 2.273911476135254 132 132 132
-0.11744812875986099 -0.1207151859998703 2.3028438091278076 56 56 56
-0.11744812875986099 -0.1207151859998703 2.3028438091278076 56 56 56
-0.09961158782243729 0.5422815084457397 2.1512300968170166 101 101 101
-0.09147948771715164 0.4109058678150177 2.1322548389434814 121 121 121
-0.09767493605613708 -0.1885286271572113 2.315178632736206 38 38 38
-0.09296111017465591 -0.18760532140731812 2.297651767730713 2 2 2
-0.09288545697927475 -0.25908464193344116 2.299469232559204 1 1 1
-0.05524781718850136 -0.1458103060722351 2.2786526679992676 104 104 104
-0.04730133339762688 0.38374826312065125 2.128683567047119 31 31 31
-0.037526924163103104 0.4022623896598816 2.1273393630981445 126 126 126
-0.03582260012626648 0.2703212797641754 2.117337465286255 40 40 40
-0.00241327122785151 0.48962023854255676 2.1446781158447266 125 125 125
-0.0005617874558083713 0.4432971775531769 2.1369316577911377 125 125 125
-0.0017852822784334421 -0.05972680449485779 2.2663216590881348 90 90 90
-0.0017852822784334421 -0.05972680449485779 2.2663216590881348 90 90 90
0.030217867344617844 0.44126763939857483 2.1335713863372803 140 140 140
0.05385268107056618 0.38093751668930054 2.1254427433013916 47 47 47
