ply
format ascii 1.0
element vertex 220
property float x
property float y
property float z
property uchar red
property uchar green
property uchar blue
end_header
-1.2007848024368286 -0.3317449688911438 3.234619379043579 123 123 123
-1.191435694694519 -0.32706350088119507 3.2224361896514893 123 123 123
-1.0801022052764893 -1.6154204607009888 2.9426913261413574 100 100 100
-1.0760829448699951 -1.4354493618011475 2.974724054336548 125 125 125
-1.0694044828414917 -1.092876672744751 3.0186314582824707 110 110 110
-1.0309302806854248 -1.5820099115371704 3.0094149112701416 110 110 110
-1.0053013563156128 -0.16739912331104279 3.2095911502838135 114 114 114
-0.9877530336380005 -0.5874888896942139 3.222172260284424 118 118 118
-0.9692078232765198 -0.2654948830604553 3.2622199058532715 103 103 103
-0.9553687572479248 -0.012453890405595303 3.2807908058166504 121 121 121
-0.9285773634910583 -0.033566053956747055 3.329723834991455 37 37 37
-0.9285773634910583 -0.033566053956747055 3.329723834991455 37 37 37
-0.9190385341644287 -0.18095630407333374 3.313876152038574 125 125 125
-0.9296003580093384 0.44010841846466064 3.3745365142822266 144 144 144
-0.9185364246368408 0.2724733054637909 3.3719663619995117 67 67 67
-0.9103130102157593 -0.02081013098359108 3.352403402328491 119 119 119
-0.9160218834877014 0.43856361508369446 3.3990447521209717 149 149 149
-0.9140127301216125 0.7349907755851746 3.4491498470306396 28 28 28
-0.8725516200065613 -0.05611029267311096 3.3822948932647705 10 10 10
-0.8784792423248291 0.5312496423721313 3.4433178901672363 126 126 126
-0.8941129446029663 1.206233024597168 3.5144033432006836 23 23 23
-0.8612729907035828 -0.13667990267276764 3.379141330718994 111 111 111
-0.8157074451446533 -0.9592692255973816 3.317052125930786 112 112 112
-0.7867845892906189 -1.4155853986740112 3.2822375297546387 127 127 127
-0.8249073624610901 1.493919849395752 3.6118478775024414 19 19 19
-0.8159929513931274 1.8057198524475098 3.6684978008270264 18 18 18
-0.7406149506568909 -0.8370670080184937 3.4424877166748047 113 113 113
-0.7320910692214966 -0.5401301383972168 3.496267795562744 33 33 33
-0.7299028635025024 0.8971068859100342 3.669907808303833 120 120 120
-0.7233071327209473 1.7896095514297485 3.762939214706421 18 18 18
-0.643716037273407 -1.6071535348892212 3.4036386013031006 121 121 121
-0.5937860012054443 -1.7865959405899048 3.4235806465148926 105 105 105
-0.5908644795417786 -1.6052906513214111 3.4555583000183105 95 95 95
-0.6232195496559143 0.7161213159561157 3.7409987449645996 120 120 120
-0.581752359867096 -0.7287734746932983 3.59734845161438 116 116 116
-0.5721967816352844 -0.8377929925918579 3.5599677562713623 107 107 107
-0.5780972838401794 -0.4014197587966919 3.6649696826934814 44 44 44
-0.5750812888145447 -0.09878680109977722 3.684080123901367 38 38 38
-0.5042065382003784 -1.5848150253295898 3.5778074264526367 79 79 79
-0.4725160598754883 -1.732008934020996 3.442913055419922 81 81 81
-0.46894803643226624 -1.7021340131759644 3.4702749252319336 109 109 109
-0.48789143562316895 -1.4841089248657227 3.607701301574707 28 28 28
-0.46542540192604065 -1.718974232673645 3.452301502227783 104 104 104
-0.5100415349006653 0.5099551677703857 3.8078038692474365 77 77 77
-0.4539475440979004 -1.482003927230835 3.617631196975708 67 67 67
-0.4539475440979004 -1.482003927230835 3.617631196975708 67 67 67
-0.46900704503059387 0.04980167746543884 3.832444429397583 46 46 46
-0.4655512571334839 0.5632064342498779 3.8704237937927246 64 64 64
-0.4262157678604126 -1.6644624471664429 3.6224634647369385 35 35 35
-0.4262157678604126 -1.6644624471664429 3.6224634647369385 35 35 35
-0.44318684935569763 0.30492815375328064 3.8628053665161133 164 164 164
-0.41681617498397827 -0.2685863673686981 3.8125364780426025 40 40 40
-0.3946880102157593 -1.6369942426681519 3.6728954315185547 29 29 29
-0.4069724380970001 0.45830902457237244 3.914066791534424 146 146 146
-0.3860011100769043 -1.4589297771453857 3.7174556255340576 114 114 114
-0.40669775009155273 0.8016875386238098 3.9742658138275146 22 22 22
-0.36463847756385803 -1.4537616968154907 3.743467092514038 104 104 104
-0.3581673502922058 -1.5042738914489746 3.6892964839935303 106 106 106
-0.3585302531719208 -1.6554642915725708 3.7298312187194824 39 39 39
-0.35683152079582214 -1.30754816532135 3.756007432937622 113 113 113
-0.3753964900970459 0.7530702948570251 3.986095666885376 97 97 97
-0.348510205745697 0.3038177788257599 3.9295296669006348 74 74 74
-0.3469208776950836 -0.2745349407196045 3.904606819152832 42 42 42
-0.32994407415390015 -1.1593942642211914 3.777653694152832 115 115 115
-0.3468758165836334 0.43034669756889343 3.980065107345581 53 53 53
-0.3249343931674957 -1.6513440608978271 3.7506518363952637 32 32 32
-0.33671239018440247 0.5693070888519287 4.011698246002197 59 59 59
-0.3120880126953125 -1.443170428276062 3.790926694869995 106 106 106
-0.29702281951904297 -1.4949991703033447 3.7922537326812744 15 15 15
-0.2740154564380646 -1.3362826108932495 3.8276374340057373 40 40 40
-0.28628307580947876 0.4031839072704315 4.022492408752441 95 95 95
-0.26614850759506226 -0.9582939147949219 3.8719308376312256 109 109 109
-0.2599577009677887 -1.3629930019378662 3.8254120349884033 37 37 37
-0.25170713663101196 -2.0481667518615723 3.70406174659729 24 24 24
-0.2702442705631256 -0.13515542447566986 3.995826005935669 35 35 35
-0.24395160377025604 -1.2902783155441284 3.848712921142578 102 102 102
-0.23900654911994934 -1.231520652770996 3.8742122650146484 107 107 107
-0.25100699067115784 0.7398399114608765 4.097390174865723 90 90 90
-0.25100699067115784 0.7398399114608765 4.097390174865723 90 90 90
-0.23624728620052338 -1.3393274545669556 3.859422445297241 51 51 51
-0.23842579126358032 -0.16227976977825165 3.9968032836914062 104 104 104
-0.2339067906141281 -0.22023479640483856 3.9833579063415527 110 110 110
-0.22759102284908295 -1.366485595703125 3.8700485229492188 86 86 86
-0.20915211737155914 -1.6946512460708618 3.72381591796875 23 23 23
-0.2001657485961914 -0.10153576731681824 4.0789008140563965 115 115 115
-0.20072054862976074 0.3403560221195221 4.114870071411133 140 140 140
-0.1998157501220703 0.619243860244751 4.122284889221191 46 46 46
-0.1739022433757782 -1.7088382244110107 3.712573289871216 129 129 129
-0.1739022433757782 -1.7088382244110107 3.712573289871216 129 129 129
-0.1724407821893692 -1.8167730569839478 3.7582170963287354 114 114 114
-0.1859590858221054 0.37690532207489014 4.1182355880737305 131 131 131
-0.1859590858221054 0.37690532207489014 4.1182355880737305 131 131 131
-0.16057847440242767 -1.6873146295547485 3.7969043254852295 31 31 31
-0.16182975471019745 0.3419795334339142 4.130445957183838 57 57 57
-0.1608482301235199 0.7296578884124756 4.17009973526001 93 93 93
-0.150672048330307 0.7666581273078918 4.165439128875732 61 61 61
-0.14224353432655334 -1.2003402709960938 3.971327543258667 38 38 38
-0.1380130499601364 -0.9815347194671631 3.9940974712371826 102 102 102
-0.12817159295082092 -0.9693424701690674 4.003999710083008 102 102 102
-0.11801823228597641 -1.1882150173187256 4.009425163269043 84 84 84
0.05124533176422119 0.5400249361991882 3.9123051166534424 104 104 104
0.0853273794054985 2.1515164375305176 4.152164936065674 73 73 73
0.14567138254642487 0.9377098679542542 3.963303327560425 90 90 90
0.1607830673456192 1.240725040435791 3.991791248321533 90 90 90
0.2173374444246292 0.6544731855392456 3.88415789604187 83 83 83
0.22058998048305511 0.8943884968757629 3.9115734100341797 114 114 114
0.2608235776424408 0.841224193572998 3.8781991004943848 69 69 69
0.26513347029685974 0.9281046390533447 3.8850080966949463 89 89 89
0.27942633628845215 0.9603306651115417 3.87534236907959 119 119 119
0.39573195576667786 -1.5706061124801636 3.607173442840576 135 135 135
0.4225143492221832 -1.6773282289505005 3.3538014888763428 102 102 102
0.47046151757240295 0.6273257732391357 3.6740565299987793 147 147 147
0.5738823413848877 1.8343360424041748 3.794572353363037 22 22 22
0.5930721759796143 1.3355637788772583 3.692819595336914 80 80 80
0.613897979259491 1.1509495973587036 3.6322295665740967 22 22 22
0.6180660724639893 1.1328006982803345 3.6430866718292236 97 97 97
0.6460289359092712 0.8141785264015198 3.5758798122406006 26 26 26
0.6814448237419128 1.6660672426223755 3.6785411834716797 131 131 131
0.7034856677055359 0.515022873878479 3.7249755859375 47 47 47
0.6908465623855591 0.8219295144081116 3.554964780807495 29 29 29
0.700951337814331 0.5593551397323608 3.5726499557495117 104 104 104
0.7227802872657776 1.8322125673294067 3.6909234523773193 21 21 21
0.7050033211708069 1.0085965394973755 3.5739214420318604 3 3 3
0.7184136509895325 1.4471940994262695 3.619075298309326 117 117 117
0.7100687026977539 1.021867275238037 3.5623223781585693 85 85 85
0.7404480576515198 1.8286683559417725 3.6697676181793213 23 23 23
0.7805966138839722 1.2133405208587646 3.544111967086792 116 116 116
0.7704188227653503 -0.42095887660980225 3.4887523651123047 104 104 104
0.7937633395195007 1.2242671251296997 3.5272202491760254 116 116 116
0.8130560517311096 1.550279974937439 3.5694053173065186 15 15 15
0.8045231103897095 1.257634162902832 3.5177247524261475 141 141 141
0.8288372755050659 0.5390182137489319 3.5981638431549072 28 28 28
0.8092435002326965 0.9062235355377197 3.477299928665161 20 20 20
0.8218174576759338 1.344338059425354 3.5233025550842285 49 49 49
0.8225589990615845 1.2824723720550537 3.5191478729248047 112 112 112
0.8207530975341797 1.3693528175354004 3.5077261924743652 74 74 74
0.8223463892936707 -0.451391339302063 3.4532625675201416 252 252 252
0.8347916007041931 1.2736685276031494 3.4980549812316895 138 138 138
0.8360974788665771 1.3010846376419067 3.501603364944458 141 141 141
0.8638005256652832 0.530337393283844 3.572636127471924 96 96 96
0.8377752900123596 -0.6342097520828247 3.4581315517425537 70 70 70
0.8575625419616699 1.382856845855713 3.5181047916412354 128 128 128
0.838414192199707 -0.6855806112289429 3.428086757659912 36 36 36
0.9139192700386047 0.4604736566543579 3.6964125633239746 30 30 30
0.8721325397491455 -0.6299313306808472 3.5005688667297363 211 211 211
0.8734614849090576 1.2146276235580444 3.484043598175049 82 82 82
0.9153415560722351 0.48208215832710266 3.643289089202881 128 128 128
0.8767322301864624 1.1831278800964355 3.4823057651519775 48 48 48
0.8933916091918945 1.622338056564331 3.509357452392578 121 121 121
0.8823335766792297 1.0557838678359985 3.4365768432617188 50 50 50
0.9007975459098816 1.206963062286377 3.439603567123413 38 38 38
0.9122583270072937 1.4088414907455444 3.4594385623931885 121 121 121
0.8915491700172424 0.6252080798149109 3.3647639751434326 98 98 98
0.9322403073310852 1.1943570375442505 3.420626640319824 77 77 77
0.9355660676956177 1.342108130455017 3.432407855987549 158 158 158
0.9282559156417847 1.071964144706726 3.398970127105713 68 68 68
0.9509557485580444 1.6792148351669312 3.4822440147399902 108 108 108
0.8916575312614441 -1.575886845588684 3.22898530960083 29 29 29
0.96152263879776 -0.6703008413314819 3.4682083129882812 112 112 112
0.9481402039527893 1.1669268608093262 3.4004244804382324 34 34 34
0.9270452260971069 -1.0592294931411743 3.3196640014648438 20 20 20
1.0103949308395386 -0.960532009601593 3.5928194522857666 50 50 50
0.9671326279640198 1.2002499103546143 3.405571699142456 41 41 41
0.9504581093788147 0.6860226392745972 3.32716965675354 61 61 61
1.0771478414535522 -0.324409544467926 3.7392818927764893 76 76 76
0.9663248658180237 0.9243180751800537 3.3527989387512207 39 39 39
0.9755043983459473 -1.5499428510665894 3.1758975982666016 63 63 63
1.2330683469772339 -0.43822044134140015 3.865976333618164 141 141 141
1.0708436965942383 1.2290724515914917 3.3249194622039795 66 66 66
1.2732830047607422 0.13636834919452667 3.9429476261138916 122 122 122
1.053634524345398 0.6448752880096436 3.2578818798065186 123 123 123
1.0902786254882812 1.3052423000335693 3.330115556716919 118 118 118
1.1056686639785767 1.4184397459030151 3.3232510089874268 97 97 97
1.2863885164260864 -0.5237188339233398 3.847255229949951 28 28 28
1.0404452085494995 -0.6413969993591309 3.0716607570648193 30 30 30
1.0948817729949951 -1.1741615533828735 3.2021327018737793 25 25 25
1.1307437419891357 1.3722199201583862 3.3017661571502686 127 127 127
1.1338788270950317 1.0863497257232666 3.261078119277954 18 18 18
1.1291935443878174 -0.7315342426300049 3.2464027404785156 26 26 26
1.1334530115127563 0.8980134725570679 3.2297677993774414 30 30 30
1.1482553482055664 1.296329379081726 3.2615926265716553 66 66 66
1.1541441679000854 1.3522309064865112 3.277308940887451 65 65 65
1.1801046133041382 0.6090137958526611 3.350839614868164 109 109 109
1.1513268947601318 1.0874710083007812 3.250342607498169 25 25 25
1.1639279127120972 1.3898169994354248 3.268904685974121 117 117 117
1.1350791454315186 0.6896917819976807 3.184648036956787 48 48 48
1.149226427078247 0.9779363870620728 3.2220025062561035 22 22 22
1.1403464078903198 -1.1760761737823486 3.1794092655181885 27 27 27
1.1648954153060913 1.089233160018921 3.2473793029785156 116 116 116
1.1340152025222778 -1.398056149482727 3.1465392112731934 20 20 20
1.1775339841842651 1.403364896774292 3.265964984893799 47 47 47
1.2029200792312622 0.6007757186889648 3.336008071899414 142 142 142
1.0933425426483154 -0.6745147705078125 3.0028626918792725 28 28 28
1.1836363077163696 1.2286726236343384 3.241645097732544 32 32 32
1.221800446510315 0.5958260893821716 3.3287227153778076 18 18 18
1.1718487739562988 0.6612427830696106 3.174358367919922 129 129 129
1.2001190185546875 1.2826210260391235 3.2201592922210693 146 146 146
1.1908209323883057 0.8832574486732483 3.178321123123169 87 87 87
1.5107775926589966 -0.4299848675727844 4.029756546020508 49 49 49
1.250286340713501 -0.593147337436676 3.3113648891448975 49 49 49
1.213782787322998 1.342014193534851 3.208026170730591 134 134 134
1.2161222696304321 1.2175538539886475 3.2042012214660645 34 34 34
1.2177369594573975 1.1947134733200073 3.2017903327941895 87 87 87
1.2713596820831299 -0.5946709513664246 3.3139548301696777 37 37 37
1.2405167818069458 1.290927767753601 3.204117774963379 62 62 62
1.2316073179244995 1.0062050819396973 3.1566786766052246 92 92 92
1.2487176656723022 1.27586030960083 3.181774377822876 72 72 72
1.266037940979004 1.2844616174697876 3.184762716293335 90 90 90
1.2702264785766602 -0.7444082498550415 3.126326560974121 74 74 74
1.3950060606002808 0.3944633901119232 3.36775279045105 179 179 179
1.3194910287857056 1.2511379718780518 3.150083541870117 123 123 123
1.3079018592834473 0.9767742156982422 3.0936119556427 116 116 116
1.3079018592834473 0.9767742156982422 3.0936119556427 116 116 116
1.3315937519073486 0.9868128299713135 3.091898202896118 95 95 95
1.347989797592163 1.2904444932937622 3.128769636154175 137 137 137
1.347989797592163 1.2904444932937622 3.128769636154175 137 137 137
1.3557571172714233 1.270972728729248 3.1242427825927734 110 110 110
1.3638174533843994 1.2886204719543457 3.1256942749023438 18 18 18
1.3392906188964844 1.0072842836380005 3.069540500640869 31 31 31
1.3786066770553589 1.2120360136032104 3.0934298038482666 48 48 48
