ply
format ascii 1.0
element vertex 59
property float x
property float y
property float z
property uchar red
property uchar green
property uchar blue
end_header
-20.555683135986328 19.653400421142578 43.54664611816406 43 43 43
-5.119054794311523 -1.9312317371368408 10.978679656982422 78 78 78
-4.926791667938232 -2.5174427032470703 10.60648250579834 16 16 16
-5.12750768661499 -2.187955141067505 11.191086769104004 19 19 19
-4.850276947021484 -2.485308885574341 10.734766960144043 19 19 19
-4.847970485687256 -2.2904632091522217 10.752240180969238 19 19 19
-4.6821088790893555 -2.511847972869873 10.59203815460205 68 68 68
-4.744596004486084 -2.214095115661621 10.832950592041016 75 75 75
-4.7905497550964355 -2.05972957611084 10.965571403503418 120 120 120
-4.4754438400268555 -2.460209846496582 10.503802299499512 36 36 36
-4.491198539733887 -2.1945111751556396 10.609662055969238 38 38 38
-4.323606491088867 -2.745668411254883 10.405535697937012 137 137 137
-4.323606491088867 -2.745668411254883 10.405535697937012 137 137 137
-4.254802227020264 -2.2038960456848145 10.396492004394531 40 40 40
-4.113579750061035 -2.8445727825164795 10.047046661376953 133 133 133
-4.187524318695068 -2.4811973571777344 10.470499992370605 134 134 134
-4.139985084533691 -2.3072314262390137 10.360869407653809 28 28 28
-4.9323225021362305 0.8213287591934204 12.45217514038086 43 43 43
-5.104679107666016 1.1631557941436768 12.907474517822266 13 13 13
-4.9058332443237305 0.9521619081497192 12.63676643371582 66 66 66
-4.241335391998291 -1.0399140119552612 11.129976272583008 69 69 69
-4.176584720611572 -1.4721496105194092 10.998248100280762 119 119 119
-4.800839424133301 0.8332046270370483 12.63740348815918 41 41 41
-3.937157392501831 -2.3398830890655518 10.376338005065918 177 177 177
-4.360654830932617 -0.7348242402076721 11.508453369140625 61 61 61
-4.364147186279297 -0.13140611350536346 11.648890495300293 45 45 45
-4.463904857635498 0.20814427733421326 12.005638122558594 50 50 50
-4.377535820007324 0.026421036571264267 11.862332344055176 77 77 77
-4.421504020690918 0.23883779346942902 12.04486083984375 39 39 39
-4.554324150085449 1.097723126411438 12.627076148986816 23 23 23
-3.105548620223999 -1.52028489112854 10.241531372070312 25 25 25
-3.1067392826080322 -1.3374924659729004 10.282228469848633 26 26 26
-3.1158864498138428 -1.170176386833191 10.330784797668457 26 26 26
-3.3705942630767822 0.5085398554801941 11.206936836242676 92 92 92
-3.1299569606781006 -0.9673730731010437 10.42923355102539 25 25 25
-2.9872989654541016 -1.8450113534927368 10.006732940673828 100 100 100
-2.9872989654541016 -1.8450113534927368 10.006732940673828 100 100 100
-3.144835948944092 -0.8035527467727661 10.537673950195312 31 31 31
-3.1713364124298096 -0.5843561887741089 10.6556396484375 29 29 29
-3.1713364124298096 -0.5843561887741089 10.6556396484375 29 29 29
-2.897770404815674 -1.818812370300293 9.891043663024902 22 22 22
-3.211693525314331 0.3683309257030487 11.023979187011719 29 29 29
-2.8449690341949463 -1.555764079093933 10.00475788116455 170 170 170
-2.7193806171417236 -1.6409242153167725 9.842276573181152 196 196 196
-2.7818989753723145 -0.9466066956520081 10.198664665222168 28 28 28
-2.764615535736084 -1.0446149110794067 10.255472183227539 133 133 133
-2.3797662258148193 -0.8551678657531738 9.889622688293457 29 29 29
-2.3777999877929688 -0.7663649916648865 9.900594711303711 28 28 28
-2.4251701831817627 -0.24760465323925018 10.224936485290527 30 30 30
-2.4251701831817627 -0.24760465323925018 10.224936485290527 30 30 30
-2.025474786758423 -1.6065254211425781 9.084068298339844 33 33 33
-1.8905524015426636 -1.7149323225021362 8.955377578735352 77 77 77
-1.9170950651168823 -1.2568535804748535 9.206335067749023 139 139 139
-1.9365531206130981 -1.1043397188186646 9.322068214416504 98 98 98
-2.0509138107299805 -2.936544179916382 9.863496780395508 59 59 59
-1.937827706336975 -0.9951926469802856 9.343338966369629 31 31 31
-1.9408828020095825 -0.994157612323761 9.363476753234863 32 32 32
-1.7488609552383423 -1.077777624130249 9.115338325500488 191 191 191
-1.7521997690200806 -0.9674435257911682 9.172951698303223 117 117 117
