ply
format ascii 1.0
element vertex 108
property float x
property float y
property float z
property uchar red
property uchar green
property uchar blue
end_header
-1.8791203498840332 -1.2028061151504517 4.857517242431641 126 126 126
-1.852224588394165 -1.9646469354629517 4.8497796058654785 134 134 134
-1.8724822998046875 2.3756353855133057 5.232759475708008 32 32 32
-1.840505838394165 1.9249942302703857 5.234078407287598 98 98 98
-1.7884571552276611 0.3595521152019501 5.1704936027526855 24 24 24
-1.7678934335708618 -0.7802252173423767 5.129642486572266 33 33 33
-1.7280516624450684 -2.582430362701416 5.012767314910889 39 39 39
-1.7533842325210571 -1.2458131313323975 5.098235130310059 38 38 38
-1.7177541255950928 -1.2153913974761963 5.095490455627441 132 132 132
-1.7092194557189941 -0.9916795492172241 5.072525978088379 38 38 38
-1.707976222038269 -1.9495811462402344 5.10109806060791 43 43 43
-1.7312252521514893 -0.7759092450141907 5.174646854400635 34 34 34
-1.7605583667755127 1.9253243207931519 5.306540012359619 114 114 114
-1.6936298608779907 -1.9411827325820923 5.120908260345459 44 44 44
-1.7018563747406006 3.0581555366516113 5.550018787384033 25 25 25
-1.6920725107192993 2.6146135330200195 5.527806282043457 107 107 107
-1.6112154722213745 -1.376556158065796 5.3352370262146 119 119 119
-1.6674333810806274 2.1296019554138184 5.535453796386719 27 27 27
-1.6768906116485596 3.057013750076294 5.576775074005127 29 29 29
-1.6042453050613403 -1.825385570526123 5.33445405960083 123 123 123
-1.6284074783325195 0.32861822843551636 5.423311233520508 100 100 100
-1.6241718530654907 0.12457633018493652 5.453008651733398 27 27 27
-1.5706217288970947 -1.937304139137268 5.3134894371032715 36 36 36
-1.5541234016418457 -1.8928954601287842 5.318600177764893 123 123 123
-1.5603328943252563 -1.4966349601745605 5.345661163330078 106 106 106
-1.5791513919830322 -0.10496528446674347 5.456821918487549 29 29 29
-1.5711426734924316 -0.5511693954467773 5.438684463500977 44 44 44
-1.5711426734924316 -0.5511693954467773 5.438684463500977 44 44 44
-1.5362151861190796 -1.019188404083252 5.358267784118652 19 19 19
-1.483555793762207 -1.8696022033691406 5.337131023406982 26 26 26
-1.4874905347824097 1.2455042600631714 5.758833885192871 18 18 18
-1.4874905347824097 1.2455042600631714 5.758833885192871 18 18 18
-1.3937619924545288 -1.4715936183929443 5.77758264541626 14 14 14
-1.4421169757843018 3.0661063194274902 5.980638027191162 14 14 14
-1.4421169757843018 3.0661063194274902 5.980638027191162 14 14 14
-1.3874839544296265 -0.9396648406982422 5.791755199432373 107 107 107
-1.3272790908813477 -2.0340683460235596 5.779844284057617 99 99 99
-1.3636599779129028 2.3588342666625977 6.063754081726074 21 21 21
-1.3377983570098877 2.5648927688598633 6.074025630950928 27 27 27
-1.3146283626556396 3.0556187629699707 6.171186447143555 21 21 21
-1.3060121536254883 -1.220115065574646 6.43436336517334 22 22 22
-1.2053639888763428 2.5890209674835205 6.339393138885498 28 28 28
-1.2053639888763428 2.5890209674835205 6.339393138885498 28 28 28
-1.2259389162063599 -1.5211703777313232 6.693298816680908 116 116 116
-1.2259389162063599 -1.5211703777313232 6.693298816680908 116 116 116
-1.0962388515472412 -0.35509246587753296 6.246294021606445 26 26 26
-1.1398793458938599 -1.2378511428833008 6.544598579406738 121 121 121
-1.1340714693069458 -1.111016035079956 6.516159534454346 33 33 33
-1.1163159608840942 -1.142460823059082 6.659323215484619 27 27 27
-1.1163159608840942 -1.142460823059082 6.659323215484619 27 27 27
-1.084646463394165 -1.749023199081421 6.6138834953308105 69 69 69
-1.0941962003707886 -1.5259249210357666 6.6766743659973145 86 86 86
-1.0537832975387573 -1.9404696226119995 6.552682399749756 30 30 30
-1.0499542951583862 2.8104233741760254 6.592499256134033 35 35 35
-1.0499542951583862 2.8104233741760254 6.592499256134033 35 35 35
-0.9336627721786499 0.1000535637140274 6.509742736816406 27 27 27
-0.9528858661651611 3.0173332691192627 6.758188724517822 22 22 22
-0.8996928334236145 -1.8216164112091064 6.458286285400391 84 84 84
-0.911634087562561 0.4782625734806061 6.559380054473877 93 93 93
-0.8613000512123108 -1.0300934314727783 6.496287822723389 31 31 31
-0.8613000512123108 -1.0300934314727783 6.496287822723389 31 31 31
-0.8317158222198486 0.5793173313140869 6.669889450073242 103 103 103
-0.8245005011558533 3.027026653289795 6.999587535858154 22 22 22
-0.8245005011558533 3.027026653289795 6.999587535858154 22 22 22
-0.2616603672504425 0.08041664958000183 7.549772262573242 22 22 22
0.7200438380241394 3.6535251140594482 6.631115913391113 50 50 50
0.9102142453193665 3.6464741230010986 7.214623928070068 67 67 67
2.739396810531616 -1.0292621850967407 12.297601699829102 94 94 94
2.977187156677246 -1.8070703744888306 12.742912292480469 19 19 19
3.0094921588897705 -1.0179532766342163 12.623948097229004 108 108 108
3.3190081119537354 2.1702427864074707 13.812005043029785 44 44 44
3.3319947719573975 2.7386419773101807 13.758447647094727 66 66 66
3.1069040298461914 -1.7451684474945068 12.647577285766602 24 24 24
3.4236903190612793 1.5858211517333984 13.802754402160645 102 102 102
3.5321054458618164 3.0789244174957275 14.19534683227539 75 75 75
3.403404474258423 -1.283629059791565 13.478343963623047 130 130 130
3.3473877906799316 -1.8614004850387573 13.106964111328125 186 186 186
4.107090950012207 2.4631831645965576 15.97947883605957 145 145 145
3.7217674255371094 3.3090994358062744 14.358319282531738 89 89 89
4.2469353675842285 2.5574684143066406 15.953737258911133 65 65 65
4.000938415527344 2.520796537399292 14.853437423706055 68 68 68
3.8346214294433594 -1.5996891260147095 14.229559898376465 43 43 43
3.652989149093628 -1.890201210975647 13.51541519165039 45 45 45
4.250102519989014 3.12343168258667 15.608562469482422 15 15 15
4.326119899749756 2.4870502948760986 15.559317588806152 51 51 51
4.284670352935791 -0.8515147566795349 15.242840766906738 117 117 117
3.8741650581359863 -1.753297209739685 13.701499938964844 48 48 48
3.8741650581359863 -1.753297209739685 13.701499938964844 48 48 48
4.615502834320068 0.4715855121612549 16.194292068481445 132 132 132
3.9403467178344727 -2.3294668197631836 13.78718090057373 143 143 143
4.636496543884277 2.2784039974212646 16.019628524780273 34 34 34
4.636496543884277 2.2784039974212646 16.019628524780273 34 34 34
4.627211570739746 1.784933090209961 15.916409492492676 61 61 61
4.5704665184021 1.2917282581329346 15.624089241027832 51 51 51
4.596004962921143 2.6541945934295654 15.718382835388184 66 66 66
4.6784234046936035 0.4760908782482147 15.895295143127441 59 59 59
4.76490592956543 1.8636448383331299 16.151548385620117 43 43 43
4.7510857582092285 1.5631002187728882 16.08491325378418 83 83 83
4.7510857582092285 1.5631002187728882 16.08491325378418 83 83 83
4.79370641708374 -0.004477791488170624 16.140811920166016 85 85 85
4.765100002288818 -0.4410545825958252 16.031076431274414 86 86 86
4.713066577911377 -1.2526382207870483 15.744049072265625 99 99 99
4.801452159881592 -1.081126093864441 15.841888427734375 148 148 148
4.801452159881592 -1.081126093864441 15.841888427734375 148 148 148
4.97907829284668 -0.020832179114222527 16.173076629638672 128 128 128
4.912570476531982 -1.2834656238555908 15.775972366333008 159 159 159
8.103401184082031 3.339386224746704 22.181854248046875 95 95 95
9.413442611694336 3.4854230880737305 24.99738311767578 30 30 30
