ply
format ascii 1.0
element vertex 129
property float x
property float y
property float z
property uchar red
property uchar green
property uchar blue
end_header
-3.3060615062713623 1.9858262538909912 6.748206615447998 19 19 19
-1.2757309675216675 -0.8241035342216492 2.6859543323516846 103 103 103
-3.1344003677368164 0.5740939974784851 6.729668617248535 137 137 137
-3.1344003677368164 0.5740939974784851 6.729668617248535 137 137 137
-1.6501556634902954 -1.104953646659851 3.615964651107788 184 184 184
-6.2180495262146 -5.284250259399414 14.059494018554688 99 99 99
-2.8996407985687256 2.0134780406951904 6.720826625823975 23 23 23
-2.675635814666748 -0.8925962448120117 6.273035526275635 93 93 93
-2.919785261154175 0.40764012932777405 6.8657941818237305 52 52 52
-2.925955295562744 0.40944617986679077 6.882798194885254 60 60 60
-3.621530771255493 -3.647860288619995 8.641633987426758 35 35 35
-2.7990570068359375 0.45524442195892334 6.718944549560547 111 111 111
-2.6776928901672363 -0.8924365043640137 6.662059307098389 251 251 251
-2.6776928901672363 -0.8924365043640137 6.662059307098389 251 251 251
-2.6800599098205566 -0.969891369342804 6.6737446784973145 243 243 243
-2.6800599098205566 -0.969891369342804 6.6737446784973145 243 243 243
-2.6562516689300537 1.5060456991195679 6.669083118438721 109 109 109
-2.6382267475128174 1.2816917896270752 6.675690650939941 126 126 126
-2.696335554122925 -1.147295355796814 6.815694332122803 67 67 67
-2.6338462829589844 1.189178466796875 6.690110206604004 26 26 26
-2.6786441802978516 0.4154188632965088 6.800558567047119 32 32 32
-2.7110066413879395 -1.1886687278747559 6.889743328094482 40 40 40
-2.6121435165405273 1.1373908519744873 6.656224250793457 54 54 54
-2.6121435165405273 1.1373908519744873 6.656224250793457 54 54 54
-3.2110259532928467 -2.7274019718170166 8.203824996948242 141 141 141
-2.6520566940307617 0.3639727532863617 6.810088634490967 114 114 114
-3.2601981163024902 -2.786740303039551 8.408770561218262 135 135 135
-2.6735427379608154 0.31959331035614014 6.91096305847168 9 9 9
-2.552053213119507 1.2309043407440186 6.689937114715576 115 115 115
-2.5006649494171143 1.9815462827682495 6.708296775817871 15 15 15
-2.5006649494171143 1.9815462827682495 6.708296775817871 15 15 15
-2.4895684719085693 1.2810262441635132 6.699540615081787 132 132 132
-2.5002617835998535 1.3202451467514038 6.734275817871094 128 128 128
-2.9637951850891113 -2.644554376602173 8.010929107666016 61 61 61
-2.538513422012329 -2.7190194129943848 6.870265007019043 129 129 129
-2.408742904663086 1.1485106945037842 6.595707416534424 36 36 36
-2.5170397758483887 -0.5387483239173889 6.993624687194824 147 147 147
-2.370576858520508 1.1727298498153687 6.63525390625 22 22 22
-2.386711597442627 1.6751868724822998 6.709015369415283 107 107 107
-2.3681907653808594 1.2798627614974976 6.6530327796936035 97 97 97
-2.3339381217956543 1.015464186668396 6.665764331817627 86 86 86
-2.311370372772217 1.8060691356658936 6.633837699890137 94 94 94
-2.3398640155792236 0.5581374764442444 6.714812755584717 54 54 54
-2.3270230293273926 1.3374242782592773 6.68731164932251 163 163 163
-2.6537983417510986 -0.6714089512825012 7.705833435058594 33 33 33
-2.4547224044799805 -0.4246677756309509 7.126633167266846 49 49 49
-2.2577152252197266 1.2470283508300781 6.5999884605407715 67 67 67
-2.585538148880005 -0.9551101326942444 7.6010308265686035 31 31 31
-2.272907257080078 1.2501089572906494 6.712427139282227 128 128 128
-2.370835065841675 0.15905314683914185 7.108031272888184 157 157 157
-2.3795740604400635 -1.1597505807876587 7.2942280769348145 114 114 114
-2.403111696243286 -0.5347049236297607 7.377547264099121 56 56 56
-2.1523079872131348 2.2563962936401367 6.643748760223389 108 108 108
-2.336968183517456 -1.2005678415298462 7.313296794891357 33 33 33
-2.1260123252868652 1.6779870986938477 6.730963230133057 96 96 96
-2.093963146209717 1.9341646432876587 6.668478965759277 15 15 15
-2.1540088653564453 0.4784535765647888 6.848659992218018 107 107 107
-2.374147891998291 -0.790551483631134 7.571671962738037 23 23 23
-2.3952481746673584 -0.42952531576156616 7.63944149017334 254 254 254
-2.2745113372802734 0.03842691704630852 7.302156925201416 68 68 68
-2.0423831939697266 1.8351285457611084 6.598939895629883 92 92 92
-2.0660476684570312 0.7981027960777283 6.6947197914123535 92 92 92
-2.072728395462036 -2.5039093494415283 6.912529468536377 40 40 40
-2.0333609580993652 0.4769429862499237 6.804599761962891 110 110 110
-2.0092601776123047 1.2400691509246826 6.71687126159668 65 65 65
-2.192497491836548 -1.2216382026672363 7.452454090118408 45 45 45
-1.9497689008712769 1.1415908336639404 6.6580376625061035 34 34 34
-2.066969871520996 -2.376631498336792 7.16549015045166 78 78 78
-2.141746759414673 -0.14110025763511658 7.404558181762695 131 131 131
-1.9319711923599243 1.2166533470153809 6.729889392852783 137 137 137
-2.2116425037384033 -0.05031580477952957 7.707996845245361 152 152 152
-1.8821814060211182 1.914030909538269 6.613256454467773 22 22 22
-1.9965788125991821 0.37606164813041687 7.0096282958984375 75 75 75
-2.1371264457702637 -0.9349440336227417 7.516880989074707 36 36 36
-1.8873207569122314 1.2680559158325195 6.67268705368042 131 131 131
-1.8718520402908325 1.8849276304244995 6.643651008605957 91 91 91
-1.9903006553649902 0.22491616010665894 7.115095138549805 72 72 72
-2.11197566986084 -0.5162619352340698 7.733317852020264 25 25 25
-1.8290334939956665 1.1035165786743164 6.7264323234558105 99 99 99
-1.8144198656082153 1.835713505744934 6.673006534576416 94 94 94
-1.83160400390625 0.5772676467895508 6.759446144104004 57 57 57
-2.13718318939209 -0.06955666840076447 7.882906913757324 254 254 254
-2.121569871902466 -0.3446597158908844 7.866417407989502 115 115 115
-2.121569871902466 -0.3446597158908844 7.866417407989502 115 115 115
-1.7778537273406982 1.4538323879241943 6.6356730461120605 118 118 118
-1.8051660060882568 1.340743064880371 6.752885818481445 122 122 122
-3.1908578872680664 -2.983401298522949 11.983054161071777 68 68 68
-1.7760125398635864 1.163905143737793 6.742775917053223 126 126 126
-2.096860408782959 -1.0283713340759277 7.92123556137085 247 247 247
-2.096860408782959 -1.0283713340759277 7.92123556137085 247 247 247
-1.7736499309539795 0.8383327126502991 6.749608993530273 73 73 73
-2.1292946338653564 -0.19696044921875 8.332025527954102 125 125 125
-2.948246717453003 -2.875527858734131 11.529433250427246 76 76 76
-1.7093586921691895 0.9901749491691589 6.717624187469482 15 15 15
-1.6363775730133057 2.3438947200775146 6.489931106567383 99 99 99
-1.6731573343276978 1.302775263786316 6.6327009201049805 141 141 141
-2.1263835430145264 -0.4523487389087677 8.43778133392334 51 51 51
-1.9928536415100098 -0.07695704698562622 7.9417314529418945 134 134 134
-1.6994389295578003 0.4644957482814789 6.866072177886963 115 115 115
-1.7061054706573486 0.37674480676651 6.971271991729736 60 60 60
-1.6249760389328003 1.4612661600112915 6.697664260864258 127 127 127
-1.5853508710861206 1.6580305099487305 6.636416435241699 118 118 118
-1.9063924551010132 -0.5938351154327393 8.087142944335938 254 254 254
-1.5190476179122925 2.1573143005371094 6.528082847595215 56 56 56
-1.7277158498764038 -1.7927511930465698 7.521040439605713 39 39 39
-1.8779850006103516 -0.9436876773834229 8.220891952514648 168 168 168
-1.4838615655899048 1.8882341384887695 6.549973964691162 21 21 21
-1.5054486989974976 1.2605576515197754 6.668989658355713 124 124 124
-1.6939277648925781 -0.5945976972579956 7.620466232299805 176 176 176
-1.4805638790130615 1.3812228441238403 6.680609703063965 170 170 170
-1.5850147008895874 0.20909616351127625 7.1517558097839355 104 104 104
-1.45984947681427 1.2210966348648071 6.675760746002197 117 117 117
-1.5532238483428955 0.2863229811191559 7.191573143005371 254 254 254
-1.4308339357376099 1.110220193862915 6.663483142852783 54 54 54
-1.4875953197479248 0.4441853165626526 6.955262660980225 134 134 134
-1.4027944803237915 1.2131452560424805 6.656447410583496 61 61 61
-1.4987096786499023 0.3997516334056854 7.172159194946289 57 57 57
-1.3435027599334717 1.6714519262313843 6.582735538482666 121 121 121
-1.2368723154067993 2.123378276824951 6.402397632598877 79 79 79
-1.376729965209961 -1.1990348100662231 7.340809345245361 129 129 129
-1.1747605800628662 1.4532270431518555 6.586863040924072 130 130 130
-1.158138632774353 1.2411648035049438 6.579797744750977 141 141 141
-1.0944268703460693 1.4197665452957153 6.625903129577637 106 106 106
-1.0971763134002686 1.1726884841918945 6.6552300453186035 39 39 39
-1.0465476512908936 1.621265172958374 6.501820087432861 49 49 49
-1.031644582748413 1.5342988967895508 6.479203224182129 79 79 79
-1.0193262100219727 1.839672565460205 6.490776538848877 141 141 141
-1.023436427116394 1.4016824960708618 6.532952308654785 48 48 48
-1.0147194862365723 1.61460280418396 6.5094709396362305 40 40 40
