ply
format ascii 1.0
element vertex 47
property float x
property float y
property float z
property uchar red
property uchar green
property uchar blue
end_header
-0.8535241484642029 -0.1101856455206871 1.917980670928955 94 94 94
-0.8071529865264893 -0.42092519998550415 1.8713065385818481 77 77 77
-0.8036872744560242 -0.35041946172714233 1.882627248764038 81 81 81
-0.7988686561584473 -0.19299188256263733 1.9130712747573853 30 30 30
-0.7690304517745972 -0.4638134837150574 1.8657892942428589 69 69 69
-0.7782459855079651 -0.3158794343471527 1.892195701599121 84 84 84
-0.7634285688400269 -0.4196164906024933 1.8736923933029175 18 18 18
-0.761102020740509 -0.35419195890426636 1.887229084968567 18 18 18
-0.7408543229103088 -0.41573166847229004 1.8769145011901855 19 19 19
-0.7404550909996033 -0.4161589443683624 1.8797327280044556 21 21 21
-0.7284565567970276 -0.3586302697658539 1.8878594636917114 125 125 125
-0.7209303975105286 -0.4247956871986389 1.8775393962860107 101 101 101
-0.7181022763252258 -0.367117315530777 1.8862046003341675 112 112 112
-0.7188348174095154 -0.33920302987098694 1.8911590576171875 125 125 125
-0.6914355754852295 -0.4212481677532196 1.8809362649917603 39 39 39
-0.6873459815979004 -0.36949968338012695 1.885912537574768 40 40 40
-0.6663665771484375 -0.4737725853919983 1.8697717189788818 138 138 138
-0.6663665771484375 -0.4737725853919983 1.8697717189788818 138 138 138
-0.6670990586280823 -0.3980305790901184 1.8824924230575562 59 59 59
-0.6670990586280823 -0.3980305790901184 1.8824924230575562 59 59 59
-0.6586347222328186 -0.3698190450668335 1.885027527809143 190 190 190
-0.6514239311218262 -0.5066127777099609 1.8663955926895142 129 129 129
-0.6714468598365784 0.17900076508522034 1.971665382385254 10 10 10
-0.6415135264396667 -0.3597361147403717 1.8881477117538452 168 168 168
-0.6653595566749573 0.13213583827018738 1.9636895656585693 39 39 39
-0.6370077729225159 -0.4006693959236145 1.88362455368042 28 28 28
-0.6611518263816833 0.2709035873413086 1.98297119140625 78 78 78
-0.6239187121391296 -0.31191059947013855 1.8953675031661987 93 93 93
-0.647316575050354 0.16224300861358643 1.9664558172225952 97 97 97
-0.6475241780281067 0.15340735018253326 1.9723737239837646 71 71 71
-0.6201625466346741 -0.21804320812225342 1.9095927476882935 86 86 86
-0.6317467093467712 0.13184034824371338 1.9600239992141724 50 50 50
-0.6169763207435608 -0.16820859909057617 1.9153412580490112 82 82 82
-0.6177088618278503 -0.11210664361715317 1.9271942377090454 62 62 62
-0.6018307209014893 -0.31731683015823364 1.8969203233718872 154 154 154
-0.6142827868461609 -0.01360026840120554 1.9417012929916382 46 46 46
-0.6131574511528015 0.04020782187581062 1.9502580165863037 50 50 50
-0.6109583973884583 0.09687941521406174 1.9593759775161743 31 31 31
-0.6109583973884583 0.09687941521406174 1.9593759775161743 31 31 31
-0.5978089570999146 -0.15888711810112 1.9205156564712524 132 132 132
-0.604241132736206 0.04548225179314613 1.9499118328094482 39 39 39
-0.5979909896850586 0.12550358474254608 1.9647095203399658 27 27 27
-0.5918679237365723 0.08143719285726547 1.9566460847854614 80 80 80
-0.46306467056274414 0.09651198238134384 1.9496116638183594 92 92 92
-0.44787994027137756 -0.09371042996644974 1.922940731048584 30 30 30
-0.44787994027137756 -0.09371042996644974 1.922940731048584 30 30 30
-0.44214680790901184 0.0736141949892044 1.945602297782898 30 30 30
