ply
format ascii 1.0
element vertex 46
property float x
property float y
property float z
property uchar red
property uchar green
property uchar blue
end_header
-0.5076130628585815 -0.04845592379570007 1.2436612844467163 64 64 64
-0.4887595474720001 -0.08180645853281021 1.232761025428772 110 110 110
-0.4680531620979309 -0.21526160836219788 1.2322007417678833 129 129 129
-0.4642251133918762 -0.014124556444585323 1.2580853700637817 118 118 118
-0.4423619508743286 -0.086367666721344 1.2678107023239136 120 120 120
-0.4432859718799591 -0.09390466660261154 1.273083209991455 25 25 25
-0.43065163493156433 -0.02606130950152874 1.2871445417404175 45 45 45
-0.4234957993030548 -0.17037326097488403 1.2765388488769531 28 28 28
-0.4188993573188782 0.04020993784070015 1.3045568466186523 48 48 48
-0.38273224234580994 -0.3703155815601349 1.284062385559082 40 40 40
-0.36438611149787903 -0.24258658289909363 1.310368299484253 107 107 107
-0.37115976214408875 0.04191672429442406 1.3389438390731812 135 135 135
-0.3540087640285492 -0.24289487302303314 1.3186219930648804 105 105 105
-0.353607714176178 -0.24267739057540894 1.318401575088501 105 105 105
-0.34858283400535583 0.03864773362874985 1.35905921459198 149 149 149
-0.30005356669425964 -0.31060099601745605 1.3507798910140991 40 40 40
-0.2919994294643402 0.2957949638366699 1.429392695426941 127 127 127
-0.2658578157424927 -0.17757827043533325 1.4037827253341675 36 36 36
-0.26657813787460327 -0.04293432459235191 1.4089218378067017 29 29 29
-0.26906412839889526 0.29001951217651367 1.4508090019226074 21 21 21
-0.21807044744491577 0.24367763102054596 1.4734241962432861 55 55 55
-0.20813724398612976 0.3034064471721649 1.4981495141983032 92 92 92
-0.20813724398612976 0.3034064471721649 1.4981495141983032 92 92 92
-0.2057272046804428 0.1317327320575714 1.4795645475387573 163 163 163
-0.18950814008712769 -0.0473920963704586 1.4688119888305664 52 52 52
-0.18884322047233582 -0.037591464817523956 1.4687135219573975 134 134 134
-0.18204925954341888 0.09447172284126282 1.4894095659255981 114 114 114
-0.16847136616706848 0.017758334055542946 1.4927328824996948 39 39 39
-0.16045649349689484 0.1366405040025711 1.5138320922851562 64 64 64
-0.14868628978729248 -0.11888778209686279 1.4972540140151978 39 39 39
-0.14001630246639252 -0.671175479888916 1.4398818016052246 99 99 99
-0.13648521900177002 -0.6016718745231628 1.4461464881896973 56 56 56
-0.13648521900177002 -0.6016718745231628 1.4461464881896973 56 56 56
-0.10831652581691742 -0.26188939809799194 1.5056437253952026 35 35 35
-0.09594710171222687 -0.6083171367645264 1.4804136753082275 32 32 32
-0.0947452187538147 -0.5422949194908142 1.486957311630249 111 111 111
-0.09645038098096848 -0.06746707856655121 1.5370343923568726 107 107 107
-0.08475577086210251 -0.5478713512420654 1.496963620185852 102 102 102
-0.07905805110931396 -0.39743778109550476 1.515433669090271 27 27 27
-0.07983407378196716 0.15761007368564606 1.583870530128479 79 79 79
-0.07180667668581009 -0.6172727346420288 1.493910312652588 31 31 31
-0.07313565164804459 -0.03910607844591141 1.5655957460403442 109 109 109
-0.06495291739702225 0.14606814086437225 1.589377999305725 101 101 101
-0.06195182725787163 0.15838272869586945 1.591477632522583 53 53 53
-0.04682483524084091 0.20642586052417755 1.6145639419555664 20 20 20
0.27309519052505493 -0.18863601982593536 0.6674863696098328 53 53 53
