ply
format ascii 1.0
element vertex 170
property float x
property float y
property float z
property uchar red
property uchar green
property uchar blue
end_header
-9.922367095947266 -3.964421272277832 20.830217361450195 25 25 25
-9.8394775390625 -2.9722838401794434 20.847675323486328 124 124 124
-8.890217781066895 1.0425012111663818 18.863025665283203 79 79 79
-10.21019458770752 -4.361622333526611 21.68218231201172 135 135 135
-9.442630767822266 0.8651518821716309 20.116506576538086 29 29 29
-10.09327220916748 -2.2012224197387695 22.15889549255371 116 116 116
-10.204305648803711 -1.9919885396957397 22.465681076049805 94 94 94
-11.887937545776367 -5.198434352874756 27.178409576416016 99 99 99
-11.172341346740723 -2.1647417545318604 25.589014053344727 30 30 30
-11.208744049072266 -1.9129211902618408 25.715757369995117 29 29 29
-12.419526100158691 -5.24571418762207 29.1831111907959 36 36 36
-12.069621086120605 -1.2042436599731445 29.096759796142578 52 52 52
-14.598653793334961 -6.330924034118652 36.06435012817383 32 32 32
-12.677850723266602 -1.8710123300552368 31.49791717529297 97 97 97
-12.97093391418457 -5.281232833862305 32.304420471191406 59 59 59
-13.984441757202148 -2.67089581489563 35.63652420043945 129 129 129
-13.34410285949707 -2.278428316116333 34.10068130493164 48 48 48
-13.771161079406738 -2.962554693222046 35.25568389892578 39 39 39
-12.554850578308105 -5.746438026428223 32.5093879699707 40 40 40
-12.554850578308105 -5.746438026428223 32.5093879699707 40 40 40
-13.714167594909668 -3.389824390411377 35.69773864746094 144 144 144
-13.714167594909668 -3.389824390411377 35.69773864746094 144 144 144
-8.337882041931152 -5.643346309661865 22.244253158569336 251 251 251
-8.337882041931152 -5.643346309661865 22.244253158569336 251 251 251
-10.2464599609375 -5.855939865112305 27.630508422851562 252 252 252
-7.135687828063965 -5.887754917144775 19.26412010192871 53 53 53
-10.456250190734863 -5.69939661026001 28.38926887512207 153 153 153
-12.998190879821777 -2.385589838027954 35.38737869262695 52 52 52
-13.651642799377441 -1.3978359699249268 37.3317985534668 90 90 90
-12.888983726501465 -3.273240566253662 35.25135803222656 30 30 30
-12.580803871154785 -2.8545026779174805 34.62632751464844 154 154 154
-12.580803871154785 -2.8545026779174805 34.62632751464844 154 154 154
-11.459996223449707 -6.067698955535889 31.86446189880371 93 93 93
-11.459996223449707 -6.067698955535889 31.86446189880371 93 93 93
-12.908577919006348 -3.4283363819122314 35.97539138793945 157 157 157
-11.753396987915039 -1.6044988632202148 32.910160064697266 212 212 212
-11.667391777038574 -2.8870644569396973 33.57685470581055 20 20 20
-11.799260139465332 -1.62274968624115 34.1203727722168 203 203 203
-12.401908874511719 -5.30808162689209 36.45723342895508 25 25 25
-11.297619819641113 -2.3795006275177 33.36941909790039 85 85 85
-11.47702693939209 -2.553715944290161 34.21329116821289 31 31 31
-12.12983512878418 -4.77918815612793 36.715518951416016 32 32 32
-9.743280410766602 -1.2047146558761597 29.832677841186523 82 82 82
-10.976024627685547 -4.64567756652832 34.04165267944336 62 62 62
-10.156505584716797 -5.200781345367432 31.90403175354004 115 115 115
-9.465324401855469 -1.4997923374176025 29.84738540649414 125 125 125
-9.554780960083008 -6.0291829109191895 30.241451263427734 128 128 128
-10.111954689025879 -3.0504913330078125 32.11721420288086 98 98 98
-9.266932487487793 -0.9539356827735901 29.574800491333008 130 130 130
-9.194954872131348 -4.744706630706787 29.61830711364746 40 40 40
-7.8401618003845215 -0.5531513094902039 26.94974136352539 23 23 23
-3.8330771923065186 2.01711106300354 14.72878360748291 16 16 16
-4.813275337219238 -4.49454927444458 18.879690170288086 35 35 35
-3.1924638748168945 1.3250417709350586 14.524428367614746 10 10 10
-3.1728951930999756 -3.5269343852996826 15.348880767822266 28 28 28
-2.7588894367218018 2.0676448345184326 13.57711124420166 73 73 73
-2.6538233757019043 2.13633394241333 13.538617134094238 20 20 20
-2.6538233757019043 2.13633394241333 13.538617134094238 20 20 20
-2.7539968490600586 -3.427565336227417 14.320768356323242 118 118 118
-2.739713191986084 1.907368540763855 14.923675537109375 94 94 94
-2.739713191986084 1.907368540763855 14.923675537109375 94 94 94
-2.4321885108947754 -3.3837738037109375 13.537125587463379 25 25 25
-2.567885398864746 0.47857430577278137 14.465164184570312 22 22 22
-2.3523263931274414 2.192598581314087 13.396634101867676 70 70 70
-2.3396527767181396 2.323059320449829 13.595145225524902 19 19 19
-2.2022287845611572 2.1767265796661377 13.543791770935059 22 22 22
-1.0510765314102173 -0.7779757380485535 10.530567169189453 97 97 97
-1.0510765314102173 -0.7779757380485535 10.530567169189453 97 97 97
-0.9914435744285583 1.923970341682434 10.784258842468262 38 38 38
-0.1308971494436264 3.671248435974121 7.221799850463867 78 78 78
-0.01582166738808155 3.8150742053985596 6.616150856018066 129 129 129
0.22617870569229126 3.8383355140686035 6.5056328773498535 53 53 53
0.22308854758739471 3.8677234649658203 6.37620210647583 42 42 42
0.2531180679798126 -2.7283685207366943 7.222942352294922 29 29 29
0.2531180679798126 -2.7283685207366943 7.222942352294922 29 29 29
0.48035290837287903 3.8395490646362305 6.496861934661865 57 57 57
0.6934912204742432 -0.45844876766204834 6.447090148925781 38 38 38
0.6888777017593384 -0.8029353618621826 6.391698837280273 114 114 114
0.7357017993927002 -2.785534381866455 5.992275714874268 27 27 27
0.7713111639022827 -2.967078685760498 5.9100871086120605 101 101 101
0.831696093082428 -1.7767400741577148 5.904505252838135 28 28 28
0.8568480014801025 -1.2306547164916992 5.980995178222656 38 38 38
0.8465867042541504 -2.7150604724884033 5.787510871887207 106 106 106
0.8992313146591187 -2.0381340980529785 5.711645603179932 38 38 38
1.0165170431137085 2.0794734954833984 6.101129055023193 24 24 24
1.0165170431137085 2.0794734954833984 6.101129055023193 24 24 24
1.0165170431137085 2.0794734954833984 6.101129055023193 24 24 24
1.0036784410476685 0.993166446685791 5.957092761993408 20 20 20
1.0429917573928833 2.695833206176758 6.079212665557861 87 87 87
1.0262207984924316 0.7377334237098694 5.82386589050293 113 113 113
0.9813334941864014 -2.8768320083618164 5.422359943389893 38 38 38
0.9909553527832031 -2.6353063583374023 5.442559719085693 134 134 134
1.0764269828796387 1.1300554275512695 5.824717044830322 99 99 99
1.0494154691696167 0.04828494414687157 5.625743865966797 109 109 109
1.1132142543792725 0.21535265445709229 5.555125713348389 28 28 28
1.0844154357910156 -1.1127516031265259 5.3579182624816895 144 144 144
1.0844154357910156 -1.1127516031265259 5.3579182624816895 144 144 144
1.0751280784606934 -2.0444159507751465 5.256400108337402 140 140 140
1.0615369081497192 -2.8855643272399902 5.177796363830566 108 108 108
1.1036330461502075 -1.7135804891586304 5.2796759605407715 29 29 29
1.089830756187439 -2.2340915203094482 5.209819316864014 128 128 128
1.08087158203125 -2.7900333404541016 5.163403511047363 125 125 125
1.118890643119812 -1.4479326009750366 5.312337398529053 36 36 36
1.118890643119812 -1.4479326009750366 5.312337398529053 36 36 36
1.090190052986145 -2.3994781970977783 5.167386531829834 126 126 126
1.090190052986145 -2.3994781970977783 5.167386531829834 126 126 126
1.1047987937927246 -2.8824188709259033 5.111366271972656 114 114 114
1.1181567907333374 -2.582505941390991 5.1515583992004395 28 28 28
1.1365007162094116 -1.9857360124588013 5.226261615753174 40 40 40
1.136810064315796 -2.277017831802368 5.226850509643555 42 42 42
1.2614474296569824 0.6537059545516968 5.641320705413818 57 57 57
1.2820215225219727 1.138946771621704 5.686898231506348 55 55 55
1.135292649269104 -2.9200613498687744 5.038144588470459 108 108 108
1.2447153329849243 -0.133387491106987 5.518765926361084 55 55 55
1.308247685432434 1.7775598764419556 5.773954391479492 41 41 41
1.2599198818206787 0.1614084094762802 5.529439449310303 56 56 56
1.2532107830047607 -1.2215278148651123 5.401488780975342 75 75 75
1.2502868175506592 -1.4648598432540894 5.342611312866211 74 74 74
1.252244234085083 -2.082246780395508 5.270937442779541 76 76 76
1.3338627815246582 -1.332358956336975 5.41360330581665 58 58 58
1.368151068687439 -0.5658020377159119 5.499000549316406 68 68 68
1.393578290939331 -0.344229131937027 5.551837921142578 35 35 35
1.4061882495880127 -0.1028897687792778 5.591933727264404 85 85 85
1.437091588973999 0.7450973987579346 5.705930233001709 23 23 23
1.3786625862121582 -1.1873584985733032 5.461162090301514 30 30 30
1.4931528568267822 2.4325883388519287 5.889817714691162 96 96 96
1.4744728803634644 1.5931767225265503 5.782283306121826 108 108 108
1.4867584705352783 1.9440842866897583 5.824900150299072 105 105 105
1.4705088138580322 1.3192884922027588 5.726109027862549 114 114 114
1.4935158491134644 1.7619870901107788 5.808906078338623 113 113 113
1.4633753299713135 0.4901997745037079 5.613796234130859 125 125 125
1.4649230241775513 0.2943454682826996 5.588870048522949 129 129 129
1.2599047422409058 -2.878382444381714 4.740185737609863 126 126 126
1.4489036798477173 -1.0995663404464722 5.429720401763916 148 148 148
1.4195090532302856 -2.636061668395996 5.2168402671813965 51 51 51
1.447777271270752 -2.560760736465454 5.223515510559082 152 152 152
1.4652291536331177 -2.516583204269409 5.177296161651611 170 170 170
1.4614366292953491 -2.6281440258026123 5.1611104011535645 167 167 167
1.4948374032974243 -2.4219870567321777 5.265860557556152 131 131 131
1.315104603767395 -2.81803297996521 4.547591686248779 123 123 123
1.5677286386489868 -2.5761876106262207 5.179967403411865 58 58 58
2.0542871952056885 -0.28868240118026733 5.6721510887146 85 85 85
2.0822341442108154 0.8681779503822327 5.6573686599731445 150 150 150
2.126232147216797 0.17731432616710663 5.719058036804199 19 19 19
2.229964256286621 1.20151948928833 5.854737758636475 113 113 113
2.2264089584350586 0.3790295422077179 5.727183818817139 126 126 126
2.229783773422241 -0.032837025821208954 5.670839309692383 132 132 132
2.2694263458251953 1.148991584777832 5.759481430053711 48 48 48
2.254178047180176 0.43566617369651794 5.718908309936523 126 126 126
2.2509047985076904 0.7487921118736267 5.708889961242676 53 53 53
2.249091863632202 0.37310707569122314 5.676604747772217 59 59 59
2.249091863632202 0.37310707569122314 5.676604747772217 59 59 59
2.221209764480591 0.5536520481109619 5.571274757385254 62 62 62
2.2838637828826904 0.8867457509040833 5.678144931793213 47 47 47
2.2572474479675293 0.02416163682937622 5.582272052764893 43 43 43
2.3049354553222656 0.32219836115837097 5.67655086517334 38 38 38
2.2966859340667725 0.697948694229126 5.638830661773682 61 61 61
2.2966859340667725 0.697948694229126 5.638830661773682 61 61 61
2.2701809406280518 -0.0631651058793068 5.5627121925354 123 123 123
2.303601026535034 0.6189424991607666 5.62723445892334 54 54 54
2.333484649658203 0.7483201026916504 5.549909591674805 123 123 123
2.3595833778381348 0.9108917713165283 5.549054145812988 119 119 119
2.3080992698669434 0.589087963104248 5.32454776763916 71 71 71
2.3116774559020996 0.28142815828323364 5.270029067993164 53 53 53
2.4064595699310303 0.09490455687046051 5.4832329750061035 129 129 129
2.3232624530792236 0.384008526802063 5.235440254211426 66 66 66
2.4117796421051025 0.7662254571914673 5.405789375305176 113 113 113
2.346824884414673 0.33533939719200134 5.154811859130859 136 136 136
2.453946590423584 0.5005893111228943 5.2566938400268555 32 32 32
2.4338743686676025 0.2795674204826355 5.0278096199035645 143 143 143
