ply
format ascii 1.0
element vertex 55
property float x
property float y
property float z
property uchar red
property uchar green
property uchar blue
end_header
-1.81434965133667 2.5858027935028076 4.1544084548950195 20 20 20
-1.7391325235366821 0.9349715709686279 4.0658674240112305 97 97 97
-1.6805591583251953 -1.66531503200531 3.9774227142333984 87 87 87
-1.6805591583251953 -1.66531503200531 3.9774227142333984 87 87 87
-1.6833279132843018 -1.057438611984253 4.000964641571045 41 41 41
-1.5441447496414185 -1.545190453529358 4.129268646240234 116 116 116
-1.5399075746536255 -1.3228049278259277 4.157607078552246 106 106 106
-1.5255348682403564 -1.6541163921356201 4.134738445281982 30 30 30
-1.5148276090621948 -1.6169358491897583 4.14689826965332 119 119 119
-1.5152230262756348 -1.2660681009292603 4.159165859222412 103 103 103
-1.5381413698196411 -0.09109339863061905 4.26605224609375 124 124 124
-1.4610131978988647 -1.4182884693145752 4.158845901489258 18 18 18
-1.4590191841125488 -1.6067067384719849 4.1801958084106445 22 22 22
-1.4687999486923218 2.5742058753967285 4.572210788726807 95 95 95
-1.438294768333435 2.1139137744903564 4.56160831451416 78 78 78
-1.3759406805038452 2.7734780311584473 4.7061262130737305 18 18 18
-1.2781970500946045 1.9014276266098022 4.758439540863037 32 32 32
-1.2405097484588623 -1.6561832427978516 4.6492533683776855 33 33 33
-1.2343621253967285 -1.9208143949508667 4.7935791015625 80 80 80
-1.2450549602508545 2.761106491088867 4.854061126708984 12 12 12
-1.1253554821014404 2.4923977851867676 4.969733238220215 24 24 24
-1.1252790689468384 -1.2656786441802979 5.34376335144043 117 117 117
-1.0735688209533691 -0.9408268928527832 5.269547939300537 30 30 30
-1.0735688209533691 -0.9408268928527832 5.269547939300537 30 30 30
-0.9917086958885193 2.7407734394073486 5.176075458526611 21 21 21
-1.0018786191940308 -1.4789632558822632 5.254495620727539 72 72 72
-0.9716500043869019 -1.6585466861724854 5.183988094329834 28 28 28
-0.8590271472930908 -1.5504567623138428 5.13711404800415 86 86 86
-0.8559353947639465 0.48259881138801575 5.172552108764648 90 90 90
-0.8787024021148682 2.742488145828247 5.3197431564331055 105 105 105
-0.8756394982337952 2.718036651611328 5.316781520843506 19 19 19
-0.8756394982337952 2.718036651611328 5.316781520843506 19 19 19
-0.8178929090499878 -0.8505843877792358 5.142149925231934 29 29 29
-0.7786586284637451 0.5819859504699707 5.27824068069458 105 105 105
-0.7241966724395752 -1.665171504020691 5.261214256286621 31 31 31
-0.6991621255874634 -0.2501562237739563 5.331432342529297 25 25 25
-0.6522754430770874 -1.245723843574524 5.292477130889893 28 28 28
-0.6522754430770874 -1.245723843574524 5.292477130889893 28 28 28
-0.44256654381752014 2.287382125854492 5.809702396392822 24 24 24
-0.26474279165267944 3.2195541858673096 5.231544017791748 110 110 110
-0.2646370530128479 3.233832359313965 5.381631374359131 53 53 53
-0.24788883328437805 3.2508316040039062 5.348913192749023 47 47 47
0.5737518668174744 3.2152395248413086 5.666697025299072 51 51 51
2.008327007293701 0.3231149911880493 8.65234661102295 78 78 78
2.4885971546173096 -0.9330499768257141 9.212512969970703 92 92 92
2.5170233249664307 -1.328385829925537 9.30137825012207 87 87 87
2.5633599758148193 -1.3887895345687866 9.346467971801758 92 92 92
2.7013800144195557 -0.7617675065994263 9.518129348754883 95 95 95
2.9601967334747314 -0.7534245252609253 9.789339065551758 111 111 111
3.0223944187164307 1.7872334718704224 9.801675796508789 46 46 46
3.2097554206848145 2.3549365997314453 10.346850395202637 70 70 70
3.1951255798339844 2.0675854682922363 10.135668754577637 82 82 82
3.2673797607421875 -1.963394045829773 10.345398902893066 109 109 109
3.3413002490997314 2.5824577808380127 10.492855072021484 71 71 71
3.8143937587738037 2.046542167663574 11.504598617553711 139 139 139
