ply
format ascii 1.0
element vertex 46
property float x
property float y
property float z
property uchar red
property uchar green
property uchar blue
end_header
-0.5066102743148804 -0.01563718356192112 1.3729263544082642 118 118 118
-0.4938180148601532 0.19029581546783447 1.4134910106658936 34 34 34
-0.45791491866111755 -0.034201834350824356 1.4123449325561523 20 20 20
-0.4662643074989319 0.23774677515029907 1.4377447366714478 120 120 120
-0.45720815658569336 0.04314731806516647 1.4237083196640015 48 48 48
-0.4175386428833008 -0.45813900232315063 1.3726223707199097 111 111 111
-0.4115740954875946 -0.41020599007606506 1.387900471687317 123 123 123
-0.3945242464542389 -0.26211056113243103 1.4185869693756104 107 107 107
-0.3498212993144989 -0.47898203134536743 1.4230759143829346 99 99 99
-0.3576861321926117 0.019703924655914307 1.489478349685669 135 135 135
-0.36723417043685913 0.41102778911590576 1.5369396209716797 63 63 63
-0.370975136756897 0.6793309450149536 1.5714129209518433 21 21 21
-0.29369109869003296 0.31337037682533264 1.5807440280914307 21 21 21
-0.278780460357666 -0.1190948486328125 1.528894066810608 58 58 58
-0.27230048179626465 0.5920230150222778 1.6286029815673828 9 9 9
-0.2380528599023819 0.26315248012542725 1.6055121421813965 55 55 55
-0.22353185713291168 0.14159931242465973 1.6065013408660889 163 163 163
-0.1933397650718689 -0.7255845069885254 1.5038793087005615 105 105 105
-0.17589496076107025 -0.7635530233383179 1.5128240585327148 120 120 120
-0.18990442156791687 0.3560776114463806 1.6559431552886963 90 90 90
-0.17393310368061066 0.14736588299274445 1.6402379274368286 64 64 64
-0.1600174754858017 -0.7237079739570618 1.5331910848617554 114 114 114
-0.16075937449932098 -0.12847720086574554 1.618818759918213 39 39 39
-0.14975011348724365 -0.7175067067146301 1.539563536643982 99 99 99
-0.14653979241847992 -0.6449659466743469 1.5513074398040771 56 56 56
-0.11509678512811661 -0.6615403890609741 1.5723718404769897 50 50 50
-0.1193259060382843 -0.06055375188589096 1.65674889087677 33 33 33
-0.11659424006938934 -0.2820832431316376 1.6209410429000854 35 35 35
-0.10277092456817627 -0.6501837372779846 1.5835620164871216 32 32 32
-0.10179655253887177 -0.5803921222686768 1.5940101146697998 111 111 111
-0.10415604710578918 -0.07299915701150894 1.6598286628723145 107 107 107
-0.09494206309318542 -0.6149765849113464 1.5956852436065674 102 102 102
-0.08515754342079163 -0.4269346594810486 1.6303021907806396 27 27 27
-0.08515754342079163 -0.4269346594810486 1.6303021907806396 27 27 27
-0.08254887908697128 -0.649377167224884 1.596968412399292 86 86 86
-0.08682498335838318 0.16741202771663666 1.7135661840438843 79 79 79
-0.07909996062517166 -0.04281755909323692 1.69260835647583 109 109 109
-0.07909996062517166 -0.04281755909323692 1.69260835647583 109 109 109
-0.0705658569931984 0.155684694647789 1.7190157175064087 101 101 101
-0.0674898773431778 0.1693948358297348 1.7249506711959839 53 53 53
-0.06096100062131882 -0.13851936161518097 1.6898828744888306 34 34 34
-0.050163865089416504 -0.28842467069625854 1.6801044940948486 0 0 0
-0.05109142139554024 0.22099526226520538 1.7473058700561523 20 20 20
-0.04509061947464943 -0.49582451581954956 1.6486903429031372 30 30 30
-0.03728427365422249 -0.46578821539878845 1.6578348875045776 103 103 103
-0.02298557013273239 -0.42140913009643555 1.6733064651489258 81 81 81
