ply
format ascii 1.0
element vertex 141
property float x
property float y
property float z
property uchar red
property uchar green
property uchar blue
end_header
-1.533693552017212 -1.0167899131774902 3.5198025703430176 216 216 216
-1.4948558807373047 0.42296266555786133 3.4629485607147217 135 135 135
-1.4948558807373047 0.42296266555786133 3.4629485607147217 135 135 135
-1.4879615306854248 0.7784103751182556 3.488952159881592 20 20 20
-1.3842850923538208 -1.0826449394226074 3.5444462299346924 27 27 27
-1.3276879787445068 -1.2107046842575073 3.4186336994171143 103 103 103
-1.3797554969787598 0.15839743614196777 3.6427390575408936 67 67 67
-1.2431174516677856 -1.364960789680481 3.4404141902923584 33 33 33
-1.2938913106918335 0.9491799473762512 3.591003894805908 106 106 106
-1.2821941375732422 0.82016521692276 3.5933094024658203 120 120 120
-1.2617082595825195 0.735258936882019 3.5879807472229004 56 56 56
-1.4693803787231445 0.05673900991678238 4.257473945617676 254 254 254
-1.4514037370681763 -0.47281649708747864 4.2328314781188965 82 82 82
-1.2324522733688354 0.5745105147361755 3.6135833263397217 23 23 23
-1.231222152709961 0.7839025259017944 3.6118903160095215 110 110 110
-1.233102560043335 0.6616010069847107 3.6260855197906494 102 102 102
-1.1882246732711792 -1.134749174118042 3.504042148590088 25 25 25
-1.1600651741027832 -0.6133217215538025 3.442781448364258 53 53 53
-1.1746373176574707 -1.1879066228866577 3.5102264881134033 136 136 136
-1.1669496297836304 -1.303032636642456 3.500230550765991 135 135 135
-1.2086806297302246 0.9055659770965576 3.625755786895752 72 72 72
-1.2086806297302246 0.9055659770965576 3.625755786895752 72 72 72
-1.3988646268844604 0.046837251633405685 4.298134803771973 107 107 107
-1.1887186765670776 0.7552562355995178 3.6560041904449463 30 30 30
-1.1152993440628052 -1.2996896505355835 3.5247859954833984 133 133 133
-1.156396508216858 1.0362454652786255 3.664048910140991 110 110 110
-1.101700782775879 -1.2903920412063599 3.525498867034912 136 136 136
-1.1429007053375244 1.2115589380264282 3.689577341079712 100 100 100
-1.1401231288909912 1.1290637254714966 3.6915345191955566 90 90 90
-1.1235740184783936 0.8459603786468506 3.670551061630249 136 136 136
-1.115097999572754 0.7292720675468445 3.676528215408325 34 34 34
-1.0550471544265747 -1.4590603113174438 3.5420584678649902 111 111 111
-1.2722820043563843 -0.4291011095046997 4.286509990692139 205 205 205
-1.0920486450195312 0.7906630039215088 3.6833081245422363 103 103 103
-1.079746127128601 0.8574057221412659 3.6858201026916504 3 3 3
-1.079746127128601 0.8574057221412659 3.6858201026916504 3 3 3
-1.2587764263153076 -0.4973600506782532 4.312408924102783 23 23 23
-1.075500249862671 1.3974575996398926 3.736227035522461 89 89 89
-1.066148042678833 1.2531157732009888 3.7265384197235107 102 102 102
-1.0681018829345703 1.3888777494430542 3.739027976989746 105 105 105
-1.0337549448013306 1.1945911645889282 3.7503468990325928 30 30 30
-1.028091311454773 1.0349757671356201 3.7357521057128906 94 94 94
-0.8730669021606445 -0.5471562147140503 3.1910910606384277 24 24 24
-1.019176721572876 0.7926825284957886 3.7264785766601562 120 120 120
-1.014228343963623 0.8390321135520935 3.7233316898345947 118 118 118
-1.1830894947052002 -0.5529406666755676 4.352992534637451 141 141 141
-1.1830894947052002 -0.5529406666755676 4.352992534637451 141 141 141
-1.0127465724945068 1.1485490798950195 3.751164674758911 99 99 99
-1.157970905303955 0.18623913824558258 4.351064682006836 232 232 232
-0.9849347472190857 0.7728580236434937 3.739091634750366 131 131 131
-1.1296172142028809 0.20110584795475006 4.344336032867432 80 80 80
-1.1152337789535522 -0.3752080500125885 4.313368320465088 236 236 236
-0.9670621752738953 0.6399006843566895 3.754591226577759 28 28 28
-0.9653154015541077 0.7860339283943176 3.75447416305542 53 53 53
-1.1301747560501099 -0.012423238717019558 4.397156715393066 62 62 62
-0.9418020248413086 0.7321377396583557 3.7580647468566895 32 32 32
-0.9114297032356262 0.7237277030944824 3.769704818725586 38 38 38
-0.9086467027664185 0.8006995916366577 3.7696101665496826 133 133 133
-0.9057538509368896 1.0618791580200195 3.8085014820098877 99 99 99
-0.8859444856643677 1.1341899633407593 3.820911407470703 101 101 101
-0.8759756684303284 0.6865161657333374 3.787435531616211 51 51 51
-0.869987428188324 0.8145584464073181 3.799142837524414 119 119 119
-0.869987428188324 0.8145584464073181 3.799142837524414 119 119 119
-0.874191164970398 1.0553162097930908 3.8208799362182617 111 111 111
-0.8568512797355652 0.40517082810401917 3.7705070972442627 59 59 59
-0.8585324287414551 0.8347054719924927 3.796285390853882 121 121 121
-0.8240542411804199 -1.2900913953781128 3.6706323623657227 134 134 134
-0.8240542411804199 -1.2900913953781128 3.6706323623657227 134 134 134
-0.8534162640571594 0.7413957118988037 3.821512222290039 144 144 144
-0.834448516368866 0.7993904948234558 3.8040733337402344 80 80 80
-0.781450629234314 0.9133630990982056 3.850754737854004 127 127 127
-0.7777103781700134 0.907098114490509 3.841928243637085 130 130 130
-0.7777103781700134 0.907098114490509 3.841928243637085 130 130 130
-0.7688427567481995 -1.0801975727081299 3.858673572540283 24 24 24
-0.7091882228851318 -1.2113065719604492 3.698298692703247 122 122 122
-0.7290298342704773 0.941275417804718 3.886758804321289 108 108 108
-0.7200775146484375 0.7662924528121948 3.8616268634796143 149 149 149
-0.7181137800216675 0.7926919460296631 3.861748695373535 125 125 125
-0.6993840932846069 0.8447791337966919 3.885155439376831 90 90 90
-0.6978921294212341 0.7726907134056091 3.881772041320801 101 101 101
-0.7013886570930481 0.9581838846206665 3.907642364501953 54 54 54
-0.6921835541725159 0.9189967513084412 3.8900461196899414 134 134 134
-0.6570463180541992 1.0449670553207397 3.916724443435669 109 109 109
-0.6413230895996094 -0.5122218132019043 3.9480762481689453 131 131 131
-0.630618691444397 1.1313034296035767 3.9280927181243896 53 53 53
-0.630618691444397 1.1313034296035767 3.9280927181243896 53 53 53
-0.6069934964179993 -1.2333732843399048 3.7895867824554443 138 138 138
-0.6217159628868103 1.1527013778686523 3.945855140686035 104 104 104
-0.6054980158805847 -1.0090043544769287 3.9040732383728027 236 236 236
-0.5918207168579102 0.1720373034477234 3.9629790782928467 255 255 255
-0.5808017253875732 0.16729827225208282 3.9360721111297607 255 255 255
-0.5601067543029785 0.7957213521003723 3.959437370300293 141 141 141
-0.5464591979980469 0.4970373809337616 3.966507911682129 47 47 47
-0.5351994037628174 1.4422789812088013 3.963599681854248 104 104 104
-0.528376042842865 0.7403571605682373 3.95837140083313 13 13 13
-0.5257160067558289 0.8883689641952515 3.973705768585205 102 102 102
-0.49807611107826233 0.969738245010376 3.9687376022338867 119 119 119
-0.4986476004123688 0.7516252398490906 4.014684200286865 53 53 53
-0.49343740940093994 1.0265581607818604 4.00200080871582 40 40 40
-0.4899030923843384 0.3636932075023651 3.985629081726074 62 62 62
-0.44577810168266296 0.7828837037086487 3.9884958267211914 122 122 122
-0.40921422839164734 0.7133187055587769 4.014546871185303 38 38 38
-0.40025264024734497 0.8082395195960999 4.041384220123291 57 57 57
-0.3674188554286957 -1.2925642728805542 3.9179675579071045 90 90 90
-0.3832579255104065 0.2998887002468109 4.119769096374512 60 60 60
-0.355502188205719 0.7797257304191589 4.046077251434326 99 99 99
-0.31199175119400024 0.27884170413017273 3.9143309593200684 57 57 57
-0.2605475187301636 0.7991280555725098 4.113448619842529 82 82 82
-0.2605475187301636 0.7991280555725098 4.113448619842529 82 82 82
-0.2669215798377991 -0.9894660711288452 4.220235347747803 225 225 225
-0.25142085552215576 0.44118958711624146 4.079202175140381 179 179 179
-0.25142085552215576 0.44118958711624146 4.079202175140381 179 179 179
-0.23400063812732697 0.5090733766555786 4.104975700378418 111 111 111
-0.2080385535955429 0.6418951749801636 4.117631912231445 44 44 44
-0.18026337027549744 1.1670030355453491 3.872497081756592 72 72 72
-0.17880946397781372 0.4690970480442047 4.146764755249023 93 93 93
-0.17787028849124908 0.7583274245262146 4.15008544921875 95 95 95
-0.09944106638431549 1.1296955347061157 3.935154914855957 59 59 59
-0.09974189102649689 0.3537743389606476 4.123522758483887 109 109 109
-0.09974189102649689 0.3537743389606476 4.123522758483887 109 109 109
-0.09711311012506485 0.8497536778450012 4.190482139587402 83 83 83
-0.08667550981044769 -1.1260459423065186 4.169356822967529 37 37 37
-0.05144879221916199 1.6115391254425049 2.9320292472839355 71 71 71
0.05424301698803902 -0.935897946357727 4.093518257141113 125 125 125
0.062020864337682724 1.4510949850082397 4.055737495422363 72 72 72
0.09523600339889526 -0.9170505404472351 4.033946514129639 135 135 135
0.10931029170751572 1.4539227485656738 4.09484338760376 90 90 90
0.32610809803009033 -0.9553243517875671 3.6148102283477783 44 44 44
0.45409736037254333 -0.6128103137016296 3.421922445297241 26 26 26
0.45521488785743713 -0.837949812412262 3.400113105773926 28 28 28
0.47594043612480164 -1.1905086040496826 3.3292183876037598 130 130 130
0.507770299911499 -1.1028646230697632 3.391939878463745 83 83 83
0.5167069435119629 -1.5729355812072754 3.2234280109405518 131 131 131
0.6090797781944275 1.528191328048706 3.5921823978424072 85 85 85
0.6059905886650085 -0.9992882013320923 3.408500909805298 133 133 133
1.12197744846344 -0.4703264534473419 3.127169132232666 31 31 31
1.1288466453552246 -0.5296925902366638 3.0854222774505615 29 29 29
1.0723648071289062 0.7789300680160522 2.41400146484375 55 55 55
1.0788788795471191 0.3373815715312958 2.378606081008911 57 57 57
1.103094458580017 -0.20328611135482788 2.3338565826416016 19 19 19
1.1079254150390625 0.2555772662162781 2.3116416931152344 18 18 18
