ply
format ascii 1.0
element vertex 75
property float x
property float y
property float z
property uchar red
property uchar green
property uchar blue
end_header
-0.713729739189148 0.07088740170001984 2.058366298675537 134 134 134
-0.7155428528785706 0.17295756936073303 2.074705123901367 43 43 43
-0.6745485067367554 -0.27187472581863403 2.033294200897217 28 28 28
-0.6594871282577515 -0.4940490126609802 2.006699323654175 114 114 114
-0.6837447285652161 0.16878631711006165 2.0851235389709473 40 40 40
-0.6720104217529297 -0.05081789940595627 2.0726542472839355 20 20 20
-0.6821635961532593 1.1243505477905273 2.2171237468719482 103 103 103
-0.6109841465950012 -0.6732568144798279 2.0098767280578613 111 111 111
-0.6185017228126526 0.5850819945335388 2.1957848072052 45 45 45
-0.6109297871589661 0.589580237865448 2.195746898651123 155 155 155
-0.578923225402832 -0.3858315646648407 2.0819478034973145 107 107 107
-0.5943259596824646 0.06655718386173248 2.143855333328247 135 135 135
-0.5631464123725891 -0.38720253109931946 2.09774112701416 105 105 105
-0.5734168291091919 -0.05196327343583107 2.1429340839385986 58 58 58
-0.5725935697555542 -0.051966343075037 2.142009973526001 58 58 58
-0.5576294660568237 -0.38017892837524414 2.1068522930145264 32 32 32
-0.5610325336456299 -0.05305837467312813 2.158714532852173 57 57 57
-0.5395776033401489 -0.056111015379428864 2.1650733947753906 39 39 39
-0.5253612995147705 0.028937356546521187 2.1876707077026367 135 135 135
-0.539999783039093 0.6064280271530151 2.2613863945007324 63 63 63
-0.539999783039093 0.6064280271530151 2.2613863945007324 63 63 63
-0.5229314565658569 0.1560152918100357 2.2153666019439697 69 69 69
-0.4791215658187866 0.4873461127281189 2.2886860370635986 112 112 112
-0.4249641001224518 -0.06936102360486984 2.245824098587036 29 29 29
-0.43128159642219543 0.46097812056541443 2.3219456672668457 21 21 21
-0.4094507694244385 -0.17455148696899414 2.2454521656036377 58 58 58
-0.3867010474205017 0.0746404379606247 2.291375160217285 89 89 89
-0.3581264019012451 -0.8147491812705994 2.183042049407959 49 49 49
-0.33235985040664673 -1.040084958076477 2.182668924331665 31 31 31
-0.3495188355445862 0.3862557113170624 2.356973648071289 55 55 55
-0.3134797215461731 -0.8574874997138977 2.2122464179992676 108 108 108
-0.3092916011810303 -1.0390069484710693 2.1915547847747803 35 35 35
-0.33302655816078186 0.48121118545532227 2.3924221992492676 92 92 92
-0.2618662416934967 -0.9117871522903442 2.2488343715667725 111 111 111
-0.2790592312812805 0.5222983956336975 2.4319992065429688 90 90 90
-0.27706435322761536 0.6499056816101074 2.458617687225342 2 2 2
-0.25528523325920105 0.2167947143316269 2.407522678375244 64 64 64
-0.234053373336792 -1.0657809972763062 2.2515907287597656 114 114 114
-0.24155117571353912 -0.4044906795024872 2.3449630737304688 51 51 51
-0.24983392655849457 0.3014903962612152 2.430128812789917 48 48 48
-0.2313847839832306 -1.0185139179229736 2.274353265762329 101 101 101
-0.22777573764324188 -0.9103742241859436 2.268484354019165 111 111 111
-0.21931064128875732 -1.0569077730178833 2.2625837326049805 99 99 99
-0.21359093487262726 -1.023078441619873 2.2703208923339844 108 108 108
-0.20166455209255219 -0.5410521030426025 2.353942394256592 56 56 56
-0.2010239064693451 0.12264158576726913 2.4459052085876465 23 23 23
-0.18615174293518066 -0.09145547449588776 2.419080972671509 46 46 46
-0.17526623606681824 -1.0485056638717651 2.2983527183532715 30 30 30
-0.16848596930503845 -0.9735739231109619 2.3093202114105225 50 50 50
-0.16083073616027832 -0.9371976256370544 2.328299045562744 26 26 26
-0.15662725269794464 -0.9456411600112915 2.324971914291382 74 74 74
-0.15062320232391357 -0.9579223990440369 2.328601121902466 32 32 32
-0.14919228851795197 -0.8550949096679688 2.3432652950286865 111 111 111
-0.13924570381641388 -0.9058378338813782 2.3466367721557617 102 102 102
-0.12479207664728165 -0.6273592710494995 2.3921453952789307 27 27 27
-0.12749773263931274 0.24691559374332428 2.519237518310547 79 79 79
-0.11249429732561111 -0.9708776473999023 2.346953868865967 31 31 31
-0.11815201491117477 0.27107760310173035 2.514174461364746 112 112 112
-0.10514196008443832 -0.617466926574707 2.408818244934082 88 88 88
-0.10379748046398163 0.2299562245607376 2.5308732986450195 101 101 101
-0.09889150410890579 0.24780485033988953 2.5269010066986084 53 53 53
-0.09231968224048615 0.09226936101913452 2.5127060413360596 94 94 94
-0.07359262555837631 -0.4234870672225952 2.46551251411438 0 0 0
-0.07497479766607285 0.32344624400138855 2.5611119270324707 20 20 20
-0.06685968488454819 -0.9504643082618713 2.388585090637207 97 97 97
-0.06611355394124985 -0.7291148900985718 2.422447443008423 30 30 30
-0.06377141922712326 -0.7109267115592957 2.425724983215332 115 115 115
-0.054832395166158676 -0.6842181086540222 2.436272621154785 103 103 103
-0.031051838770508766 -0.8261810541152954 2.4351391792297363 76 76 76
-0.025556696578860283 0.11857196688652039 2.56258487701416 101 101 101
0.5267053246498108 0.3395017683506012 2.0263917446136475 99 99 99
0.5630338788032532 0.37216418981552124 2.0518691539764404 37 37 37
0.705034613609314 -0.2692318856716156 2.054415702819824 94 94 94
0.6782208681106567 -0.37993112206459045 1.891343355178833 62 62 62
0.764369010925293 -0.36847418546676636 1.7970749139785767 159 159 159
