ply
format ascii 1.0
element vertex 73
property float x
property float y
property float z
property uchar red
property uchar green
property uchar blue
end_header
-1.5557249784469604 2.342928409576416 4.459989547729492 18 18 18
-1.4895968437194824 0.41160497069358826 4.365859508514404 22 22 22
-1.5006158351898193 1.2155389785766602 4.403296947479248 89 89 89
-1.446019172668457 -0.6569666266441345 4.274822235107422 35 35 35
-1.446019172668457 -0.6569666266441345 4.274822235107422 35 35 35
-1.5595325231552124 -1.2643229961395264 4.682942867279053 100 100 100
-1.4029209613800049 -0.8740237355232239 4.280579566955566 28 28 28
-1.33475661277771 -2.145732879638672 4.176371097564697 39 39 39
-1.332205891609192 -1.9955589771270752 4.2081990242004395 95 95 95
-1.4743403196334839 -1.283166527748108 4.7669501304626465 100 100 100
-1.4589698314666748 -1.2744522094726562 4.737594127655029 96 96 96
-1.4589698314666748 -1.2744522094726562 4.737594127655029 96 96 96
-1.344646692276001 2.545050859451294 4.656591892242432 20 20 20
-1.5204001665115356 -1.4155457019805908 5.3281989097595215 102 102 102
-1.25615394115448 -1.9812307357788086 4.425899982452393 24 24 24
-1.257737398147583 -0.24537654221057892 4.520090103149414 25 25 25
-1.2543686628341675 0.012004103511571884 4.522390842437744 36 36 36
-1.2649142742156982 0.6349453330039978 4.595991134643555 119 119 119
-1.1209149360656738 2.494347095489502 4.877039432525635 19 19 19
-1.1149815320968628 2.338479518890381 4.856309413909912 14 14 14
-1.0135663747787476 -1.9919967651367188 4.50766134262085 90 90 90
-1.096685528755188 -1.5925534963607788 5.138882160186768 17 17 17
-0.996167004108429 -0.21332906186580658 4.7030510902404785 52 52 52
-0.9455726146697998 -1.2938960790634155 5.071941375732422 117 117 117
-0.9371960163116455 2.743903160095215 5.05173921585083 16 16 16
-0.9225776791572571 -1.2193342447280884 5.068812847137451 27 27 27
-0.9191488027572632 2.5346288681030273 5.071293354034424 20 20 20
-0.9145111441612244 2.719477891921997 5.081237316131592 23 23 23
-0.9145111441612244 2.719477891921997 5.081237316131592 23 23 23
-0.8878781199455261 -1.7909833192825317 5.002882480621338 78 78 78
-0.8863516449928284 -1.349503517150879 5.039399147033691 27 27 27
-0.8545237183570862 -1.9775830507278442 4.8745527267456055 22 22 22
-0.8774701356887817 1.665511965751648 5.039527893066406 16 16 16
-0.8523411750793457 2.717529773712158 5.106571674346924 12 12 12
-0.8083395957946777 0.16544167697429657 4.906507968902588 21 21 21
-0.8039654493331909 -0.030858980491757393 4.9105401039123535 17 17 17
-0.7821485996246338 -1.2097164392471313 4.8914289474487305 98 98 98
-0.7288008332252502 -1.1264268159866333 4.84208869934082 118 118 118
-0.7227584719657898 -1.111290693283081 4.876140117645264 21 21 21
-0.7227584719657898 -1.111290693283081 4.876140117645264 21 21 21
-0.6705517172813416 -1.960253357887268 4.797908306121826 26 26 26
-0.6705517172813416 -1.960253357887268 4.797908306121826 26 26 26
-0.6714410781860352 0.42977970838546753 5.051764965057373 97 97 97
-0.6714410781860352 0.42977970838546753 5.051764965057373 97 97 97
-0.6274338960647583 2.754467248916626 5.34389591217041 74 74 74
-0.5617315769195557 -1.4479279518127441 4.953481674194336 85 85 85
-0.5482141375541687 -1.9682263135910034 4.921295642852783 18 18 18
-0.5706854462623596 0.3474917411804199 5.145486354827881 99 99 99
-0.5589284300804138 -0.48677000403404236 5.07023811340332 17 17 17
-0.5264926552772522 -1.3296923637390137 5.007796287536621 22 22 22
-0.5347437858581543 0.35182374715805054 5.130786418914795 69 69 69
-0.5083242654800415 0.8311066627502441 5.2616963386535645 84 84 84
-0.40544524788856506 -1.940730094909668 4.9876861572265625 20 20 20
-0.4090363085269928 1.4248026609420776 5.424458980560303 14 14 14
-0.4027603268623352 0.9942868947982788 5.365993499755859 23 23 23
-0.3581812083721161 -0.26894816756248474 5.264049053192139 70 70 70
-0.3581812083721161 -0.26894816756248474 5.264049053192139 70 70 70
-0.34980612993240356 0.006409803871065378 5.315018653869629 94 94 94
-0.08524271845817566 -1.1013457775115967 5.381396293640137 20 20 20
-0.08524271845817566 -1.1013457775115967 5.381396293640137 20 20 20
-0.012362419627606869 2.0483860969543457 5.851655006408691 15 15 15
0.12538020312786102 -1.1170340776443481 5.617837905883789 23 23 23
0.29531389474868774 -1.1109037399291992 5.739854335784912 25 25 25
0.6350793838500977 0.5700161457061768 6.240347862243652 80 80 80
1.3918479681015015 2.620997667312622 7.204389572143555 18 18 18
1.5264511108398438 0.5430079102516174 6.998041152954102 69 69 69
1.805847406387329 3.2176716327667236 6.943883419036865 47 47 47
2.3059632778167725 -0.6764401197433472 7.505673408508301 62 62 62
2.454979419708252 -0.6623241305351257 7.505866527557373 58 58 58
2.665531873703003 -0.9040101766586304 7.478458881378174 68 68 68
2.866258382797241 0.09654941409826279 7.987295627593994 79 79 79
2.9972152709960938 -1.5441449880599976 7.921372890472412 79 79 79
3.0824685096740723 -0.7188037633895874 8.09114933013916 4 4 4
