ply
format ascii 1.0
element vertex 185
property float x
property float y
property float z
property uchar red
property uchar green
property uchar blue
end_header
-1.7922025918960571 2.042071580886841 7.111785411834717 106 106 106
-1.7858322858810425 1.4359887838363647 7.090948581695557 94 94 94
-1.7858322858810425 1.4359887838363647 7.090948581695557 94 94 94
-1.7599434852600098 1.415366530418396 7.104564189910889 97 97 97
-1.724313497543335 1.3703114986419678 7.086962699890137 115 115 115
-1.733704686164856 2.0396695137023926 7.153176307678223 114 114 114
-1.7044425010681152 1.6219369173049927 7.124261379241943 126 126 126
-1.6618127822875977 1.558523178100586 7.146295070648193 72 72 72
-1.6652120351791382 2.2906229496002197 7.187417030334473 24 24 24
-1.6409008502960205 2.8223471641540527 7.288210391998291 27 27 27
-1.6511551141738892 0.6142733693122864 7.422938346862793 84 84 84
-1.5928211212158203 1.5108040571212769 7.170004844665527 112 112 112
-1.7730000019073486 -0.40476396679878235 8.084569931030273 49 49 49
-1.5452561378479004 1.7630584239959717 7.1935133934021 129 129 129
-1.5452561378479004 1.7630584239959717 7.1935133934021 129 129 129
-1.594379186630249 0.4308517873287201 7.507111072540283 95 95 95
-1.4803104400634766 2.390300989151001 7.196755886077881 97 97 97
-1.5256327390670776 0.5095962285995483 7.543440818786621 253 253 253
-1.439851999282837 -2.367576837539673 7.122926235198975 118 118 118
-1.4392913579940796 2.21927809715271 7.195344924926758 98 98 98
-1.4257946014404297 1.239657998085022 7.149667739868164 22 22 22
-1.4257946014404297 1.239657998085022 7.149667739868164 22 22 22
-1.4208354949951172 1.542994737625122 7.192328929901123 125 125 125
-1.4162057638168335 2.2546334266662598 7.199642181396484 26 26 26
-1.4161622524261475 2.360818862915039 7.226388931274414 96 96 96
-1.401094913482666 1.6009677648544312 7.187239170074463 138 138 138
-1.3659470081329346 1.4862910509109497 7.136468887329102 141 141 141
-1.3988914489746094 0.5244911909103394 7.373676300048828 127 127 127
-1.372635006904602 1.847399353981018 7.245286464691162 61 61 61
-1.39302659034729 0.612004816532135 7.354567050933838 60 60 60
-1.3099395036697388 1.7355475425720215 7.111604690551758 121 121 121
-1.2798882722854614 1.9936151504516602 7.198033809661865 123 123 123
-1.2672948837280273 1.508131504058838 7.2361369132995605 123 123 123
-1.2339950799942017 2.152384042739868 7.222801685333252 54 54 54
-1.2110745906829834 -2.3754703998565674 7.184714317321777 142 142 142
-1.2286678552627563 -0.6451431512832642 7.3850483894348145 118 118 118
-1.1104683876037598 2.0945611000061035 7.260013580322266 109 109 109
-1.0753480195999146 1.5050420761108398 7.134100437164307 149 149 149
-1.0959266424179077 2.7286441326141357 7.32706356048584 49 49 49
-1.0640583038330078 0.9686257243156433 7.222499847412109 48 48 48
-1.0605050325393677 1.4228711128234863 7.291868209838867 21 21 21
-1.0573238134384155 2.747600555419922 7.278010368347168 112 112 112
-1.0456677675247192 2.1312460899353027 7.247249126434326 59 59 59
-1.020829677581787 1.6941349506378174 7.253144264221191 119 119 119
-1.027578592300415 -1.7265188694000244 7.514303207397461 218 218 218
-0.9886631369590759 1.8835135698318481 7.3522138595581055 101 101 101
-0.9696862697601318 1.699662208557129 7.263007164001465 48 48 48
-0.9405950903892517 1.7129366397857666 7.230262279510498 49 49 49
-0.9405950903892517 1.7129366397857666 7.230262279510498 49 49 49
-0.9357458353042603 1.3503836393356323 7.269627094268799 96 96 96
-0.9316630959510803 -1.6920086145401 7.396491527557373 211 211 211
-0.8804503679275513 2.2178850173950195 7.315952301025391 21 21 21
-0.8665755987167358 1.496683120727539 7.247934341430664 121 121 121
-0.8311877846717834 0.6832919716835022 7.6231560707092285 117 117 117
-0.7672742605209351 1.5323972702026367 7.272531509399414 60 60 60
-0.765876054763794 1.9534627199172974 7.352814674377441 53 53 53
-0.7425531148910522 1.480796456336975 7.288811683654785 100 100 100
-0.6919899582862854 1.514269232749939 7.428033351898193 99 99 99
-0.6660033464431763 0.9034788012504578 7.334930896759033 49 49 49
-0.6660033464431763 0.9034788012504578 7.334930896759033 49 49 49
-0.5411232113838196 0.6608468294143677 7.318582057952881 149 149 149
-0.5256429314613342 1.057051658630371 7.351262092590332 92 92 92
-0.5031227469444275 -2.2746059894561768 7.255812644958496 93 93 93
-0.48153844475746155 0.8690693974494934 7.395876884460449 72 72 72
-0.48153844475746155 0.8690693974494934 7.395876884460449 72 72 72
-0.47383105754852295 0.8313992619514465 7.348556041717529 147 147 147
-0.47383105754852295 0.8313992619514465 7.348556041717529 147 147 147
-0.43891793489456177 -1.8254239559173584 7.65118932723999 226 226 226
-0.43891793489456177 -1.8254239559173584 7.65118932723999 226 226 226
-0.4192044734954834 1.0181176662445068 7.328384876251221 35 35 35
-0.4083288013935089 0.6521921753883362 7.361691474914551 122 122 122
-0.39980000257492065 1.958210825920105 7.204399108886719 109 109 109
-0.39150384068489075 1.2342867851257324 7.401008605957031 47 47 47
-0.2765514850616455 1.5686438083648682 7.346992492675781 91 91 91
-0.2509602904319763 2.3824143409729004 6.9419050216674805 51 51 51
-0.2509602904319763 2.3824143409729004 6.9419050216674805 51 51 51
-0.24541445076465607 2.170593500137329 7.148654937744141 55 55 55
-0.21877190470695496 2.488840341567993 7.261817932128906 47 47 47
-0.21877190470695496 2.488840341567993 7.261817932128906 47 47 47
-0.15013322234153748 3.352238893508911 5.242962837219238 64 64 64
-0.12743346393108368 2.4792795181274414 7.090930938720703 14 14 14
-0.12065324187278748 -2.0500423908233643 7.419189929962158 37 37 37
-0.05825645476579666 1.7423678636550903 7.505863666534424 19 19 19
-0.04844775050878525 1.1663118600845337 7.472517490386963 20 20 20
0.012479260563850403 2.0239808559417725 7.150665760040283 118 118 118
0.023355664685368538 0.289232075214386 7.504500865936279 100 100 100
0.05606822296977043 0.534966766834259 7.467740535736084 102 102 102
0.09519656747579575 2.7046310901641846 7.313943386077881 13 13 13
0.12145011872053146 -1.7072864770889282 7.305666923522949 125 125 125
0.12895402312278748 -1.5943678617477417 7.245121002197266 135 135 135
0.1334391087293625 2.863774538040161 7.111462116241455 93 93 93
0.14052042365074158 -1.524791955947876 7.301591873168945 175 175 175
0.16792885959148407 2.7338929176330566 7.250180721282959 78 78 78
0.1691765934228897 -0.527854859828949 7.235366344451904 159 159 159
0.1824473887681961 -1.671968936920166 7.198657035827637 131 131 131
0.23957784473896027 0.8072338104248047 7.131263256072998 24 24 24
0.2609681189060211 -1.0185832977294922 7.032002925872803 156 156 156
0.27472174167633057 0.2595987915992737 7.033794403076172 131 131 131
0.2966581881046295 -1.365198016166687 7.039288520812988 80 80 80
0.3336707055568695 2.258694887161255 7.023144245147705 20 20 20
0.36894097924232483 -1.7770881652832031 6.877054691314697 51 51 51
0.37887173891067505 0.5113306045532227 6.760005474090576 133 133 133
0.4137284755706787 0.181985542178154 6.81659460067749 104 104 104
0.4190117418766022 0.24165299534797668 6.741177558898926 189 189 189
0.44133225083351135 0.12900623679161072 6.666587829589844 157 157 157
0.4426265060901642 0.19507025182247162 6.6590657234191895 116 116 116
0.5816225409507751 1.7484265565872192 6.554281234741211 29 29 29
0.6465197801589966 1.6822624206542969 6.428973197937012 84 84 84
0.6549835205078125 0.8139631152153015 6.3608479499816895 110 110 110
0.6591507792472839 1.2543566226959229 6.399335861206055 106 106 106
0.6513332724571228 0.4492446184158325 6.3084940910339355 102 102 102
0.6673986911773682 2.151582956314087 6.38953161239624 78 78 78
0.6595234870910645 0.03396346792578697 6.271705627441406 100 100 100
0.6602154970169067 -0.36413854360580444 6.242767333984375 111 111 111
0.6615028381347656 -0.8003467917442322 6.223438262939453 120 120 120
0.6839940547943115 -1.2198809385299683 6.230720520019531 151 151 151
0.7025529742240906 1.8020390272140503 6.363006591796875 17 17 17
0.690287172794342 -2.1059961318969727 6.215456962585449 148 148 148
0.696538507938385 -1.6651661396026611 6.25806999206543 150 150 150
0.7206171154975891 -1.876514196395874 6.168339729309082 127 127 127
0.7502493262290955 -1.5538157224655151 6.172677516937256 7 7 7
0.8111823201179504 1.7206366062164307 6.378924369812012 43 43 43
0.7809067964553833 -3.29455304145813 6.0841569900512695 34 34 34
0.7809067964553833 -3.29455304145813 6.0841569900512695 34 34 34
0.8063120245933533 0.4508465528488159 6.233922958374023 41 41 41
0.7829001545906067 -2.2363569736480713 6.030796051025391 132 132 132
0.7881061434745789 -2.245694875717163 6.047396183013916 130 130 130
0.8134217262268066 -0.36355122923851013 6.1720709800720215 59 59 59
0.8176546692848206 -0.7186947464942932 6.1856231689453125 65 65 65
0.8370017409324646 -1.3166075944900513 6.179575443267822 141 141 141
0.8414520621299744 -1.5836960077285767 6.1895527839660645 91 91 91
0.8512052893638611 -1.7701207399368286 6.198591709136963 48 48 48
0.8744717836380005 1.347343921661377 6.298731803894043 15 15 15
0.853874146938324 -2.068749189376831 6.139199733734131 91 91 91
0.8994442224502563 2.3899405002593994 6.416530132293701 66 66 66
0.8699629306793213 -3.0370564460754395 5.932535171508789 123 123 123
0.9286887049674988 -2.0395379066467285 6.181220054626465 99 99 99
0.9426161050796509 -2.1875133514404297 6.160312175750732 19 19 19
0.91432785987854 -3.0145037174224854 5.81107234954834 139 139 139
0.977042555809021 -2.0572397708892822 6.178786754608154 31 31 31
0.9834213852882385 -2.063246965408325 6.20064115524292 31 31 31
1.0071561336517334 -2.013174295425415 6.1448235511779785 162 162 162
1.0092179775238037 -2.0177721977233887 6.1500115394592285 138 138 138
0.9386749267578125 3.2908573150634766 5.381907939910889 69 69 69
1.08141028881073 0.016805235296487808 6.182905673980713 146 146 146
0.9981709122657776 -3.3385403156280518 5.601880073547363 89 89 89
1.0916695594787598 -2.002619743347168 6.1034064292907715 37 37 37
1.011927604675293 -3.3133881092071533 5.6129536628723145 24 24 24
1.1176406145095825 -1.9267010688781738 6.116479873657227 175 175 175
1.055537223815918 -2.2217609882354736 5.619684219360352 51 51 51
1.1269313097000122 -1.905756950378418 5.9977126121521 51 51 51
1.055848479270935 -2.266131639480591 5.57177209854126 148 148 148
1.240579605102539 -2.0074384212493896 6.341711044311523 39 39 39
1.1448580026626587 -3.0890274047851562 5.457547187805176 135 135 135
1.2681463956832886 -2.8277623653411865 5.280711650848389 129 129 129
1.4217866659164429 3.2957611083984375 5.38037633895874 63 63 63
1.3907997608184814 -2.7561540603637695 4.973091125488281 45 45 45
1.3907997608184814 -2.7561540603637695 4.973091125488281 45 45 45
1.7439451217651367 3.148771047592163 5.792721271514893 49 49 49
1.4848231077194214 -2.8737494945526123 4.809385776519775 118 118 118
1.6517436504364014 -2.2201156616210938 4.713503360748291 36 36 36
1.981768012046814 -0.820378839969635 5.543287754058838 50 50 50
1.981768012046814 -0.820378839969635 5.543287754058838 50 50 50
1.9914562702178955 -0.8710812330245972 5.502066612243652 34 34 34
1.9914562702178955 -0.8710812330245972 5.502066612243652 34 34 34
2.0070204734802246 -0.8436674475669861 5.459935188293457 155 155 155
2.019916534423828 -0.8968013525009155 5.445829391479492 149 149 149
2.1292455196380615 3.222771167755127 5.527766704559326 21 21 21
2.0624043941497803 -0.8989583253860474 5.338469505310059 45 45 45
2.093351125717163 -0.8492424488067627 5.358686923980713 151 151 151
2.0898451805114746 0.24959370493888855 5.312450408935547 172 172 172
2.094989776611328 -0.9295458793640137 5.285845756530762 27 27 27
1.800197958946228 1.1043168306350708 4.476839065551758 116 116 116
1.8266606330871582 2.542328357696533 4.535671710968018 18 18 18
1.833208441734314 1.871938943862915 4.492464542388916 45 45 45
1.9050978422164917 -0.06451927870512009 4.362637519836426 19 19 19
1.9050978422164917 -0.06451927870512009 4.362637519836426 19 19 19
1.8469783067703247 -1.375959873199463 4.066848278045654 95 95 95
1.9849365949630737 1.8636962175369263 4.308765411376953 16 16 16
1.9818377494812012 2.1269991397857666 4.293091773986816 19 19 19
1.9839426279067993 1.6452672481536865 4.263974189758301 13 13 13
1.9894025325775146 1.202583909034729 4.2384114265441895 16 16 16
1.9980610609054565 0.6908472776412964 4.185365200042725 18 18 18
1.998734474182129 0.4240545332431793 4.162446975708008 18 18 18
2.0065417289733887 0.20351587235927582 4.150741100311279 18 18 18
