ply
format ascii 1.0
element vertex 200
property float x
property float y
property float z
property uchar red
property uchar green
property uchar blue
end_header
-4.797663688659668 -3.725726366043091 10.065277099609375 90 90 90
-5.122810363769531 1.090553879737854 10.805356979370117 133 133 133
-5.122810363769531 1.090553879737854 10.805356979370117 133 133 133
-4.880334854125977 -3.1976377964019775 10.617518424987793 204 204 204
-4.880334854125977 -3.1976377964019775 10.617518424987793 204 204 204
-4.462173938751221 -3.7515206336975098 10.111952781677246 97 97 97
-3.236591100692749 4.8862504959106445 7.4511542320251465 134 134 134
-4.695271968841553 2.0703580379486084 10.901564598083496 72 72 72
-4.723361015319824 0.9201133847236633 11.149191856384277 121 121 121
-4.6751179695129395 3.149508237838745 11.083927154541016 23 23 23
-4.13031530380249 -4.909308910369873 9.942584991455078 82 82 82
-3.4661335945129395 4.755694389343262 8.384209632873535 69 69 69
-4.46843147277832 2.129572868347168 10.897726058959961 13 13 13
-4.636775970458984 3.6128439903259277 11.318513870239258 24 24 24
-4.46596097946167 2.702308177947998 11.038885116577148 104 104 104
-4.640537738800049 -0.19082117080688477 11.470986366271973 65 65 65
-4.552316665649414 4.377221584320068 11.320300102233887 72 72 72
-4.4001922607421875 2.3020026683807373 10.972283363342285 121 121 121
-4.3953142166137695 2.0774574279785156 11.052702903747559 39 39 39
-4.3953142166137695 2.0774574279785156 11.052702903747559 39 39 39
-4.367306709289551 2.2327141761779785 11.011005401611328 64 64 64
-4.4348673820495605 -1.5968633890151978 11.231664657592773 159 159 159
-4.4348673820495605 -1.5968633890151978 11.231664657592773 159 159 159
-4.498160362243652 0.68416827917099 11.395411491394043 46 46 46
-3.230470895767212 4.775925636291504 8.274609565734863 70 70 70
-4.3605546951293945 0.8589270710945129 11.196793556213379 28 28 28
-3.9801275730133057 -3.8918614387512207 10.24309253692627 136 136 136
-3.91196870803833 -4.258736610412598 10.089714050292969 120 120 120
-4.263230800628662 2.2204816341400146 11.03876781463623 114 114 114
-3.9177279472351074 -3.6426844596862793 10.147539138793945 132 132 132
-3.930748462677002 -4.013716697692871 10.1810941696167 136 136 136
-4.5934343338012695 -1.0934683084487915 12.308672904968262 194 194 194
-4.594411849975586 -0.8076431751251221 12.335590362548828 228 228 228
-4.192812919616699 0.8571463823318481 11.272607803344727 26 26 26
-4.071319103240967 2.105555772781372 11.024545669555664 33 33 33
-4.12160587310791 2.5621204376220703 11.163002967834473 85 85 85
-3.762990713119507 -4.002135276794434 10.198650360107422 132 132 132
-3.7647414207458496 -4.001962184906006 10.296571731567383 132 132 132
-4.201281547546387 0.23779816925525665 11.511401176452637 50 50 50
-3.986213207244873 2.1711649894714355 10.980240821838379 43 43 43
-4.016012668609619 2.9895660877227783 11.15086841583252 109 109 109
-3.925595760345459 2.1130874156951904 10.914528846740723 24 24 24
-4.618575572967529 -0.6321797370910645 12.845043182373047 22 22 22
-4.576517581939697 -0.981559693813324 12.747352600097656 10 10 10
-3.9314963817596436 2.297376871109009 10.976197242736816 56 56 56
-3.9644975662231445 3.5355169773101807 11.181638717651367 84 84 84
-3.924402952194214 1.8678301572799683 11.092577934265137 98 98 98
-4.470455646514893 -1.472288727760315 12.637433052062988 31 31 31
-3.6223371028900146 -3.6750104427337646 10.249876022338867 116 116 116
-3.9455082416534424 3.2560882568359375 11.176292419433594 94 94 94
-3.8864805698394775 2.6447489261627197 11.056951522827148 113 113 113
-3.8975601196289062 2.4083027839660645 11.094564437866211 134 134 134
-2.6257243156433105 4.868047714233398 7.487254619598389 133 133 133
-2.6257243156433105 4.868047714233398 7.487254619598389 133 133 133
-3.8260669708251953 1.0645500421524048 10.918631553649902 55 55 55
-6.958042144775391 1.1520864963531494 19.881309509277344 27 27 27
-3.7869086265563965 1.4351099729537964 10.949868202209473 26 26 26
-3.82025408744812 2.2808094024658203 11.0721435546875 63 63 63
-4.625123500823975 -0.5527310371398926 13.49443244934082 164 164 164
-4.372890472412109 -0.7885093092918396 12.862441062927246 55 55 55
-3.720457077026367 4.068654537200928 11.324216842651367 69 69 69
-3.6050546169281006 0.9218195080757141 10.973173141479492 107 107 107
-4.140399932861328 0.23017677664756775 12.748181343078613 85 85 85
-3.6005568504333496 2.169715404510498 11.128799438476562 160 160 160
-4.123617649078369 -1.6588798761367798 12.793161392211914 43 43 43
-4.021633625030518 -1.6286686658859253 12.541565895080566 31 31 31
-3.578934907913208 2.993609666824341 11.2250337600708 91 91 91
-3.5912563800811768 3.4845385551452637 11.2939453125 25 25 25
-3.476330518722534 0.9223787784576416 11.032798767089844 107 107 107
-3.494677782058716 3.3078646659851074 11.163864135742188 90 90 90
-3.4200174808502197 -2.2769556045532227 10.953951835632324 27 27 27
-3.442347288131714 -2.141202926635742 11.060990333557129 28 28 28
-3.3965377807617188 2.1813457012176514 11.063996315002441 128 128 128
-3.4056127071380615 2.392402172088623 11.145106315612793 121 121 121
-2.136275291442871 -1.4232964515686035 7.1086907386779785 31 31 31
-3.345122814178467 2.2331650257110596 11.133575439453125 61 61 61
-3.3054323196411133 1.7771003246307373 11.004875183105469 31 31 31
-2.2573323249816895 4.846888065338135 7.535815238952637 138 138 138
-2.321258068084717 4.829676151275635 7.830204963684082 63 63 63
-2.321258068084717 4.829676151275635 7.830204963684082 63 63 63
-3.2314422130584717 2.06044602394104 11.027083396911621 33 33 33
-3.2314422130584717 2.06044602394104 11.027083396911621 33 33 33
-3.6536803245544434 -1.68802011013031 12.558367729187012 15 15 15
-3.2391223907470703 2.201465368270874 11.222475051879883 122 122 122
-2.8350589275360107 -2.728975296020508 9.870427131652832 59 59 59
-3.089078903198242 -3.4699110984802246 10.804107666015625 86 86 86
-3.7017290592193604 -0.7191861867904663 12.956246376037598 44 44 44
-3.759756088256836 0.036251287907361984 13.185044288635254 254 254 254
-3.267383575439453 4.362729072570801 11.47973346710205 98 98 98
-3.1639249324798584 2.2936785221099854 11.155110359191895 131 131 131
-2.8296334743499756 -4.481261253356934 10.163970947265625 83 83 83
-3.605562686920166 -1.5603883266448975 13.017822265625 6 6 6
-3.0862603187561035 2.1601524353027344 11.143596649169922 97 97 97
-3.0821645259857178 3.292677879333496 11.278470993041992 94 94 94
-2.1302425861358643 4.805851459503174 7.811272621154785 58 58 58
-2.7672903537750244 -3.913759231567383 10.215377807617188 133 133 133
-2.7572171688079834 -4.622677803039551 10.188661575317383 130 130 130
-2.7572171688079834 -4.622677803039551 10.188661575317383 130 130 130
-2.975889205932617 1.090666651725769 11.012168884277344 60 60 60
-3.0498976707458496 3.0623536109924316 11.287824630737305 115 115 115
-3.009913444519043 2.630138397216797 11.200392723083496 121 121 121
-2.974806785583496 2.3759636878967285 11.1137113571167 124 124 124
-3.017460823059082 0.9322989583015442 11.298527717590332 108 108 108
-3.5173416137695312 -0.5598021745681763 13.249829292297363 44 44 44
-2.966212511062622 2.5518789291381836 11.18478775024414 128 128 128
-3.53482985496521 0.016810981556773186 13.353510856628418 139 139 139
-2.935936450958252 2.6838932037353516 11.161869049072266 127 127 127
-2.9339981079101562 1.5464448928833008 11.16136646270752 104 104 104
-3.525908946990967 -0.7365341782569885 13.501282691955566 36 36 36
-2.862384796142578 1.8209136724472046 11.225400924682617 19 19 19
-2.803053855895996 -2.353107452392578 11.045793533325195 74 74 74
-2.7648603916168213 -3.244058847427368 10.9006986618042 60 60 60
-2.7926175594329834 2.202723503112793 11.148331642150879 114 114 114
-2.923693895339966 0.7909873723983765 11.763845443725586 63 63 63
-2.7633838653564453 0.9078302979469299 11.171607971191406 108 108 108
-2.738356351852417 2.626227617263794 11.257628440856934 132 132 132
-2.77260684967041 3.058265447616577 11.485936164855957 117 117 117
-2.654978036880493 2.954922914505005 11.131860733032227 115 115 115
-2.419095754623413 -3.666680335998535 10.175435066223145 111 111 111
-2.412137746810913 -3.991516590118408 10.244239807128906 104 104 104
-2.5521655082702637 0.8912990689277649 11.015166282653809 122 122 122
-2.625764846801758 3.500715732574463 11.492043495178223 23 23 23
-2.551769971847534 1.8078980445861816 11.198653221130371 20 20 20
-2.507610559463501 2.268322706222534 11.154858589172363 126 126 126
-2.4480834007263184 2.2144250869750977 11.222611427307129 114 114 114
-2.4617600440979004 0.6029800772666931 11.370564460754395 254 254 254
-2.389625072479248 2.0224497318267822 11.182501792907715 56 56 56
-1.6296621561050415 4.779734134674072 7.710063934326172 69 69 69
-2.2897748947143555 3.023754835128784 11.250040054321289 118 118 118
-2.235368251800537 2.1332461833953857 11.224569320678711 28 28 28
-2.18210768699646 2.133854389190674 11.21196460723877 24 24 24
-1.9660000801086426 -0.3979199528694153 11.529142379760742 252 252 252
-1.9575387239456177 4.31630802154541 11.538946151733398 134 134 134
-1.8657023906707764 1.3467352390289307 11.10414981842041 44 44 44
-1.8496516942977905 2.028444528579712 11.170083999633789 143 143 143
-1.8971850872039795 2.1784539222717285 11.480246543884277 23 23 23
-1.8590809106826782 2.577850341796875 11.297046661376953 103 103 103
-1.777992844581604 -3.339292287826538 11.109984397888184 109 109 109
-1.776013731956482 2.821593761444092 11.246928215026855 137 137 137
-1.768209457397461 2.592313528060913 11.3475341796875 48 48 48
-1.768209457397461 2.592313528060913 11.3475341796875 48 48 48
-1.586963415145874 2.2570033073425293 11.227192878723145 121 121 121
-1.58362877368927 3.85091495513916 11.431724548339844 60 60 60
-1.4806820154190063 2.1153972148895264 11.328170776367188 18 18 18
-1.4989662170410156 2.0981273651123047 11.502876281738281 30 30 30
-1.0703257322311401 4.721767425537109 8.229499816894531 75 75 75
-1.450151801109314 2.953301191329956 11.468175888061523 54 54 54
-1.4215631484985352 2.329022169113159 11.295330047607422 56 56 56
-1.3699356317520142 2.236117362976074 11.268524169921875 99 99 99
-1.3699356317520142 2.236117362976074 11.268524169921875 99 99 99
-1.261838436126709 -3.7035257816314697 10.492865562438965 102 102 102
-1.2630577087402344 -3.904090642929077 10.524067878723145 94 94 94
-1.3160609006881714 2.279481887817383 11.459407806396484 98 98 98
-1.2421458959579468 3.8912932872772217 11.039628982543945 23 23 23
-1.246480941772461 1.2853283882141113 11.275140762329102 56 56 56
-1.142679214477539 4.386795520782471 11.158449172973633 112 112 112
-1.0712716579437256 3.313218593597412 11.106147766113281 47 47 47
-1.0113105773925781 1.3853639364242554 11.243316650390625 42 42 42
-0.9547732472419739 -3.701350688934326 10.62222957611084 91 91 91
-1.0044819116592407 1.5547144412994385 11.299325942993164 58 58 58
-1.0044819116592407 1.5547144412994385 11.299325942993164 58 58 58
-0.9778273701667786 2.3463947772979736 11.548238754272461 73 73 73
-0.9519840478897095 1.3202786445617676 11.277542114257812 131 131 131
-0.9271019697189331 1.563629150390625 11.364038467407227 53 53 53
-0.8958651423454285 1.6574079990386963 11.347441673278809 138 138 138
-0.8958651423454285 1.6574079990386963 11.347441673278809 138 138 138
-0.8546775579452515 1.4453353881835938 11.270171165466309 132 132 132
-0.8546775579452515 1.4453353881835938 11.270171165466309 132 132 132
-0.8353663086891174 2.3437557220458984 11.440927505493164 120 120 120
-0.7727960348129272 1.0496119260787964 10.882705688476562 96 96 96
-0.8289347887039185 3.2082250118255615 11.928688049316406 32 32 32
-0.8114649653434753 0.8327948451042175 11.738438606262207 58 58 58
-0.7112831473350525 3.5694963932037354 10.431058883666992 119 119 119
-0.7204353213310242 3.405120372772217 10.91950798034668 124 124 124
-0.6545882821083069 3.3689050674438477 10.404647827148438 119 119 119
-0.6545882821083069 3.3689050674438477 10.404647827148438 119 119 119
-0.6815555691719055 0.8969087600708008 11.207473754882812 119 119 119
-0.6771068572998047 -3.0187249183654785 11.27315616607666 211 211 211
-0.583543062210083 3.5060460567474365 10.472260475158691 106 106 106
-0.49722445011138916 4.63572883605957 8.98745059967041 55 55 55
-0.40978142619132996 4.738306522369385 8.001688957214355 145 145 145
-0.5623087286949158 0.33967214822769165 12.070440292358398 190 190 190
-0.5403613448143005 0.49507930874824524 11.965654373168945 46 46 46
-0.24640853703022003 -3.289017677307129 10.407279968261719 25 25 25
-0.24025024473667145 1.6653152704238892 10.885650634765625 56 56 56
-0.22196365892887115 3.096132516860962 10.848631858825684 119 119 119
-0.2196940779685974 2.450016498565674 11.51916217803955 92 92 92
-0.19291500747203827 2.9356579780578613 11.4478759765625 40 40 40
-0.19291500747203827 2.9356579780578613 11.4478759765625 40 40 40
-0.17562662065029144 1.7695653438568115 11.446127891540527 19 19 19
-0.1609921157360077 4.641702175140381 10.81298828125 45 45 45
-0.13550075888633728 4.414109706878662 11.095887184143066 116 116 116
0.027701573446393013 1.7557952404022217 11.506821632385254 17 17 17
0.4421415627002716 4.525019645690918 9.097404479980469 19 19 19
0.7272152900695801 3.0577049255371094 9.03754997253418 15 15 15
0.7363415956497192 2.048617362976074 8.847132682800293 45 45 45
0.759101152420044 2.752668857574463 9.039257049560547 24 24 24
0.7768651843070984 -0.16578780114650726 8.636476516723633 36 36 36
0.810202956199646 4.752378463745117 7.96610164642334 65 65 65
0.8549306392669678 -3.182899236679077 5.455684661865234 28 28 28
