ply
format ascii 1.0
element vertex 72
property float x
property float y
property float z
property uchar red
property uchar green
property uchar blue
end_header
-1.4787590503692627 0.2742310166358948 3.6796369552612305 27 27 27
-1.416941523551941 -0.79804927110672 3.611619710922241 89 89 89
-1.3670252561569214 -0.320548951625824 3.698488235473633 89 89 89
-1.3827183246612549 0.18270961940288544 3.7512528896331787 85 85 85
-1.4246563911437988 1.8438223600387573 3.8922438621520996 13 13 13
-1.3601187467575073 0.015082743018865585 3.7538156509399414 10 10 10
-1.3663047552108765 0.4392637610435486 3.787959337234497 2 2 2
-1.3413783311843872 -0.3802641034126282 3.719052791595459 6 6 6
-1.3449645042419434 -0.20685793459415436 3.750234365463257 15 15 15
-1.3691459894180298 0.6373732686042786 3.827134847640991 114 114 114
-1.34564208984375 0.20843486487865448 3.7810163497924805 17 17 17
-1.2644338607788086 -0.6180130243301392 3.7384986877441406 19 19 19
-1.5223826169967651 -1.347663164138794 4.554762840270996 107 107 107
-1.1916108131408691 1.618904948234558 4.026417255401611 57 57 57
-1.199872612953186 2.0571248531341553 4.059967041015625 13 13 13
-1.1730291843414307 1.2059950828552246 4.022398471832275 13 13 13
-1.144644021987915 0.20391149818897247 3.9305856227874756 14 14 14
-1.1588962078094482 1.21621572971344 4.025038242340088 103 103 103
-1.1588962078094482 1.21621572971344 4.025038242340088 103 103 103
-1.0975720882415771 -0.8468049764633179 3.8300223350524902 77 77 77
-1.1113835573196411 -0.4230554401874542 3.8923754692077637 16 16 16
-1.1514573097229004 1.2313612699508667 4.037158489227295 17 17 17
-1.2564163208007812 -1.3052780628204346 4.4647135734558105 8 8 8
-1.0779014825820923 -0.3968106210231781 3.897782564163208 89 89 89
-1.0568886995315552 -0.8271290063858032 3.878380298614502 16 16 16
-0.9584569931030273 2.281137704849243 4.28894567489624 103 103 103
-0.9341263175010681 1.2295031547546387 4.186835289001465 13 13 13
-0.9421870708465576 1.8586808443069458 4.2526140213012695 95 95 95
-0.8881032466888428 -0.24240601062774658 4.04295015335083 84 84 84
-0.8834651112556458 -0.33092713356018066 4.051727294921875 87 87 87
-0.8960110545158386 0.40405693650245667 4.118722915649414 12 12 12
-0.8687618374824524 -0.23903509974479675 4.058697700500488 22 22 22
-0.871738851070404 0.1949385553598404 4.122735023498535 17 17 17
-0.8578474521636963 -0.20158979296684265 4.0725226402282715 104 104 104
-0.8390725255012512 -0.21354477107524872 4.07049036026001 21 21 21
-0.8347017168998718 0.6187437772750854 4.171268463134766 72 72 72
-0.7854229807853699 -0.624910295009613 4.076566219329834 16 16 16
-0.7657341361045837 -1.8781135082244873 3.980041742324829 18 18 18
-0.7657341361045837 -1.8781135082244873 3.980041742324829 18 18 18
-0.7525938749313354 0.4459620416164398 4.216419696807861 94 94 94
-0.7525938749313354 0.4459620416164398 4.216419696807861 94 94 94
-0.7525938749313354 0.4459620416164398 4.216419696807861 94 94 94
-0.6409127116203308 -0.42493540048599243 4.201497554779053 15 15 15
-0.6549097299575806 0.38675060868263245 4.292226314544678 11 11 11
-0.6045234799385071 -1.0205610990524292 4.171969890594482 80 80 80
-0.5838465690612793 -1.4466906785964966 4.110775470733643 16 16 16
-0.577605128288269 0.8385730981826782 4.419382572174072 78 78 78
-0.5517993569374084 0.5942468643188477 4.377193450927734 11 11 11
-0.5340028405189514 2.4729483127593994 4.629135608673096 14 14 14
-0.5079787969589233 2.491410732269287 4.646515369415283 70 70 70
-0.4826512932777405 2.4611713886260986 4.615157127380371 87 87 87
-0.4429239332675934 0.165889173746109 4.405402660369873 63 63 63
-0.3734484016895294 -1.0494446754455566 4.3327436447143555 15 15 15
-0.3630601167678833 -1.4591004848480225 4.287747383117676 14 14 14
-0.3579365015029907 -1.4800888299942017 4.283046245574951 7 7 7
-0.2677013874053955 1.8229836225509644 4.747468948364258 14 14 14
-0.2038271725177765 0.37618622183799744 4.620009422302246 13 13 13
-0.17848964035511017 -0.42650890350341797 4.554600238800049 15 15 15
-0.15596678853034973 2.3948521614074707 4.848823070526123 77 77 77
-0.14351578056812286 -1.044091820716858 4.493676662445068 14 14 14
-0.08728906512260437 -1.040354609489441 4.5118088722229 14 14 14
-0.01574162393808365 2.673417091369629 5.018228054046631 16 16 16
-0.005852565169334412 0.9834983944892883 4.829795837402344 13 13 13
0.025008684024214745 -0.1984333097934723 4.700951099395752 68 68 68
0.18091970682144165 2.2243430614471436 5.121307373046875 14 14 14
0.3928138315677643 2.0074970722198486 5.249638080596924 16 16 16
0.6415808796882629 2.216160774230957 5.466155052185059 7 7 7
0.6489620804786682 1.5775114297866821 5.3889079093933105 11 11 11
1.101718783378601 2.401980400085449 5.819919586181641 13 13 13
1.474131464958191 2.620964288711548 6.152975559234619 15 15 15
1.474131464958191 2.620964288711548 6.152975559234619 15 15 15
1.6139287948608398 0.5782118439674377 6.010782718658447 64 64 64
