ply
format ascii 1.0
element vertex 86
property float x
property float y
property float z
property uchar red
property uchar green
property uchar blue
end_header
-1.3289906978607178 0.6077568531036377 2.7140469551086426 35 35 35
-1.322793960571289 -0.8217612504959106 2.8237106800079346 83 83 83
-1.2493162155151367 0.5722846984863281 2.7386136054992676 99 99 99
-1.2275251150131226 0.32257160544395447 2.718082904815674 66 66 66
-1.2251169681549072 0.3414072096347809 2.7246057987213135 131 131 131
-1.2251169681549072 0.3414072096347809 2.7246057987213135 131 131 131
-1.0675686597824097 -0.9237961769104004 2.6264874935150146 102 102 102
-1.048752784729004 0.6511109471321106 2.8048744201660156 116 116 116
-1.0387721061706543 0.5888547897338867 2.8078880310058594 58 58 58
-1.011196255683899 0.6263673901557922 2.81880521774292 118 118 118
-0.936442494392395 -1.063772201538086 2.6669840812683105 121 121 121
-0.9738951921463013 0.27016550302505493 2.8870980739593506 31 31 31
-0.9500749111175537 0.8251302242279053 2.8589532375335693 111 111 111
-0.8919503688812256 -0.9891117215156555 2.6837575435638428 135 135 135
-0.8872426748275757 -0.9846450090408325 2.6962952613830566 133 133 133
-0.9192406535148621 0.7360875010490417 2.8465206623077393 114 114 114
-0.8935229182243347 0.682653546333313 2.8712077140808105 65 65 65
-0.8935229182243347 0.682653546333313 2.8712077140808105 65 65 65
-0.9147904515266418 0.30385878682136536 2.9987292289733887 107 107 107
-0.8401235342025757 0.8196646571159363 2.892071485519409 104 104 104
-0.8312090039253235 0.6296513676643372 2.8819730281829834 118 118 118
-0.7947618961334229 0.3126091957092285 2.8672385215759277 53 53 53
-0.7861793637275696 0.5082886219024658 2.8861942291259766 93 93 93
-0.769285261631012 0.5856392979621887 2.903712749481201 35 35 35
-0.753491997718811 0.6127246618270874 2.9065964221954346 133 133 133
-0.7150290012359619 -0.8998978137969971 2.763155221939087 42 42 42
-0.76177579164505 1.1676369905471802 2.9625353813171387 94 94 94
-0.7219285368919373 -0.8044689297676086 2.8143975734710693 19 19 19
-0.7461409568786621 0.6428290009498596 2.9198927879333496 134 134 134
-0.7538776397705078 1.1536357402801514 2.9690768718719482 37 37 37
-0.7411662936210632 0.8424353003501892 2.940202236175537 106 106 106
-0.7216315865516663 0.8957204818725586 2.9396450519561768 103 103 103
-0.7107772827148438 0.5466309189796448 2.9127438068389893 44 44 44
-0.7134418487548828 0.8359021544456482 2.94211745262146 114 114 114
-0.7047877907752991 0.5725628137588501 2.928734064102173 83 83 83
-0.6996979713439941 0.6633278727531433 2.9236583709716797 126 126 126
-0.6356671452522278 -0.7637150883674622 2.686643600463867 21 21 21
-0.6481049656867981 -1.1596782207489014 2.75424861907959 123 123 123
-0.6981019377708435 1.1520417928695679 2.9809749126434326 17 17 17
-0.6539666652679443 0.6163492798805237 2.942215919494629 112 112 112
-0.6344923377037048 0.2826329469680786 2.9928736686706543 117 117 117
-0.6166367530822754 0.995406985282898 2.9977128505706787 97 97 97
-0.6137104034423828 1.1092236042022705 3.0107016563415527 98 98 98
-0.5606643557548523 -0.9179847836494446 2.7726380825042725 118 118 118
-0.5979004502296448 0.9205600023269653 2.9883110523223877 98 98 98
-0.5891671180725098 0.5103270411491394 2.953700304031372 22 22 22
-0.585223376750946 0.6332698464393616 2.9614081382751465 125 125 125
-0.5881326794624329 0.9794140458106995 3.0005335807800293 96 96 96
-0.5697294473648071 0.6174435615539551 2.9755043983459473 141 141 141
-0.5341416001319885 0.8311256766319275 3.0035040378570557 123 123 123
-0.34374091029167175 1.3117486238479614 2.007723331451416 89 89 89
-0.4800370931625366 -0.9398228526115417 2.8481743335723877 142 142 142
-0.5062546133995056 1.0104914903640747 3.035865545272827 88 88 88
-0.49928775429725647 1.136781096458435 3.0521676540374756 43 43 43
-0.49882426857948303 1.1495704650878906 3.060296058654785 59 59 59
-0.45537421107292175 0.6360857486724854 3.020411729812622 149 149 149
-0.4458329975605011 0.39830586314201355 3.0227458477020264 48 48 48
-0.4401181936264038 0.8953856229782104 3.049192190170288 59 59 59
-0.42689576745033264 0.7106475234031677 3.034580707550049 119 119 119
-0.4238069951534271 0.8770173192024231 3.0577754974365234 100 100 100
-0.409904420375824 0.7796147465705872 3.0473711490631104 101 101 101
-0.4062858521938324 0.710885763168335 3.0422868728637695 48 48 48
-0.4055856764316559 0.8165348768234253 3.0567188262939453 43 43 43
-0.3961517810821533 0.7194616794586182 3.04386305809021 49 49 49
-0.39113733172416687 0.5631091594696045 3.0378739833831787 96 96 96
-0.393197625875473 -0.7112953066825867 3.121295213699341 211 211 211
-0.36508792638778687 0.6291237473487854 3.0525403022766113 121 121 121
-0.33263102173805237 0.5764128565788269 3.0663838386535645 37 37 37
-0.31370410323143005 -0.9162046909332275 2.9177920818328857 106 106 106
-0.3241857588291168 0.6469038128852844 3.0723090171813965 60 60 60
-0.31332123279571533 0.6232643723487854 3.0742783546447754 100 100 100
-0.31332123279571533 0.6232643723487854 3.0742783546447754 100 100 100
-0.2823913097381592 -0.9817011952400208 2.934785842895508 95 95 95
-0.2777509093284607 0.3748306930065155 3.058112144470215 49 49 49
-0.22506865859031677 0.26982370018959045 3.039959669113159 149 149 149
-0.20501619577407837 -0.9268996119499207 2.960218906402588 93 93 93
-0.20093697309494019 0.36240172386169434 3.085581064224243 72 72 72
-0.19932156801223755 0.5813316702842712 3.1152710914611816 18 18 18
-0.18298205733299255 0.6473127603530884 3.132786989212036 113 113 113
-0.18169230222702026 -0.7552648186683655 3.170712947845459 226 226 226
-0.18169230222702026 -0.7552648186683655 3.170712947845459 226 226 226
-0.17072826623916626 1.0680795907974243 2.998734474182129 136 136 136
-0.10642014443874359 1.0149118900299072 2.951655387878418 51 51 51
-0.10237979143857956 0.9113950133323669 2.992828130722046 55 55 55
-0.07543397694826126 0.687842845916748 3.175346851348877 87 87 87
-0.020664311945438385 0.4979294538497925 3.1889255046844482 20 20 20
