ply
format ascii 1.0
element vertex 114
property float x
property float y
property float z
property uchar red
property uchar green
property uchar blue
end_header
-1.2986736297607422 -0.7979211211204529 2.80465030670166 109 109 109
-1.276517629623413 -0.7896892428398132 2.780580520629883 105 105 105
-1.2682563066482544 0.9811475872993469 2.793891668319702 12 12 12
-1.2258961200714111 0.3424590826034546 2.726518392562866 131 131 131
-1.2258961200714111 0.3424590826034546 2.726518392562866 131 131 131
-1.225217580795288 0.624432384967804 2.7584547996520996 20 20 20
-1.20364248752594 -0.7876145839691162 2.7200160026550293 51 51 51
-1.2025209665298462 -0.7869167923927307 2.7187931537628174 51 51 51
-1.062787413597107 -0.9230685234069824 2.615696430206299 102 102 102
-1.1412495374679565 0.2961428165435791 2.8314781188964844 80 80 80
-1.1205928325653076 0.8780879378318787 2.8237526416778564 24 24 24
-1.0532677173614502 0.6561940908432007 2.8175315856933594 116 116 116
-1.0432640314102173 0.5930202603340149 2.8204195499420166 58 58 58
-1.0432640314102173 0.5930202603340149 2.8204195499420166 58 58 58
-1.0066969394683838 -0.8453091382980347 2.7507801055908203 137 137 137
-1.0167292356491089 0.6322203278541565 2.834855556488037 118 118 118
-1.0096629858016968 0.4629516899585724 2.825082540512085 21 21 21
-0.9294259548187256 -1.057785987854004 2.6474833488464355 121 121 121
-0.9356257319450378 -0.9015711545944214 2.66684889793396 135 135 135
-0.9901653528213501 0.6538717150688171 2.8443922996520996 130 130 130
-0.9779795408248901 0.721680760383606 2.8641090393066406 88 88 88
-0.9675382375717163 0.6004170775413513 2.8419301509857178 39 39 39
-0.9576910734176636 -0.5846152305603027 2.8357033729553223 22 22 22
-1.1388201713562012 0.1899281144142151 3.391728162765503 135 135 135
-0.9500764608383179 0.6099845767021179 2.8565118312835693 19 19 19
-0.9555067420005798 0.8313187956809998 2.8758015632629395 111 111 111
-0.8877920508384705 -0.9873744249343872 2.6721293926239014 135 135 135
-0.8877920508384705 -0.9873744249343872 2.6721293926239014 135 135 135
-0.8820035457611084 -0.982513964176178 2.6816675662994385 133 133 133
-0.8792334794998169 -0.9833115339279175 2.678112030029297 136 136 136
-0.95052570104599 0.9804033041000366 2.898721218109131 77 77 77
-0.9373428225517273 0.6947474479675293 2.8596887588500977 111 111 111
-0.938572108745575 0.900743842124939 2.887396812438965 89 89 89
-0.9266287088394165 0.7432137727737427 2.8697657585144043 114 114 114
-0.9245577454566956 0.6780824661254883 2.867666006088257 146 146 146
-0.9346942901611328 0.9595088362693787 2.9102253913879395 27 27 27
-0.8380759954452515 -1.1092699766159058 2.674659252166748 109 109 109
-0.8972840309143066 0.6348966956138611 2.873509407043457 112 112 112
-0.8910771012306213 0.5094770789146423 2.861882448196411 76 76 76
-0.8951565623283386 -0.5580564737319946 2.9668400287628174 29 29 29
-1.024112582206726 0.0740530863404274 3.407017707824707 254 254 254
-0.8724770545959473 0.2407764196395874 2.979809284210205 89 89 89
-0.8472464680671692 0.8289710879325867 2.9174582958221436 104 104 104
-0.9912015199661255 0.12684297561645508 3.4651143550872803 84 84 84
-0.8381498456001282 0.9197148680686951 2.9319398403167725 92 92 92
-0.7704371809959412 -0.9120125770568848 2.725809097290039 106 106 106
-0.8078808188438416 0.6200303435325623 2.9044830799102783 129 129 129
-0.8042259216308594 0.6709312200546265 2.9104666709899902 121 121 121
-0.791358232498169 0.51507967710495 2.9062159061431885 93 93 93
-0.7760091423988342 0.5883961319923401 2.921689748764038 35 35 35
-0.7727522253990173 0.5889492034912109 2.9170327186584473 35 35 35
-0.7727522253990173 0.5889492034912109 2.9170327186584473 35 35 35
-0.75115567445755 -0.8516711592674255 2.8653404712677 77 77 77
-0.7585394382476807 0.6181917190551758 2.9263439178466797 133 133 133
-0.7677653431892395 1.18092942237854 2.9879937171936035 94 94 94
-0.7504942417144775 0.6464109420776367 2.936816930770874 134 134 134
-0.7399167418479919 0.5934457778930664 2.9372174739837646 94 94 94
-0.7283805012702942 0.9066187143325806 2.968303918838501 103 103 103
-0.7146991491317749 0.5515403747558594 2.9293642044067383 44 44 44
-0.658868670463562 -1.1119256019592285 2.735346794128418 162 162 162
-0.7004604339599609 0.33076944947242737 2.9104225635528564 57 57 57
-0.7047908902168274 0.6697892546653748 2.94547700881958 126 126 126
-0.6520228385925293 -0.979598343372345 2.755392551422119 134 134 134
-0.6520228385925293 -0.979598343372345 2.755392551422119 134 134 134
-0.64366215467453 -1.1560238599777222 2.7370221614837646 123 123 123
-0.7053754329681396 1.1668434143066406 3.0135114192962646 17 17 17
-0.5480992197990417 -0.5743613839149475 2.3842873573303223 29 29 29
-0.6625221967697144 0.6998094320297241 2.9747838973999023 155 155 155
-0.6575700044631958 0.6212390065193176 2.9588515758514404 112 112 112
-0.6475174427032471 0.8355863094329834 2.9876933097839355 117 117 117
-0.6394431591033936 0.7282899618148804 2.9761507511138916 129 129 129
-0.6378471255302429 0.2844914495944977 3.008662462234497 117 117 117
-0.5585822463035583 -0.9171339273452759 2.7632784843444824 118 118 118
-0.5899539589881897 0.6391122937202454 2.985478162765503 125 125 125
-0.582259476184845 0.6936410069465637 2.9957163333892822 84 84 84
-0.5739516615867615 0.6228241324424744 2.997532606124878 141 141 141
-0.577822744846344 0.2510874271392822 3.0493075847625732 60 60 60
-0.538497805595398 0.838580310344696 3.028238296508789 123 123 123
-0.5256972312927246 0.9198150038719177 3.051333427429199 32 32 32
-0.4870229959487915 -0.05773041024804115 3.106729030609131 215 215 215
-0.45889973640441895 0.6402040123939514 3.042633056640625 149 149 149
-0.45054125785827637 0.4014739692211151 3.0524895191192627 48 48 48
-0.4443737864494324 0.904586136341095 3.078824520111084 59 59 59
-0.43039289116859436 0.7153697609901428 3.0588085651397705 119 119 119
-0.41262248158454895 0.7844866514205933 3.0669424533843994 101 101 101
-0.41134729981422424 0.7198008894920349 3.0798685550689697 48 48 48
-0.409584641456604 0.8239097595214844 3.0856056213378906 43 43 43
-0.40342599153518677 0.6249811053276062 3.0605037212371826 121 121 121
-0.3677317500114441 0.6345649361610413 3.0752475261688232 121 121 121
-0.3414624035358429 0.5943971872329712 3.095433235168457 20 20 20
-0.3359862267971039 0.5801014304161072 3.095015525817871 37 37 37
-0.32727086544036865 0.6512523293495178 3.0995054244995117 60 60 60
-0.3217417895793915 0.1948646456003189 3.0506680011749268 69 69 69
-0.3164941072463989 0.6279519200325012 3.1032321453094482 100 100 100
-0.3164941072463989 0.6279519200325012 3.1032321453094482 100 100 100
-0.2790141999721527 -0.9764130711555481 2.9037489891052246 95 95 95
-0.2893637716770172 0.6299780607223511 3.1018378734588623 99 99 99
-0.2809309661388397 0.3768673837184906 3.0890235900878906 49 49 49
-0.2287282794713974 0.27285104990005493 3.086495876312256 149 149 149
-0.2235257774591446 0.44523683190345764 3.1201179027557373 92 92 92
-0.2235257774591446 0.44523683190345764 3.1201179027557373 92 92 92
-0.21356002986431122 0.5346266031265259 3.1291472911834717 49 49 49
-0.2116255760192871 0.6478654146194458 3.1511857509613037 94 94 94
-0.20650753378868103 0.8594076633453369 3.1422576904296875 118 118 118
-0.19674918055534363 0.4705888628959656 3.1360442638397217 97 97 97
-0.1843300759792328 0.34286463260650635 3.1211352348327637 84 84 84
-0.18112921714782715 -0.7555683851242065 3.160470485687256 226 226 226
-0.16771966218948364 0.8524916172027588 3.1984951496124268 30 30 30
-0.1339976042509079 0.3842684030532837 3.1426663398742676 102 102 102
-0.12043285369873047 0.6790132522583008 3.19051194190979 91 91 91
-0.08845888078212738 1.0095789432525635 2.941335678100586 47 47 47
-0.021344207227230072 0.4978777766227722 3.2149975299835205 20 20 20
-0.021344207227230072 0.4978777766227722 3.2149975299835205 20 20 20
0.2896561324596405 1.2174663543701172 2.666255235671997 22 22 22
