ply
format ascii 1.0
element vertex 140
property float x
property float y
property float z
property uchar red
property uchar green
property uchar blue
end_header
-2.331317186355591 0.9023585915565491 4.8268208503723145 107 107 107
-2.3302509784698486 0.9663279056549072 4.82891845703125 67 67 67
-2.3839848041534424 0.31209850311279297 4.962776184082031 71 71 71
-2.2463736534118652 0.5525330305099487 4.794212341308594 133 133 133
-2.2463736534118652 0.5525330305099487 4.794212341308594 133 133 133
-2.2142889499664307 0.5351855158805847 4.792075157165527 80 80 80
-2.1816439628601074 -1.379722237586975 4.751823425292969 106 106 106
-2.1816439628601074 -1.379722237586975 4.751823425292969 106 106 106
-2.1567962169647217 -1.3869436979293823 4.732790946960449 213 213 213
-1.933875560760498 -1.6305866241455078 4.501871109008789 96 96 96
-2.07773494720459 0.4741801917552948 4.957546234130859 101 101 101
-2.083111524581909 1.6245542764663696 4.9770121574401855 71 71 71
-2.055999517440796 1.4860531091690063 4.950097560882568 25 25 25
-2.132838726043701 -0.027097279205918312 5.221864223480225 48 48 48
-1.9739094972610474 1.0048110485076904 4.8875555992126465 73 73 73
-2.01967716217041 1.6797327995300293 5.013880729675293 23 23 23
-1.966867208480835 1.0239551067352295 4.887155532836914 19 19 19
-1.9964812994003296 2.037431001663208 5.04708194732666 78 78 78
-1.9964812994003296 2.037431001663208 5.04708194732666 78 78 78
-1.9624592065811157 0.4364987015724182 4.971761703491211 33 33 33
-1.9320155382156372 1.1007155179977417 4.913171768188477 118 118 118
-1.9076036214828491 0.9878743290901184 4.906466007232666 53 53 53
-1.9100443124771118 1.0663776397705078 4.9171905517578125 67 67 67
-1.808278203010559 -1.4986701011657715 4.72086763381958 125 125 125
-1.79527747631073 -1.4959567785263062 4.731644153594971 140 140 140
-1.79527747631073 -1.4959567785263062 4.731644153594971 140 140 140
-1.7353441715240479 -1.5338424444198608 4.590427398681641 26 26 26
-1.8569201231002808 1.0557152032852173 4.921485424041748 116 116 116
-1.8493987321853638 0.7660837173461914 4.910479545593262 18 18 18
-1.7006654739379883 -1.591451644897461 4.556460857391357 135 135 135
-1.692933201789856 -1.7462530136108398 4.544051647186279 132 132 132
-1.8300222158432007 1.222009539604187 4.94643497467041 66 66 66
-1.8300222158432007 1.222009539604187 4.94643497467041 66 66 66
-1.3455113172531128 2.1657843589782715 3.6562535762786865 66 66 66
-1.812591791152954 1.1201766729354858 4.94089937210083 123 123 123
-1.7727841138839722 0.5014646053314209 4.863124847412109 50 50 50
-1.7694721221923828 1.0027836561203003 4.920859336853027 35 35 35
-1.6166657209396362 -1.7392250299453735 4.555413722991943 131 131 131
-1.7545989751815796 1.4050298929214478 4.994070529937744 115 115 115
-1.607573390007019 -1.7320257425308228 4.575682640075684 133 133 133
-1.7154299020767212 1.1653058528900146 4.945431232452393 102 102 102
-1.7408313751220703 1.6591527462005615 5.028482437133789 83 83 83
-1.7023893594741821 0.8927153944969177 4.9480719566345215 92 92 92
-1.715340495109558 1.521101951599121 4.995209217071533 92 92 92
-1.6935834884643555 1.1388351917266846 4.959773540496826 140 140 140
-1.6622531414031982 0.5341653227806091 4.888335227966309 59 59 59
-2.017517566680908 0.17127002775669098 5.940417289733887 113 113 113
-1.709566593170166 1.6238347291946411 5.042325496673584 21 21 21
-1.524398922920227 -1.943656325340271 4.54035758972168 107 107 107
-1.523211121559143 -1.943697214126587 4.538472652435303 108 108 108
-1.6856744289398193 1.7251472473144531 5.045194149017334 101 101 101
-1.9040400981903076 -0.6901122331619263 5.7403974533081055 31 31 31
-1.6286638975143433 0.8455572724342346 4.931119441986084 72 72 72
-1.6187758445739746 1.7012882232666016 5.051252841949463 94 94 94
-1.626009225845337 1.8927881717681885 5.08690881729126 102 102 102
-1.8620189428329468 0.014646979048848152 5.931987285614014 88 88 88
-1.5532325506210327 -0.9907392263412476 5.026833534240723 31 31 31
-1.5540030002593994 1.4006379842758179 5.031449317932129 95 95 95
-1.5664106607437134 1.6246328353881836 5.073272705078125 32 32 32
-1.4057092666625977 -1.6067438125610352 4.6244215965271 103 103 103
-1.790247917175293 0.1274002641439438 5.896726131439209 253 253 253
-1.5281697511672974 1.5521714687347412 5.038207530975342 92 92 92
-1.4792555570602417 1.0382307767868042 4.9869561195373535 128 128 128
-1.76444673538208 0.07562120258808136 5.962279796600342 254 254 254
-1.4709649085998535 1.1267887353897095 4.994004249572754 130 130 130
-1.4709676504135132 1.1151838302612305 5.006370544433594 122 122 122
-1.4482152462005615 1.0550520420074463 4.999297618865967 65 65 65
-1.4354521036148071 0.8548564910888672 4.960229396820068 129 129 129
-1.4158415794372559 0.9854008555412292 5.000967025756836 35 35 35
-1.4158415794372559 0.9854008555412292 5.000967025756836 35 35 35
-1.0867128372192383 -0.993398129940033 3.9623258113861084 9 9 9
-1.3783177137374878 1.0855549573898315 5.037898063659668 128 128 128
-0.9084001779556274 2.175870180130005 3.3260905742645264 137 137 137
-1.333066463470459 1.0219939947128296 5.014374256134033 72 72 72
-1.3180601596832275 0.9245379567146301 5.019564151763916 50 50 50
-1.3329455852508545 1.5314130783081055 5.076792240142822 104 104 104
-1.5698314905166626 0.11865418404340744 5.999041557312012 234 234 234
-1.3098081350326538 -0.7223377823829651 5.023288249969482 26 26 26
-1.285395622253418 0.5408555269241333 4.965882301330566 60 60 60
-1.300836443901062 1.1300342082977295 5.047701358795166 121 121 121
-1.2985284328460693 1.2334678173065186 5.04141092300415 113 113 113
-1.190382719039917 -1.716552495956421 4.6400909423828125 133 133 133
-1.190382719039917 -1.716552495956421 4.6400909423828125 133 133 133
-1.3248146772384644 -0.6778238415718079 5.174098014831543 175 175 175
-1.1745940446853638 -2.020794630050659 4.6011810302734375 125 125 125
-1.29464852809906 1.2040390968322754 5.070258617401123 124 124 124
-1.214132308959961 1.113709807395935 5.040996551513672 146 146 146
-1.104111671447754 -0.6571573615074158 4.594313621520996 40 40 40
-1.1701349020004272 0.9260585904121399 5.0324625968933105 116 116 116
-1.178357481956482 1.228810429573059 5.075529098510742 123 123 123
-1.174110770225525 0.4635271430015564 5.161929130554199 129 129 129
-1.038480520248413 -1.6122673749923706 4.653509616851807 111 111 111
-1.1043674945831299 1.0086982250213623 5.052297592163086 95 95 95
-1.1274713277816772 1.61581289768219 5.168689250946045 27 27 27
-1.0882588624954224 1.0754114389419556 5.076449394226074 129 129 129
-1.0503709316253662 1.042014479637146 5.075276851654053 92 92 92
-1.0437302589416504 0.40053537487983704 5.176571846008301 62 62 62
-0.9995647668838501 1.4215617179870605 5.149910926818848 119 119 119
-0.8400023579597473 1.071601390838623 5.113661766052246 137 137 137
-0.8470114469528198 1.9993345737457275 5.269235134124756 110 110 110
-0.810189425945282 0.660902202129364 5.104467391967773 49 49 49
-0.7980068922042847 1.2083804607391357 5.158898830413818 103 103 103
-0.7795684933662415 1.3944886922836304 5.177483558654785 50 50 50
-0.769263505935669 1.3267412185668945 5.173527717590332 95 95 95
-0.7638223171234131 1.2153992652893066 5.1981048583984375 46 46 46
-0.7638223171234131 1.2153992652893066 5.1981048583984375 46 46 46
-0.7560160756111145 1.211378574371338 5.175806045532227 46 46 46
-0.7560160756111145 1.211378574371338 5.175806045532227 46 46 46
-0.6868393421173096 1.0748165845870972 5.17655086517334 119 119 119
-0.6131751537322998 1.732025384902954 5.046186923980713 43 43 43
-0.6296713352203369 0.9794536828994751 5.210818290710449 36 36 36
-0.6096325516700745 1.3652961254119873 5.2196431159973145 56 56 56
-0.6047009229660034 1.0948827266693115 5.1830735206604 61 61 61
-0.6034766435623169 -0.854076087474823 5.307169437408447 255 255 255
-0.5897644758224487 1.056406855583191 5.201916217803955 96 96 96
-0.5897644758224487 1.056406855583191 5.201916217803955 96 96 96
-0.5270203948020935 -1.714782953262329 4.839269638061523 94 94 94
-0.5458519458770752 1.0614240169525146 5.19950532913208 95 95 95
-0.5239421725273132 0.6206915378570557 5.161787509918213 56 56 56
-0.39036446809768677 -1.6208750009536743 4.890016078948975 106 106 106
-0.413791298866272 0.7882782816886902 5.186128616333008 86 86 86
-0.39790377020835876 1.0880329608917236 5.248045444488525 82 82 82
-0.39539670944213867 1.4518907070159912 5.228922367095947 141 141 141
-0.35590872168540955 0.6937850117683411 5.207118034362793 112 112 112
-0.35066893696784973 1.1032311916351318 5.2850728034973145 108 108 108
-0.31733816862106323 -1.3421956300735474 5.295385837554932 234 234 234
-0.27473965287208557 1.033223032951355 5.257678508758545 93 93 93
-0.26836466789245605 0.6436445116996765 5.2474870681762695 85 85 85
-0.2230776697397232 1.5213284492492676 4.789734363555908 73 73 73
-0.2558402121067047 0.2668406069278717 5.560681343078613 64 64 64
-0.2075962871313095 1.5449192523956299 4.783439636230469 115 115 115
-0.2075962871313095 1.5449192523956299 4.783439636230469 115 115 115
-0.1709183007478714 0.4954385757446289 5.283764362335205 104 104 104
-0.1709183007478714 0.4954385757446289 5.283764362335205 104 104 104
-0.06968585401773453 1.9884474277496338 4.92022705078125 90 90 90
-0.0013076883042231202 2.013046979904175 5.11276912689209 110 110 110
0.005296922754496336 0.8296524882316589 5.3183817863464355 8 8 8
0.3452088236808777 2.051023483276367 4.2390031814575195 21 21 21
0.4819568991661072 -0.6253897547721863 3.9688427448272705 23 23 23
0.5336161851882935 -1.3775779008865356 3.8178253173828125 153 153 153
