ply
format ascii 1.0
element vertex 228
property float x
property float y
property float z
property uchar red
property uchar green
property uchar blue
end_header
-3.1433699131011963 -1.970167636871338 6.712898254394531 83 83 83
-3.34578800201416 -2.0671420097351074 7.226747512817383 109 109 109
-3.237199544906616 -2.0135154724121094 7.052568435668945 105 105 105
-3.237199544906616 -2.0135154724121094 7.052568435668945 105 105 105
-2.9302382469177246 0.8133024573326111 6.516169548034668 131 131 131
-2.9302382469177246 0.8133024573326111 6.516169548034668 131 131 131
-2.9933602809906006 -1.9168658256530762 6.675308704376221 208 208 208
-2.910036325454712 1.478065848350525 6.5503058433532715 20 20 20
-2.9492948055267334 -1.8813585042953491 6.646015644073486 88 88 88
-2.893429756164551 -1.9033403396606445 6.543075084686279 51 51 51
-2.9870285987854004 0.42405596375465393 6.920342922210693 120 120 120
-2.9770748615264893 0.424900621175766 6.903864860534668 204 204 204
-2.8375656604766846 1.2088972330093384 6.58992862701416 99 99 99
-2.770487070083618 1.4177517890930176 6.582222938537598 92 92 92
-2.788905620574951 2.341655969619751 6.656043529510498 25 25 25
-2.831993818283081 0.6490354537963867 6.800891399383545 54 54 54
-2.6076436042785645 -2.2703680992126465 6.418798446655273 102 102 102
-2.695704936981201 -2.0120506286621094 6.6842546463012695 97 97 97
-2.695704936981201 -2.0120506286621094 6.6842546463012695 97 97 97
-2.7234692573547363 0.705064594745636 6.756624698638916 80 80 80
-2.656505823135376 2.0795490741729736 6.693304538726807 24 24 24
-2.5978002548217773 2.3345086574554443 6.750385761260986 27 27 27
-2.5978002548217773 2.3345086574554443 6.750385761260986 27 27 27
-2.5403647422790527 -1.971515417098999 6.6421427726745605 20 20 20
-2.5403647422790527 -1.971515417098999 6.6421427726745605 20 20 20
-2.6398704051971436 0.6624872088432312 6.924006938934326 40 40 40
-2.4447221755981445 -3.0290586948394775 6.439907073974609 86 86 86
-2.540100574493408 1.8063266277313232 6.7181501388549805 111 111 111
-2.5055673122406006 1.5594595670700073 6.70199728012085 116 116 116
-2.4904870986938477 1.412011981010437 6.731870651245117 58 58 58
-2.4678797721862793 1.4550697803497314 6.713836669921875 33 33 33
-2.4724769592285156 -2.0820422172546387 6.757019519805908 137 137 137
-2.4280006885528564 1.5068283081054688 6.7688493728637695 118 118 118
-2.4085140228271484 1.1020437479019165 6.738434314727783 21 21 21
-2.3019657135009766 -2.2234413623809814 6.562569618225098 135 135 135
-2.3549022674560547 1.5894479751586914 6.7723798751831055 131 131 131
-2.691641092300415 -0.38601773977279663 7.812403678894043 40 40 40
-2.3304636478424072 1.5199897289276123 6.764847278594971 51 51 51
-2.3304636478424072 1.5199897289276123 6.764847278594971 51 51 51
-2.7390475273132324 0.31015944480895996 7.957202911376953 157 157 157
-2.3095996379852295 1.432892084121704 6.783829689025879 39 39 39
-2.714292287826538 0.11306848376989365 8.00240707397461 254 254 254
-2.793027639389038 -0.2776876389980316 8.261090278625488 29 29 29
-2.5877902507781982 -0.8656060099601746 7.769965648651123 33 33 33
-2.5877902507781982 -0.8656060099601746 7.769965648651123 33 33 33
-2.2648985385894775 1.96880042552948 6.816003322601318 111 111 111
-2.1858160495758057 -2.434678554534912 6.580018520355225 135 135 135
-2.635401487350464 -0.730714738368988 7.944979190826416 152 152 152
-2.635401487350464 -0.730714738368988 7.944979190826416 152 152 152
-2.3574414253234863 -0.8894205689430237 7.147887706756592 223 223 223
-2.1689789295196533 -2.423449993133545 6.5964035987854 133 133 133
-2.1584391593933105 -2.421140193939209 6.575981616973877 136 136 136
-2.2530953884124756 2.3213837146759033 6.870013236999512 77 77 77
-2.2530953884124756 2.3213837146759033 6.870013236999512 77 77 77
-2.234638214111328 1.6549615859985352 6.817083835601807 111 111 111
-2.231593608856201 2.1418371200561523 6.865279674530029 89 89 89
-2.2006947994232178 1.6149928569793701 6.826182842254639 146 146 146
-2.2157437801361084 2.2739481925964355 6.898608207702637 27 27 27
-2.2086288928985596 2.8177318572998047 6.913144588470459 96 96 96
-2.1821792125701904 1.395044207572937 6.836874961853027 33 33 33
-2.17172908782959 1.023425817489624 6.843956470489502 23 23 23
-1.6569328308105469 3.010591506958008 5.238010406494141 68 68 68
-2.1535274982452393 1.0866881608963013 6.82215690612793 39 39 39
-2.1351191997528076 1.508266806602478 6.836629390716553 112 112 112
-2.1318728923797607 1.216916561126709 6.84627628326416 76 76 76
-2.137873888015747 1.6392771005630493 6.871492385864258 65 65 65
-2.1552772521972656 1.6539671421051025 6.927918434143066 65 65 65
-3.8132333755493164 -2.901193380355835 12.305426597595215 56 56 56
-2.0998902320861816 2.636050224304199 6.91815185546875 94 94 94
-2.2193193435668945 -1.372040033340454 7.354752540588379 29 29 29
-2.4295876026153564 0.16752344369888306 8.080910682678223 254 254 254
-2.104766845703125 -1.6512277126312256 7.023175239562988 56 56 56
-2.429713010787964 0.0029495263006538153 8.109241485595703 241 241 241
-2.3817694187164307 -0.26326000690460205 7.951294898986816 39 39 39
-2.0353879928588867 2.3265085220336914 6.938683986663818 82 82 82
-2.352341651916504 -0.8032622337341309 8.072190284729004 247 247 247
-1.916503667831421 -1.1932107210159302 6.5829949378967285 27 27 27
-2.0096163749694824 1.9663724899291992 6.920055389404297 104 104 104
-1.9899264574050903 1.5143332481384277 6.901629447937012 118 118 118
-1.9948945045471191 2.1895995140075684 6.978569984436035 92 92 92
-1.8964893817901611 -2.2451677322387695 6.7100067138671875 106 106 106
-2.224120616912842 -0.897698700428009 7.891055583953857 32 32 32
-1.938925862312317 1.0456055402755737 6.9167890548706055 71 71 71
-1.9257421493530273 1.4807535409927368 6.924663066864014 129 129 129
-2.2592968940734863 -0.6476989388465881 8.134381294250488 5 5 5
-1.9186339378356934 1.6001020669937134 6.943043231964111 121 121 121
-1.9066312313079834 1.58053457736969 6.927592754364014 124 124 124
-1.9032484292984009 1.2407883405685425 6.990191459655762 93 93 93
-1.8791784048080444 1.24931800365448 6.945682525634766 69 69 69
-1.6721125841140747 -1.0697928667068481 6.250476360321045 52 52 52
-1.8555203676223755 1.4067065715789795 6.985604286193848 35 35 35
-1.8428093194961548 1.4043914079666138 6.956282615661621 35 35 35
-1.8428093194961548 1.4043914079666138 6.956282615661621 35 35 35
-2.145565986633301 0.12512685358524323 8.204361915588379 254 254 254
-1.8289682865142822 2.2649407386779785 7.028277397155762 24 24 24
-1.783776044845581 1.5363733768463135 6.980288028717041 134 134 134
-2.0661098957061768 -0.6962721943855286 8.129547119140625 71 71 71
-1.723085880279541 1.385019063949585 6.95558500289917 97 97 97
-1.723085880279541 1.385019063949585 6.95558500289917 97 97 97
-1.7302361726760864 2.153705596923828 7.051061153411865 103 103 103
-1.6980931758880615 1.3121447563171387 6.960803985595703 44 44 44
-2.0091919898986816 0.1263582706451416 8.285901069641113 109 109 109
-1.7120143175125122 2.012362241744995 7.0629963874816895 114 114 114
-1.6774230003356934 0.7945601344108582 6.97068977355957 57 57 57
-1.669956088066101 1.5901552438735962 6.9806413650512695 126 126 126
-1.6127263307571411 -2.4166271686553955 6.813358306884766 134 134 134
-1.6127263307571411 -2.4166271686553955 6.813358306884766 134 134 134
-1.9379358291625977 -0.27033430337905884 8.192172050476074 35 35 35
-1.9379358291625977 -0.27033430337905884 8.192172050476074 35 35 35
-1.9375473260879517 -0.10762470215559006 8.214415550231934 252 252 252
-1.650006651878357 1.4155395030975342 7.018674850463867 161 161 161
-1.6478067636489868 2.2653696537017822 7.111725330352783 24 24 24
-1.6478067636489868 2.2653696537017822 7.111725330352783 24 24 24
-1.7667324542999268 -0.7877792119979858 7.818582057952881 41 41 41
-1.5342751741409302 1.3331719636917114 7.097939968109131 101 101 101
-1.5175180435180664 1.7298009395599365 7.063716411590576 129 129 129
-1.5175180435180664 1.7298009395599365 7.063716411590576 129 129 129
-1.5104073286056519 0.6748206615447998 7.124969959259033 117 117 117
-1.5519081354141235 0.5014075040817261 7.508725166320801 254 254 254
-1.5519081354141235 0.5014075040817261 7.508725166320801 254 254 254
-1.3731977939605713 -2.2502293586730957 6.791693687438965 118 118 118
-1.3729807138442993 -2.7386314868927 6.871311187744141 45 45 45
-1.4016908407211304 1.5222581624984741 7.0955281257629395 125 125 125
-1.405606985092163 2.340266466140747 7.170804977416992 96 96 96
-1.405606985092163 2.340266466140747 7.170804977416992 96 96 96
-1.421676754951477 -0.8630219101905823 7.255186080932617 129 129 129
-1.399012804031372 0.6842423677444458 7.2480878829956055 117 117 117
-1.3708692789077759 1.491288661956787 7.161974906921387 141 141 141
-1.3529667854309082 1.8211818933486938 7.141606330871582 61 61 61
-1.3833380937576294 0.6060251593589783 7.302826881408691 60 60 60
-1.3349462747573853 1.7659295797348022 7.245791912078857 121 121 121
-1.270822525024414 1.9814972877502441 7.148285388946533 123 123 123
-1.2537380456924438 1.4996436834335327 7.16295051574707 123 123 123
-1.1803197860717773 -2.3055226802825928 7.000261306762695 142 142 142
-1.2208945751190186 2.199176788330078 7.254652500152588 106 106 106
-1.2270163297653198 -0.9354469180107117 7.298157691955566 131 131 131
-1.2149333953857422 2.195784568786621 7.236526966094971 106 106 106
-1.208439588546753 2.417417526245117 7.250533103942871 88 88 88
-1.2062216997146606 0.38942086696624756 7.517457962036133 235 235 235
-1.0970252752304077 1.538055181503296 7.279611587524414 149 149 149
-1.0863823890686035 0.9861317276954651 7.372578144073486 48 48 48
-1.0530462265014648 1.414540410041809 7.241669654846191 21 21 21
-1.0493583679199219 2.7307584285736084 7.2264862060546875 112 112 112
-1.0212892293930054 1.7009531259536743 7.260858535766602 119 119 119
-1.0106500387191772 2.097403049468994 7.296395301818848 100 100 100
-0.9759038090705872 1.8606127500534058 7.258448123931885 101 101 101
-0.9436002969741821 0.6169810891151428 7.5538129806518555 64 64 64
-0.8708368539810181 1.5122324228286743 7.290541648864746 121 121 121
-0.7944008708000183 1.3812096118927002 7.327138900756836 37 37 37
-0.7799737453460693 1.5613502264022827 7.396328449249268 60 60 60
-0.7517021894454956 1.4989873170852661 7.378653049468994 100 100 100
-0.7517021894454956 1.4989873170852661 7.378653049468994 100 100 100
-0.6880568265914917 -2.393540859222412 7.151808261871338 95 95 95
-0.6848934888839722 1.5029449462890625 7.355771541595459 99 99 99
-0.6714723706245422 0.9095783829689026 7.393914699554443 49 49 49
-0.6714723706245422 0.9095783829689026 7.393914699554443 49 49 49
-0.35862287878990173 3.057321548461914 5.18434476852417 75 75 75
-0.5027313232421875 -2.257423162460327 7.242900371551514 93 93 93
-0.5053715109825134 0.932910680770874 7.460526466369629 144 144 144
-0.5024535655975342 1.5510565042495728 7.501509189605713 94 94 94
-0.4887406527996063 2.045530319213867 7.4541473388671875 118 118 118
-0.4844500422477722 0.8757643103599548 7.442386627197266 72 72 72
-0.4844500422477722 0.8757643103599548 7.442386627197266 72 72 72
-0.4409903585910797 -1.8218671083450317 7.684180736541748 226 226 226
-0.4150734543800354 2.120771646499634 7.46444845199585 118 118 118
-0.4170430600643158 0.6684509515762329 7.521628379821777 122 122 122
-0.413059800863266 2.035994529724121 7.461466312408447 109 109 109
-0.3952402174472809 1.2495814561843872 7.477163791656494 47 47 47
-0.24303925037384033 2.1672191619873047 7.111422538757324 55 55 55
-0.18086905777454376 1.6454230546951294 7.604030609130859 87 87 87
-0.17128334939479828 2.1840851306915283 7.507867336273193 56 56 56
-0.12469667196273804 -2.109055280685425 7.658425331115723 37 37 37
-0.07420673221349716 2.261586904525757 7.023061275482178 103 103 103
0.011725420132279396 2.046966075897217 7.252866268157959 118 118 118
0.06825970858335495 -1.7866507768630981 7.583749771118164 27 27 27
0.07031606882810593 -1.384688138961792 7.601861000061035 30 30 30
0.09597566723823547 2.7184107303619385 7.3434553146362305 13 13 13
0.12397158890962601 -1.7330901622772217 7.475319862365723 125 125 125
0.1336146593093872 2.8197853565216064 6.968972682952881 93 93 93
0.14255861937999725 -1.5370244979858398 7.416189670562744 175 175 175
0.17091837525367737 2.7786386013031006 7.362797260284424 78 78 78
0.18664394319057465 -1.6997097730636597 7.376187324523926 131 131 131
0.17501145601272583 2.9346976280212402 6.044707775115967 55 55 55
0.18146716058254242 2.937328815460205 6.164529323577881 46 46 46
0.24977800250053406 -1.9152987003326416 7.256002426147461 113 113 113
0.26551929116249084 -1.016371726989746 7.156500816345215 156 156 156
0.38729918003082275 0.5219836235046387 6.911439895629883 133 133 133
0.4191598892211914 0.16897405683994293 6.9213385581970215 104 104 104
0.4484952390193939 0.1282777488231659 6.777071952819824 157 157 157
0.4484952390193939 0.1282777488231659 6.777071952819824 157 157 157
0.45330652594566345 0.23991455137729645 6.67049503326416 155 155 155
0.6916236281394958 2.9068732261657715 6.355404376983643 22 22 22
0.679500937461853 -1.4014662504196167 6.104803562164307 124 124 124
0.7355985045433044 -0.8801664710044861 6.1176252365112305 22 22 22
0.7389765977859497 -1.5258358716964722 6.0815110206604 7 7 7
0.828459620475769 -1.1463537216186523 6.136587142944336 83 83 83
0.8337467908859253 -1.565953254699707 6.133185863494873 91 91 91
0.833602786064148 -1.7247684001922607 6.0742058753967285 48 48 48
0.8779165744781494 1.3572205305099487 6.317821025848389 15 15 15
0.8452501893043518 -2.043856143951416 6.079542636871338 91 91 91
0.8409940600395203 -2.933154344558716 5.734057426452637 123 123 123
0.9197351932525635 -2.132251739501953 6.010178565979004 19 19 19
0.9607982039451599 -0.6000978350639343 6.1568217277526855 147 147 147
0.9959127902984619 2.930685520172119 6.311673164367676 83 83 83
0.9926553964614868 -1.9859156608581543 6.046416759490967 138 138 138
1.033311128616333 -1.8390727043151855 6.082559585571289 131 131 131
1.0292158126831055 -1.9992775917053223 6.052618503570557 27 27 27
0.9685208201408386 -2.9601399898529053 5.437298774719238 41 41 41
1.0151782035827637 -2.9476687908172607 5.310728549957275 42 42 42
1.4361275434494019 3.032399892807007 5.603568077087402 73 73 73
1.9558991193771362 -0.8553258180618286 5.404029369354248 34 34 34
1.9558991193771362 -0.8553258180618286 5.404029369354248 34 34 34
1.960146188735962 -0.9249011874198914 5.407679080963135 28 28 28
1.576397180557251 -2.108685255050659 4.084640979766846 122 122 122
1.6093261241912842 -2.155501127243042 4.020127296447754 121 121 121
1.6540199518203735 1.0086429119110107 3.993718385696411 108 108 108
1.6704108715057373 -0.033369872719049454 3.946911096572876 85 85 85
1.7273520231246948 -0.2749304473400116 3.911287307739258 25 25 25
1.7512372732162476 -1.3102682828903198 3.854954719543457 95 95 95
1.7213186025619507 -1.9188486337661743 3.7621943950653076 127 127 127
1.7504445314407349 1.0504010915756226 3.753434181213379 105 105 105
1.755115270614624 1.0629111528396606 3.7380104064941406 16 16 16
1.755115270614624 1.0629111528396606 3.7380104064941406 16 16 16
1.7611899375915527 -0.07602023333311081 3.696521282196045 100 100 100
1.77668035030365 0.6140874028205872 3.7214112281799316 18 18 18
1.77668035030365 0.6140874028205872 3.7214112281799316 18 18 18
1.764664888381958 -0.2341444492340088 3.6867835521698 94 94 94
1.7693554162979126 -0.4980350136756897 3.6281850337982178 115 115 115
