ply
format ascii 1.0
element vertex 142
property float x
property float y
property float z
property uchar red
property uchar green
property uchar blue
end_header
-2.4388158321380615 -0.2062961608171463 4.936059951782227 26 26 26
-2.4015157222747803 0.07279479503631592 4.967434406280518 46 46 46
-2.348625898361206 -1.4602904319763184 4.879345893859863 119 119 119
-2.3663182258605957 -0.211703360080719 4.9431304931640625 42 42 42
-2.393486499786377 0.3851098120212555 5.014693260192871 134 134 134
-2.275146245956421 -0.22910384833812714 4.9790358543396 32 32 32
-2.2535815238952637 0.07429754734039307 5.017421722412109 49 49 49
-2.271981716156006 0.8282408714294434 5.0920844078063965 118 118 118
-2.2379953861236572 -0.22063396871089935 5.022276401519775 38 38 38
-2.2104923725128174 0.6587324142456055 5.066540718078613 147 147 147
-2.137451648712158 -1.7369987964630127 4.904125690460205 32 32 32
-2.137451648712158 -1.7369987964630127 4.904125690460205 32 32 32
-2.2021310329437256 1.443380355834961 5.194578170776367 90 90 90
-2.07293963432312 -0.8474004864692688 4.966632843017578 111 111 111
-2.0633041858673096 -1.1589866876602173 4.965365409851074 119 119 119
-2.006808280944824 -2.011906862258911 4.897015571594238 22 22 22
-2.1758317947387695 2.8508667945861816 5.338845252990723 107 107 107
-2.1303696632385254 2.0283055305480957 5.26287841796875 125 125 125
-2.1400082111358643 2.2967169284820557 5.299106121063232 18 18 18
-1.9304543733596802 -2.9967336654663086 4.871678829193115 105 105 105
-1.9962974786758423 0.08925175666809082 5.044101715087891 135 135 135
-1.9699862003326416 -1.1388559341430664 4.980157852172852 30 30 30
-2.083984851837158 2.5548646450042725 5.323484897613525 19 19 19
-1.8819626569747925 -2.996342420578003 4.86512565612793 93 93 93
-1.9175584316253662 -0.7882252335548401 5.022087097167969 108 108 108
-1.907202124595642 0.0403406135737896 5.1002888679504395 18 18 18
-2.0061028003692627 3.1026525497436523 5.42675256729126 17 17 17
-1.8850992918014526 0.07835232466459274 5.101565361022949 135 135 135
-1.917765736579895 1.7460311651229858 5.191661834716797 119 119 119
-1.8415924310684204 -0.025893179699778557 5.121653079986572 127 127 127
-1.8174595832824707 0.5769158005714417 5.177947044372559 125 125 125
-1.8508316278457642 1.5328238010406494 5.3049397468566895 118 118 118
-1.6301379203796387 -2.37139892578125 4.954797744750977 35 35 35
-1.7334455251693726 2.012017250061035 5.373085975646973 18 18 18
-1.6496140956878662 -0.8191537261009216 5.114656448364258 52 52 52
-1.6140786409378052 -1.0980297327041626 5.080712795257568 95 95 95
-1.5901033878326416 -1.4837353229522705 5.061600685119629 13 13 13
-1.521775484085083 -2.352336883544922 4.902888298034668 41 41 41
-1.5542187690734863 -0.8651265501976013 5.130780220031738 30 30 30
-1.5083441734313965 -0.4761231541633606 5.16447639465332 42 42 42
-1.4096100330352783 -2.356105089187622 4.926853179931641 51 51 51
-1.5054032802581787 0.9832227826118469 5.347072124481201 124 124 124
-1.4634435176849365 -0.3009318709373474 5.205306529998779 108 108 108
-1.3477931022644043 0.132585808634758 5.2485198974609375 74 74 74
-1.3922754526138306 2.263059616088867 5.429265975952148 86 86 86
-1.3569129705429077 1.7265607118606567 5.411318778991699 17 17 17
-1.3569129705429077 1.7265607118606567 5.411318778991699 17 17 17
-1.238930583000183 -2.5348095893859863 5.044227600097656 114 114 114
-1.3107551336288452 1.991222620010376 5.475477695465088 17 17 17
-1.1704579591751099 -3.104968786239624 5.007858753204346 106 106 106
-1.1770049333572388 -1.2540948390960693 5.164117813110352 24 24 24
-1.1779967546463013 -0.62612384557724 5.241273403167725 102 102 102
-1.1908552646636963 0.01891934871673584 5.325638771057129 87 87 87
-1.13205087184906 -2.3261847496032715 5.069380283355713 108 108 108
-1.1556332111358643 -1.204126000404358 5.187668800354004 16 16 16
-1.1873149871826172 0.9807313084602356 5.335755825042725 53 53 53
-1.1532340049743652 -0.107820525765419 5.265550136566162 134 134 134
-1.1354858875274658 -0.6257274746894836 5.2395100593566895 21 21 21
-1.1302400827407837 0.04564056918025017 5.291566371917725 139 139 139
-1.1280395984649658 0.49713072180747986 5.345961093902588 165 165 165
-1.0630453824996948 -2.690136432647705 5.074778079986572 108 108 108
-1.0820170640945435 -0.27722784876823425 5.280109405517578 40 40 40
-1.1110508441925049 1.2439398765563965 5.426637649536133 99 99 99
-1.0948039293289185 0.5660862326622009 5.3597092628479 145 145 145
-1.065780758857727 -0.2283870130777359 5.2426652908325195 133 133 133
-1.051300048828125 0.8837854862213135 5.407608985900879 27 27 27
-1.0488102436065674 1.2170525789260864 5.4028449058532715 98 98 98
-1.0229101181030273 0.3491980731487274 5.35735559463501 128 128 128
-1.0351240634918213 1.1390955448150635 5.436151027679443 17 17 17
-1.0232408046722412 1.2957861423492432 5.42567253112793 111 111 111
-0.959356427192688 -2.815422773361206 5.13191032409668 92 92 92
-0.9261698722839355 -3.1462252140045166 5.091288089752197 104 104 104
-0.920870304107666 -2.842970371246338 5.159235000610352 51 51 51
-0.9089263081550598 -3.0624611377716064 5.143237590789795 100 100 100
-0.9368962645530701 1.363002061843872 5.469513416290283 81 81 81
-0.8694660067558289 -3.1485331058502197 5.112874984741211 106 106 106
-0.8677628636360168 -2.7065112590789795 5.1129937171936035 98 98 98
-0.903117835521698 0.2982921898365021 5.362079620361328 30 30 30
-0.912882387638092 1.0832266807556152 5.433964729309082 72 72 72
-0.9121222496032715 1.632398247718811 5.496531963348389 105 105 105
-0.8975276350975037 0.5320845246315002 5.421396255493164 64 64 64
-0.8906247019767761 1.506867527961731 5.485306262969971 76 76 76
-0.8568512201309204 -0.5870972275733948 5.298150539398193 37 37 37
-0.8141179084777832 -2.8066773414611816 5.163704872131348 30 30 30
-0.8118064403533936 -2.83738112449646 5.156513214111328 31 31 31
-0.8559255003929138 0.7732346057891846 5.454858303070068 47 47 47
-0.8069997429847717 -2.2302017211914062 5.163844585418701 32 32 32
-0.7840630412101746 -3.077524185180664 5.148721694946289 114 114 114
-0.7937899827957153 -1.6511601209640503 5.217657089233398 17 17 17
-0.7985078692436218 -0.6050316095352173 5.299912452697754 33 33 33
-0.786157488822937 -1.5884068012237549 5.222280979156494 57 57 57
-0.7752557396888733 -3.0014309883117676 5.154384136199951 118 118 118
-0.7752557396888733 -3.0014309883117676 5.154384136199951 118 118 118
-0.7723755836486816 -1.6616652011871338 5.22498083114624 58 58 58
-0.750998318195343 -1.7734038829803467 5.213186264038086 148 148 148
-0.7383958697319031 -2.892786741256714 5.146367073059082 48 48 48
-0.7613217234611511 -0.5627560019493103 5.321247100830078 110 110 110
-0.6814523339271545 -2.7332682609558105 5.1673078536987305 104 104 104
-0.6833072900772095 -1.2318172454833984 5.2852559089660645 68 68 68
-0.7017152905464172 0.6390655040740967 5.43571138381958 109 109 109
-0.6665668487548828 -2.8458619117736816 5.170523643493652 32 32 32
-0.6846596598625183 -0.30962979793548584 5.351805210113525 30 30 30
-0.693134605884552 0.7301105260848999 5.433679103851318 97 97 97
-0.6544203162193298 -0.9134122133255005 5.303913593292236 64 64 64
-0.6381535530090332 -0.30165672302246094 5.359375476837158 33 33 33
-0.6373284459114075 -0.30136996507644653 5.356690883636475 35 35 35
-0.6207126379013062 -1.2156236171722412 5.3016533851623535 60 60 60
-0.6388909816741943 1.3730747699737549 5.517766952514648 16 16 16
-0.6392717957496643 1.4000885486602783 5.521139144897461 15 15 15
-0.625100314617157 0.5768912434577942 5.464813709259033 36 36 36
-0.5987595319747925 -2.5711727142333984 5.2425103187561035 98 98 98
-0.6181657314300537 0.6503039002418518 5.447412014007568 57 57 57
-0.5712824463844299 -2.866522789001465 5.2326812744140625 82 82 82
-0.5795931220054626 -0.46345725655555725 5.334298133850098 96 96 96
-0.5795931220054626 -0.46345725655555725 5.334298133850098 96 96 96
-0.611558735370636 2.4871835708618164 5.647720813751221 15 15 15
-0.5740230679512024 -0.3506114184856415 5.343914031982422 113 113 113
-0.5675680637359619 -0.30170559883117676 5.361245632171631 32 32 32
-0.5347843170166016 -1.8440649509429932 5.260809421539307 27 27 27
-0.5347843170166016 -1.8440649509429932 5.260809421539307 27 27 27
-0.5178380012512207 0.2848256826400757 5.454689025878906 26 26 26
-0.4898906648159027 0.6407858729362488 5.4475178718566895 115 115 115
-0.4380970895290375 0.6371895670890808 5.509006977081299 81 81 81
-0.4288581311702728 -0.2217651903629303 5.414219856262207 107 107 107
-0.4243217706680298 -1.2335362434387207 5.357202053070068 46 46 46
-0.383308082818985 -3.0696468353271484 5.194499492645264 74 74 74
-0.3923494219779968 0.06822562217712402 5.41300106048584 98 98 98
-0.37122172117233276 -2.835731267929077 5.249670505523682 82 82 82
-0.3562452495098114 -2.4658026695251465 5.305747985839844 102 102 102
-0.36517134308815 0.5846728086471558 5.487466812133789 118 118 118
-0.3440946340560913 -1.528337836265564 5.312052249908447 30 30 30
-0.3338712751865387 -2.138197422027588 5.262515544891357 26 26 26
-0.33949902653694153 0.6378107070922852 5.444858074188232 51 51 51
-0.33756136894226074 0.9930118322372437 5.458284854888916 120 120 120
-0.3269015848636627 -2.0989139080047607 5.293127059936523 111 111 111
-0.3229769766330719 -0.6485067009925842 5.379046440124512 40 40 40
-0.31954601407051086 -1.2495328187942505 5.368935585021973 22 22 22
-0.30439990758895874 -2.128777265548706 5.30101203918457 94 94 94
-0.23070326447486877 0.8286334872245789 5.52706241607666 41 41 41
-0.21032816171646118 0.7550297975540161 5.547399997711182 31 31 31
-0.10821276903152466 0.8429190516471863 5.60360860824585 23 23 23
-0.04229694604873657 0.9852461218833923 5.381424903869629 114 114 114
