ply
format ascii 1.0
element vertex 71
property float x
property float y
property float z
property uchar red
property uchar green
property uchar blue
end_header
-3.8220505714416504 -0.5859625339508057 8.019981384277344 136 136 136
-3.787813901901245 -0.9127707481384277 8.054780960083008 75 75 75
-3.6782915592193604 0.7273422479629517 7.855930328369141 54 54 54
-3.4451100826263428 1.1496134996414185 7.411068916320801 70 70 70
-3.7546112537384033 -0.06081198900938034 8.081244468688965 44 44 44
-3.7332770824432373 0.651495635509491 8.038432121276855 37 37 37
-3.7098803520202637 0.24765025079250336 8.117846488952637 59 59 59
-3.6683294773101807 0.000933944946154952 8.113153457641602 40 40 40
-3.659097194671631 0.26777681708335876 8.106560707092285 37 37 37
-4.027339935302734 -1.850237488746643 10.097414016723633 24 24 24
-4.078175067901611 -1.080071210861206 10.296332359313965 27 27 27
-4.082165718078613 -0.6862629055976868 10.386581420898438 33 33 33
-4.071332931518555 -0.46207955479621887 10.38060188293457 29 29 29
-4.071332931518555 -0.46207955479621887 10.38060188293457 29 29 29
-3.8527631759643555 0.5750840902328491 9.865161895751953 85 85 85
-4.037609577178955 0.48199936747550964 10.476868629455566 30 30 30
-4.231052875518799 -1.9749975204467773 11.427227973937988 41 41 41
-4.494892120361328 -0.8902754187583923 13.105596542358398 28 28 28
-2.4863715171813965 -2.9777309894561768 7.529392242431641 66 66 66
-4.675063133239746 -2.404250144958496 14.24655818939209 41 41 41
-4.6924543380737305 -1.045045018196106 14.382153511047363 99 99 99
-2.4760451316833496 -3.011693000793457 7.630217552185059 52 52 52
-4.901556968688965 -2.864367723464966 15.126946449279785 135 135 135
-4.901556968688965 -2.864367723464966 15.126946449279785 135 135 135
-4.603880405426025 -2.33199405670166 15.206582069396973 26 26 26
-2.936427116394043 -2.9139931201934814 9.992009162902832 58 58 58
-4.95709228515625 -1.024256706237793 16.96142578125 55 55 55
-5.057482719421387 -1.1832486391067505 17.322284698486328 131 131 131
-3.251507043838501 -2.6916191577911377 11.159613609313965 251 251 251
-4.9820051193237305 -1.3239210844039917 17.14860725402832 45 45 45
-4.866395950317383 -1.5054333209991455 17.12875747680664 144 144 144
-4.866395950317383 -1.5054333209991455 17.12875747680664 144 144 144
-4.749334812164307 -1.467012882232666 17.15120506286621 43 43 43
-3.900413990020752 -2.6931545734405518 14.138039588928223 153 153 153
-4.312672138214111 -2.6885218620300293 15.810575485229492 64 64 64
-4.648653984069824 -1.4104266166687012 17.10521697998047 154 154 154
-4.527026176452637 -1.0321424007415771 16.84005355834961 54 54 54
-4.592025279998779 -1.4710665941238403 17.183612823486328 30 30 30
-4.345296859741211 -0.5331467986106873 16.33302116394043 93 93 93
-4.487896919250488 -1.2712706327438354 16.894067764282227 156 156 156
-4.3622612953186035 -0.726502537727356 16.677112579345703 85 85 85
-4.404071807861328 -1.4923439025878906 16.92235565185547 158 158 158
-4.404071807861328 -1.4923439025878906 16.92235565185547 158 158 158
-4.205547332763672 -1.3256628513336182 16.70931625366211 20 20 20
-4.129302978515625 -1.1052236557006836 16.476642608642578 20 20 20
-4.136808395385742 -0.8307744264602661 16.692588806152344 55 55 55
-4.01607608795166 -1.1510928869247437 16.73996353149414 23 23 23
-3.373579740524292 -0.6720455288887024 14.860301971435547 124 124 124
-1.3127411603927612 0.0930652841925621 7.384173393249512 35 35 35
-1.183271050453186 0.0730607733130455 7.459131717681885 4 4 4
-1.183271050453186 0.0730607733130455 7.459131717681885 4 4 4
-1.1010066270828247 1.185798168182373 7.208235740661621 20 20 20
-1.1010066270828247 1.185798168182373 7.208235740661621 20 20 20
-0.27128276228904724 1.9899168014526367 4.294898509979248 115 115 115
-0.037916120141744614 2.170323371887207 3.561823606491089 47 47 47
-0.03707702085375786 2.1816771030426025 3.492727279663086 132 132 132
-0.016706477850675583 2.1917359828948975 3.4825327396392822 46 46 46
0.42791202664375305 -1.0744109153747559 2.7594170570373535 25 25 25
0.5313873887062073 -1.0609440803527832 2.7806336879730225 109 109 109
0.5442554354667664 -0.6979654431343079 2.8292415142059326 56 56 56
0.5506947636604309 -0.8589933514595032 2.8085567951202393 76 76 76
0.5584056973457336 -0.5803691148757935 2.846830129623413 63 63 63
0.5669142603874207 -0.2671254575252533 2.8764867782592773 65 65 65
0.5691741704940796 -0.6012135148048401 2.8532092571258545 139 139 139
0.5710139870643616 -0.6158080101013184 2.849466323852539 32 32 32
0.5908599495887756 -0.00922391563653946 2.9163055419921875 122 122 122
0.6137771606445312 0.46548184752464294 2.9813473224639893 25 25 25
0.6249585151672363 0.3250989019870758 2.936349391937256 127 127 127
0.6003782749176025 -1.3906463384628296 2.721015214920044 152 152 152
0.6663951277732849 -1.400699257850647 2.6992650032043457 56 56 56
0.7132857441902161 -0.2117222100496292 2.8411998748779297 141 141 141
