ply
format ascii 1.0
element vertex 122
property float x
property float y
property float z
property uchar red
property uchar green
property uchar blue
end_header
-14.922780990600586 -7.437208652496338 32.150291442871094 252 252 252
-14.922780990600586 -7.437208652496338 32.150291442871094 252 252 252
-6.989431381225586 -5.92660665512085 15.375940322875977 61 61 61
-6.963281154632568 -5.371344566345215 15.72183895111084 253 253 253
-6.963281154632568 -5.371344566345215 15.72183895111084 253 253 253
-17.428661346435547 0.29577571153640747 45.320308685302734 23 23 23
-10.397109985351562 -4.900294780731201 29.60449981689453 29 29 29
-10.479291915893555 -4.06419563293457 29.955930709838867 36 36 36
-7.365175247192383 -4.7041850090026855 22.63435935974121 36 36 36
-4.656108379364014 0.5497414469718933 15.294402122497559 167 167 167
-5.287455081939697 -3.1387016773223877 18.693836212158203 132 132 132
-4.195084095001221 2.6481363773345947 14.874074935913086 14 14 14
-4.181087017059326 0.38440123200416565 15.085929870605469 194 194 194
-5.112021446228027 -2.896146059036255 18.57683753967285 155 155 155
-5.178524017333984 -0.15759512782096863 19.444576263427734 53 53 53
-4.458624362945557 -3.423675298690796 17.03394889831543 44 44 44
-3.513958692550659 2.4967048168182373 14.286026954650879 77 77 77
-3.611692428588867 0.5178502798080444 14.970621109008789 15 15 15
-3.688478946685791 -3.2240729331970215 15.308670043945312 118 118 118
-3.457646369934082 2.602673053741455 14.443013191223145 20 20 20
-3.457646369934082 2.602673053741455 14.443013191223145 20 20 20
-3.1508941650390625 -3.051982879638672 14.107202529907227 25 25 25
-3.278688907623291 2.751481056213379 14.857222557067871 72 72 72
-1.4887464046478271 0.4512864351272583 11.095453262329102 79 79 79
-1.2381174564361572 -0.498273640871048 10.304616928100586 98 98 98
-1.2381174564361572 -0.498273640871048 10.304616928100586 98 98 98
-1.24064040184021 2.290907144546509 10.77470874786377 103 103 103
-1.1875993013381958 0.45638254284858704 10.415328025817871 29 29 29
-1.2063807249069214 2.137709856033325 10.628104209899902 104 104 104
-0.19806404411792755 3.445591688156128 5.693974018096924 70 70 70
-0.02835525944828987 3.3062996864318848 6.972610950469971 124 124 124
0.02597811073064804 3.333071708679199 6.827206134796143 70 70 70
0.09286091476678848 -2.4498984813690186 7.181456565856934 36 36 36
0.24028301239013672 -1.8489367961883545 6.961019992828369 93 93 93
0.2501213550567627 -2.3043885231018066 6.890100002288818 92 92 92
0.4100717306137085 3.378340244293213 6.10589599609375 59 59 59
0.4823075830936432 2.4024243354797363 7.141570091247559 20 20 20
0.5707626938819885 -1.9118196964263916 7.020664691925049 49 49 49
0.6040279865264893 -2.182666063308716 6.9596333503723145 100 100 100
0.6506509780883789 1.2920416593551636 6.577701091766357 108 108 108
0.5737307667732239 3.406238555908203 5.768559455871582 56 56 56
0.7294264435768127 -2.1315653324127197 7.043329238891602 48 48 48
0.6730182766914368 -2.3608522415161133 5.988405704498291 99 99 99
0.7667849063873291 -0.27829602360725403 6.0914459228515625 35 35 35
0.7642209529876709 -0.5725505352020264 6.0492753982543945 111 111 111
0.8513323664665222 -2.338728189468384 5.596210479736328 109 109 109
0.9134374260902405 -1.3733761310577393 5.60711669921875 33 33 33
0.977588951587677 1.1680443286895752 5.890148162841797 99 99 99
1.088523030281067 1.824336290359497 5.754510879516602 23 23 23
1.012325644493103 -1.5589975118637085 5.30086088180542 57 57 57
1.0379488468170166 -1.6965101957321167 5.279754161834717 78 78 78
1.0321348905563354 -1.7779252529144287 5.248198509216309 38 38 38
1.0321348905563354 -1.7779252529144287 5.248198509216309 38 38 38
1.0368764400482178 -2.0293774604797363 5.262526035308838 40 40 40
1.1102619171142578 0.9741947054862976 5.535513877868652 108 108 108
1.1512752771377563 1.0249007940292358 5.539482593536377 91 91 91
1.131784200668335 0.1269441694021225 5.3406758308410645 107 107 107
1.0889153480529785 -2.5585007667541504 5.008666515350342 48 48 48
1.1628201007843018 0.2517341673374176 5.293478965759277 35 35 35
1.1347650289535522 -1.6523019075393677 5.070373058319092 136 136 136
1.1681026220321655 -0.8275850415229797 5.112983226776123 146 146 146
1.161611795425415 -1.5966544151306152 5.050976753234863 140 140 140
1.142535924911499 -2.246427059173584 4.944944858551025 112 112 112
1.165114164352417 -1.2570347785949707 5.01982307434082 130 130 130
1.1748852729797363 -1.7766491174697876 5.012310981750488 46 46 46
1.1602225303649902 -2.174428701400757 4.942212104797363 125 125 125
1.1717787981033325 -1.73491632938385 4.982553958892822 121 121 121
1.3090142011642456 0.6225249767303467 5.352156162261963 59 59 59
1.3279242515563965 1.0209084749221802 5.394132614135742 45 45 45
1.2939692735671997 -0.030219469219446182 5.237916469573975 59 59 59
1.3143845796585083 -0.2740498185157776 5.240523338317871 62 62 62
1.2115399837493896 -2.273606061935425 4.827106475830078 107 107 107
1.302485704421997 -0.6962624788284302 5.170541763305664 79 79 79
1.2966341972351074 -0.9030382037162781 5.136769771575928 93 93 93
1.2912009954452515 -1.2985663414001465 5.067359447479248 183 183 183
1.3622087240219116 -1.0053340196609497 5.1768059730529785 66 66 66
1.411153793334961 -0.20129656791687012 5.290828704833984 2 2 2
1.4890735149383545 1.4103385210037231 5.523530006408691 100 100 100
1.5038923025131226 1.7134404182434082 5.580099582672119 102 102 102
1.5024003982543945 1.546963095664978 5.536613941192627 103 103 103
1.421306848526001 -0.9007234573364258 5.236379146575928 36 36 36
1.4474555253982544 -0.21714681386947632 5.315916061401367 152 152 152
1.2860974073410034 -2.208406925201416 4.675817012786865 127 127 127
1.3498852252960205 -2.160691022872925 4.900476455688477 36 36 36
1.4750598669052124 0.3200632631778717 5.333713531494141 128 128 128
1.4659502506256104 -0.1583402305841446 5.279962539672852 140 140 140
1.43287992477417 -2.0651285648345947 5.035083293914795 54 54 54
1.4538753032684326 -1.9960232973098755 5.036038875579834 153 153 153
1.4918791055679321 -1.892778992652893 5.080792427062988 169 169 169
1.4703483581542969 -2.054931640625 4.990558624267578 152 152 152
1.514096736907959 -2.0375447273254395 5.0120320320129395 66 66 66
1.552738904953003 -2.0085692405700684 5.0052032470703125 60 60 60
1.3915201425552368 -2.1877472400665283 4.418149471282959 124 124 124
2.025408983230591 0.22829975187778473 5.587742805480957 23 23 23
2.029691457748413 0.7728620171546936 5.486267566680908 35 35 35
2.1115217208862305 1.0888844728469849 5.691051006317139 110 110 110
2.1064937114715576 0.31512778997421265 5.598771572113037 128 128 128
2.1136231422424316 0.0499894917011261 5.5618577003479 132 132 132
2.136960506439209 0.44621774554252625 5.601911544799805 126 126 126
2.140768051147461 0.7043302655220032 5.5985002517700195 57 57 57
2.1396613121032715 0.06466781347990036 5.487231254577637 71 71 71
2.1296329498291016 0.03272699564695358 5.450656414031982 41 41 41
2.145719051361084 0.8045667409896851 5.481123447418213 52 52 52
2.119100570678711 -0.28286853432655334 5.3836750984191895 162 162 162
2.1388766765594482 0.25068625807762146 5.426197052001953 156 156 156
2.1714420318603516 0.4240359663963318 5.457380771636963 123 123 123
2.1806063652038574 0.559899628162384 5.474939823150635 50 50 50
2.1570756435394287 0.25679102540016174 5.363142490386963 157 157 157
2.188610792160034 0.4974885582923889 5.435950756072998 136 136 136
2.2167418003082275 0.6958576440811157 5.4519124031066895 130 130 130
2.19856333732605 0.26456183195114136 5.384819030761719 153 153 153
2.2125637531280518 0.31358638405799866 5.367403507232666 112 112 112
2.1836369037628174 0.3537754416465759 5.255620956420898 37 37 37
2.1836369037628174 0.3537754416465759 5.255620956420898 37 37 37
2.227430582046509 0.13927623629570007 5.2638702392578125 130 130 130
2.2151992321014404 0.5812973976135254 5.1891961097717285 127 127 127
2.224111795425415 0.38626545667648315 5.17284631729126 77 77 77
2.2869699001312256 0.7045405507087708 5.3166608810424805 117 117 117
2.289076805114746 0.7079504728317261 5.317495346069336 99 99 99
2.253263473510742 0.3446185290813446 5.11904239654541 136 136 136
2.3494439125061035 0.456230491399765 5.1448798179626465 114 114 114
2.2657992839813232 0.3720076084136963 4.957419395446777 32 32 32
