ply
format ascii 1.0
element vertex 242
property float x
property float y
property float z
property uchar red
property uchar green
property uchar blue
end_header
-15.603642463684082 1.6118775606155396 31.57271957397461 23 23 23
-14.588536262512207 14.607483863830566 30.22298812866211 56 56 56
-14.309197425842285 14.172734260559082 29.783828735351562 88 88 88
-13.916377067565918 7.167174816131592 29.06476593017578 25 25 25
-13.916377067565918 7.167174816131592 29.06476593017578 25 25 25
-13.950223922729492 10.93356990814209 29.33712387084961 31 31 31
-13.950223922729492 10.93356990814209 29.33712387084961 31 31 31
-16.96958351135254 21.076852798461914 35.8607177734375 135 135 135
-13.766031265258789 13.254661560058594 29.240772247314453 29 29 29
-15.84255599975586 -6.047556400299072 33.83329391479492 130 130 130
-15.84255599975586 -6.047556400299072 33.83329391479492 130 130 130
-15.478893280029297 -4.947195529937744 33.15688705444336 125 125 125
-14.960402488708496 -0.15206478536128998 32.19107437133789 56 56 56
-13.823240280151367 9.354635238647461 29.8159122467041 46 46 46
-15.672149658203125 -11.08292293548584 34.24443435668945 28 28 28
-14.424919128417969 2.519388198852539 31.719911575317383 123 123 123
-14.324419975280762 1.5958558320999146 31.531064987182617 32 32 32
-13.74477481842041 5.591561794281006 30.355615615844727 27 27 27
-13.927539825439453 3.7727363109588623 30.892353057861328 120 120 120
-13.927539825439453 3.7727363109588623 30.892353057861328 120 120 120
-13.76762580871582 6.463949680328369 30.806060791015625 106 106 106
-13.059426307678223 6.105631351470947 29.319225311279297 107 107 107
-14.016518592834473 -1.9728041887283325 31.598285675048828 103 103 103
-13.71362018585205 5.971480846405029 31.0961856842041 121 121 121
-12.93167495727539 9.453774452209473 29.651222229003906 98 98 98
-12.67103385925293 7.747844696044922 29.430761337280273 104 104 104
-12.67103385925293 7.747844696044922 29.430761337280273 104 104 104
-12.881340026855469 6.0770769119262695 30.659229278564453 129 129 129
-12.139695167541504 6.788195610046387 28.98407554626465 24 24 24
-12.028037071228027 8.548089027404785 28.92367935180664 24 24 24
-11.896315574645996 7.46746826171875 28.645246505737305 19 19 19
-13.807973861694336 -14.339484214782715 33.32271957397461 29 29 29
-11.70236587524414 8.384452819824219 28.84758186340332 131 131 131
-12.414782524108887 -5.548114776611328 30.940067291259766 37 37 37
-12.743927001953125 -9.643516540527344 31.830156326293945 40 40 40
-12.743927001953125 -9.643516540527344 31.830156326293945 40 40 40
-12.12949275970459 -10.263623237609863 30.655046463012695 32 32 32
-12.061121940612793 -10.20895767211914 30.496051788330078 32 32 32
-12.016504287719727 -11.243928909301758 31.927902221679688 114 114 114
-11.688458442687988 -10.338790893554688 31.098190307617188 36 36 36
-11.432777404785156 -9.915247917175293 30.700763702392578 35 35 35
-11.132616996765137 2.9181222915649414 30.17993927001953 135 135 135
-10.687355041503906 -9.593802452087402 29.730741500854492 34 34 34
-11.486380577087402 -11.161966323852539 32.04975128173828 28 28 28
-11.486380577087402 -11.161966323852539 32.04975128173828 28 28 28
-10.308392524719238 1.8400437831878662 29.092575073242188 175 175 175
-10.29228401184082 1.7706284523010254 29.215816497802734 182 182 182
-10.350441932678223 -8.582435607910156 29.695161819458008 111 111 111
-9.65662956237793 3.2758045196533203 27.853443145751953 106 106 106
-10.340130805969238 -9.219705581665039 29.96059799194336 102 102 102
-10.103487968444824 -8.237089157104492 29.774858474731445 110 110 110
-9.469252586364746 4.523666858673096 28.09821891784668 33 33 33
-9.638130187988281 1.3598361015319824 28.749914169311523 81 81 81
-10.001822471618652 -9.981618881225586 30.22612762451172 144 144 144
-10.001822471618652 -9.981618881225586 30.22612762451172 144 144 144
-9.63256549835205 -6.681856632232666 29.2999210357666 107 107 107
-9.356663703918457 -7.218873977661133 28.568256378173828 91 91 91
-9.992572784423828 -10.697026252746582 30.60051727294922 44 44 44
-8.084024429321289 10.576519012451172 25.433338165283203 88 88 88
-8.828054428100586 -0.698340654373169 27.867794036865234 115 115 115
-8.882806777954102 1.480384349822998 28.1875 106 106 106
-8.908742904663086 1.6196602582931519 28.371938705444336 148 148 148
-8.19222640991211 3.4266512393951416 27.696781158447266 90 90 90
-8.638575553894043 -8.22398567199707 29.57761001586914 28 28 28
-11.740401268005371 25.325830459594727 41.75950241088867 63 63 63
-7.912870407104492 -7.218351364135742 28.927194595336914 51 51 51
-7.08436918258667 9.869576454162598 26.842496871948242 19 19 19
-7.927003383636475 2.6378047466278076 30.67448616027832 107 107 107
-6.985191345214844 3.456969738006592 28.40259552001953 94 94 94
-6.631126403808594 9.870152473449707 27.964672088623047 62 62 62
-6.439709186553955 4.029842853546143 28.653247833251953 89 89 89
-6.321381092071533 7.926111221313477 28.407493591308594 17 17 17
-5.893138885498047 2.2825255393981934 28.106212615966797 135 135 135
-6.645582675933838 2.836719512939453 32.10834503173828 109 109 109
-6.60538911819458 -11.308552742004395 34.4439697265625 99 99 99
-5.02293062210083 4.611147880554199 28.427030563354492 110 110 110
-4.970713138580322 2.438755750656128 28.624235153198242 66 66 66
-4.9539875984191895 2.6342458724975586 28.83681297302246 138 138 138
-4.958927154541016 -7.6443986892700195 29.086715698242188 133 133 133
-5.363500118255615 -10.212545394897461 31.66629409790039 96 96 96
-7.629159927368164 29.449918746948242 45.57179641723633 96 96 96
-5.410196304321289 -11.837686538696289 34.63985824584961 76 76 76
-3.9889066219329834 2.1573007106781006 27.94175910949707 94 94 94
-4.6632208824157715 -10.73241901397705 32.87104797363281 103 103 103
-5.637282371520996 26.7711124420166 43.707576751708984 137 137 137
-3.546480894088745 6.71815299987793 29.931358337402344 113 113 113
-3.477222442626953 5.819960117340088 30.219606399536133 126 126 126
-3.1165809631347656 -0.34119969606399536 28.671342849731445 77 77 77
-3.1080925464630127 5.2811198234558105 29.350513458251953 27 27 27
-3.100794553756714 1.7234574556350708 29.655088424682617 23 23 23
-3.0414669513702393 5.50615119934082 29.645404815673828 121 121 121
-2.976804733276367 5.313342094421387 29.493335723876953 26 26 26
-2.828416585922241 1.5226330757141113 28.49672508239746 253 253 253
-2.828416585922241 1.5226330757141113 28.49672508239746 253 253 253
-3.1728687286376953 -12.372760772705078 32.70273208618164 124 124 124
-3.070657730102539 -9.272838592529297 31.834012985229492 130 130 130
-3.070657730102539 -9.272838592529297 31.834012985229492 130 130 130
-2.8577475547790527 6.834654331207275 32.16744613647461 93 93 93
-2.6602325439453125 5.388187408447266 30.313261032104492 42 42 42
-2.7292463779449463 -11.705734252929688 33.1969108581543 131 131 131
-2.413745403289795 2.1542258262634277 29.43306541442871 7 7 7
-2.6299822330474854 -9.329960823059082 32.0796012878418 61 61 61
-2.6299822330474854 -9.329960823059082 32.0796012878418 61 61 61
-2.4327828884124756 7.49601411819458 29.96398162841797 107 107 107
-2.4938247203826904 6.062137126922607 30.93445587158203 64 64 64
-2.16247296333313 -1.5452550649642944 27.38027572631836 205 205 205
-2.5778980255126953 -11.498154640197754 32.89323425292969 133 133 133
-2.2969753742218018 8.792522430419922 30.060863494873047 81 81 81
-2.232905626296997 6.206617832183838 30.495342254638672 183 183 183
-2.002676248550415 -3.58658504486084 27.821340560913086 210 210 210
-2.1131205558776855 2.794374942779541 30.012170791625977 57 57 57
-2.0210180282592773 4.016044616699219 30.24818229675293 35 35 35
-2.239678144454956 -13.549107551574707 34.085330963134766 111 111 111
-2.013089895248413 5.920315742492676 31.13616180419922 108 108 108
-1.8900439739227295 -3.0988683700561523 29.861106872558594 30 30 30
-1.9469270706176758 6.412164688110352 31.028051376342773 84 84 84
-1.7997868061065674 -0.28180232644081116 28.69917869567871 50 50 50
-1.8217382431030273 7.046286582946777 29.3911075592041 60 60 60
-1.8899402618408203 8.128376007080078 30.94178581237793 3 3 3
-1.8899402618408203 8.128376007080078 30.94178581237793 3 3 3
-1.6477710008621216 1.0537681579589844 28.325040817260742 182 182 182
-1.790869951248169 8.88155746459961 31.084678649902344 85 85 85
-1.791230320930481 -5.32731819152832 31.366703033447266 22 22 22
-1.638048768043518 10.021748542785645 29.687368392944336 72 72 72
-1.3807339668273926 -1.8748058080673218 26.61385154724121 132 132 132
-1.3807339668273926 -1.8748058080673218 26.61385154724121 132 132 132
-1.5506751537322998 9.593565940856934 30.403627395629883 75 75 75
-1.4922865629196167 -1.5309637784957886 29.251934051513672 56 56 56
-1.4922865629196167 -1.5309637784957886 29.251934051513672 56 56 56
-1.4146811962127686 7.710780143737793 30.579633712768555 101 101 101
-1.3441365957260132 5.885967254638672 30.69186019897461 121 121 121
-1.4438645839691162 -11.488694190979004 32.95866775512695 127 127 127
-1.218407154083252 0.6244319677352905 29.799402236938477 87 87 87
-1.2281416654586792 2.4570209980010986 30.194074630737305 107 107 107
-1.0494941473007202 -0.2893300950527191 27.54081916809082 254 254 254
-1.0682100057601929 -0.10680722445249557 28.419227600097656 171 171 171
-0.9103595614433289 0.16898809373378754 29.000064849853516 254 254 254
-0.9689756035804749 5.041097640991211 32.69643783569336 7 7 7
-0.8353101015090942 11.07536792755127 30.519699096679688 113 113 113
-0.7962164878845215 2.54533052444458 30.827669143676758 110 110 110
-0.6065369248390198 1.4982757568359375 23.912134170532227 115 115 115
-0.57120281457901 -4.488719463348389 24.5368709564209 26 26 26
-0.6981571912765503 5.512153148651123 30.693119049072266 31 31 31
-0.6546985507011414 -0.6031953692436218 28.992403030395508 254 254 254
-0.5397155284881592 -0.024500727653503418 28.88417625427246 129 129 129
-0.5641573667526245 5.850039005279541 31.02754020690918 126 126 126
-0.590819776058197 4.248931407928467 33.51035690307617 40 40 40
-0.43263015151023865 6.063516616821289 30.566701889038086 113 113 113
-0.21778541803359985 -5.639275074005127 19.70082664489746 19 19 19
-0.20217517018318176 8.616057395935059 30.720169067382812 100 100 100
-0.1447099894285202 5.2442240715026855 31.10354232788086 46 46 46
-0.09929971396923065 7.9586615562438965 30.441204071044922 114 114 114
-0.07355394959449768 0.2195521891117096 28.747793197631836 254 254 254
-0.03452634811401367 7.000276565551758 30.754409790039062 125 125 125
-0.028136346489191055 -9.199752807617188 27.78160285949707 104 104 104
-0.0021547344513237476 8.895125389099121 30.650550842285156 104 104 104
0.005007685162127018 0.20370255410671234 30.137897491455078 254 254 254
0.10979066044092178 -14.540306091308594 34.66205978393555 134 134 134
0.19503554701805115 -3.118410587310791 28.824636459350586 36 36 36
0.3033214807510376 11.049361228942871 30.14454460144043 102 102 102
0.3033214807510376 11.049361228942871 30.14454460144043 102 102 102
0.3328266739845276 0.5495303869247437 29.433237075805664 245 245 245
0.39704400300979614 5.127786636352539 32.264278411865234 20 20 20
0.39466196298599243 8.902128219604492 30.456064224243164 61 61 61
0.42785799503326416 6.520617485046387 31.635175704956055 140 140 140
0.4521978795528412 -1.0626403093338013 29.428808212280273 26 26 26
0.4521978795528412 -1.0626403093338013 29.428808212280273 26 26 26
0.4850272536277771 5.9857497215271 31.06090545654297 114 114 114
0.45628809928894043 0.2037489414215088 28.96297836303711 134 134 134
0.45628809928894043 0.2037489414215088 28.96297836303711 134 134 134
0.5506405234336853 -0.5152409672737122 28.871273040771484 224 224 224
0.7173218131065369 1.6076842546463013 31.15691375732422 112 112 112
0.7655383348464966 5.618991374969482 31.514083862304688 47 47 47
0.7492799758911133 7.648199558258057 29.52606964111328 117 117 117
0.7755268812179565 -2.1362762451171875 30.638900756835938 50 50 50
0.7901363372802734 -1.0861634016036987 30.045270919799805 253 253 253
0.9738103151321411 -10.921981811523438 32.462982177734375 114 114 114
0.9576078057289124 9.5956449508667 30.5750675201416 101 101 101
0.9903793334960938 10.044367790222168 31.099079132080078 96 96 96
0.9750393629074097 0.1149623766541481 29.6035099029541 254 254 254
1.286853313446045 -14.22023868560791 38.910423278808594 105 105 105
1.166494369506836 2.8889567852020264 34.84810256958008 110 110 110
1.2745943069458008 -13.137750625610352 36.03575897216797 109 109 109
1.2111248970031738 6.364702224731445 31.738401412963867 133 133 133
1.2482608556747437 -3.7730746269226074 32.30454635620117 50 50 50
1.243873953819275 9.681180000305176 31.11907196044922 106 106 106
1.1378413438796997 -0.3482208251953125 28.129384994506836 82 82 82
1.2673157453536987 8.904296875 31.015531539916992 50 50 50
1.2673157453536987 8.904296875 31.015531539916992 50 50 50
1.251450777053833 -1.297816276550293 30.001768112182617 62 62 62
1.3552747964859009 -7.356217861175537 32.19222640991211 35 35 35
1.3552747964859009 -7.356217861175537 32.19222640991211 35 35 35
1.3872095346450806 9.36257553100586 31.410612106323242 25 25 25
1.3794115781784058 -0.8337193131446838 31.153112411499023 155 155 155
1.4477777481079102 6.247800350189209 32.05244445800781 129 129 129
2.0276544094085693 26.12901496887207 43.97050476074219 50 50 50
1.5196726322174072 -0.021537134423851967 30.851112365722656 253 253 253
1.7292262315750122 -2.5788698196411133 32.5339241027832 123 123 123
1.7830013036727905 6.038346767425537 31.91614532470703 27 27 27
1.8181465864181519 1.9476566314697266 31.9111270904541 115 115 115
1.7971198558807373 8.28758716583252 31.20977020263672 120 120 120
1.7585054636001587 11.111085891723633 30.051109313964844 103 103 103
2.018150806427002 -9.799169540405273 33.12710952758789 4 4 4
2.027284860610962 -9.587733268737793 32.924198150634766 142 142 142
2.382054090499878 -11.89195728302002 34.81273651123047 183 183 183
2.1484265327453613 10.145390510559082 31.164318084716797 111 111 111
2.296844720840454 11.613221168518066 31.880325317382812 44 44 44
2.6193881034851074 7.494693279266357 31.854869842529297 134 134 134
2.656019449234009 9.092503547668457 32.20793151855469 132 132 132
2.7266457080841064 6.182377338409424 32.39292526245117 12 12 12
2.704331636428833 6.450806140899658 31.590564727783203 133 133 133
2.96878719329834 2.4382262229919434 34.255680084228516 89 89 89
2.96878719329834 2.4382262229919434 34.255680084228516 89 89 89
2.7636921405792236 11.644916534423828 31.143625259399414 120 120 120
2.904514789581299 6.032769203186035 31.84110450744629 20 20 20
3.0365540981292725 7.330678939819336 31.853803634643555 102 102 102
3.0789437294006348 1.8529540300369263 32.098594665527344 59 59 59
3.0687336921691895 7.660691738128662 31.685867309570312 127 127 127
3.0846407413482666 8.932762145996094 31.477697372436523 91 91 91
3.2276837825775146 8.195685386657715 31.9219970703125 108 108 108
3.2531578540802 8.097687721252441 31.99500274658203 79 79 79
3.341599225997925 7.505321502685547 32.50593948364258 43 43 43
3.341599225997925 7.505321502685547 32.50593948364258 43 43 43
3.2643654346466064 7.267117500305176 31.436277389526367 46 46 46
3.2408530712127686 8.245739936828613 31.168575286865234 42 42 42
3.3621692657470703 7.407510280609131 31.724458694458008 51 51 51
3.4901678562164307 5.873507499694824 32.18524932861328 76 76 76
3.4901678562164307 5.873507499694824 32.18524932861328 76 76 76
3.5382204055786133 8.25402545928955 32.33911895751953 130 130 130
3.8633062839508057 -11.728314399719238 34.816123962402344 99 99 99
4.097143650054932 3.1418306827545166 35.307029724121094 139 139 139
3.761782169342041 6.560441970825195 31.936290740966797 122 122 122
4.171440124511719 6.021819114685059 31.99910545349121 36 36 36
4.627540111541748 -11.712261199951172 34.96900939941406 98 98 98
4.696685314178467 -8.433645248413086 34.76832580566406 240 240 240
4.483253479003906 6.693553447723389 32.73956298828125 100 100 100
4.483253479003906 6.693553447723389 32.73956298828125 100 100 100
4.839949607849121 12.423554420471191 34.5277099609375 39 39 39
4.770749568939209 6.833165645599365 33.20938491821289 97 97 97
5.144204616546631 10.673766136169434 33.86591720581055 87 87 87
5.221590518951416 13.840963363647461 34.3248405456543 131 131 131
5.486135005950928 10.56959342956543 34.43519973754883 46 46 46
