ply
format ascii 1.0
element vertex 74
property float x
property float y
property float z
property uchar red
property uchar green
property uchar blue
end_header
-0.6220473051071167 -0.471813827753067 1.3700305223464966 16 16 16
-0.6199763417243958 -0.46352723240852356 1.3731106519699097 123 123 123
-0.6184320449829102 -0.38093283772468567 1.3804470300674438 26 26 26
-0.6191487312316895 -0.20699799060821533 1.4059218168258667 27 27 27
-0.6191487312316895 -0.20699799060821533 1.4059218168258667 27 27 27
-0.6197686195373535 -0.12642107903957367 1.420804738998413 26 26 26
-0.6133744120597839 -0.11710309982299805 1.4256483316421509 130 130 130
-0.6110367774963379 -0.1265547126531601 1.4301105737686157 26 26 26
-0.6175624132156372 0.042492303997278214 1.4485139846801758 37 37 37
-0.5860413908958435 -0.22214210033416748 1.4283701181411743 26 26 26
-0.5941141843795776 -0.04183344915509224 1.4507349729537964 46 46 46
-0.5903795957565308 0.04083995148539543 1.4616471529006958 56 56 56
-0.579037606716156 -0.04793217405676842 1.4592225551605225 20 20 20
-0.5770822167396545 0.04070809856057167 1.4749037027359009 43 43 43
-0.5826845765113831 0.22536544501781464 1.4921501874923706 127 127 127
-0.58414226770401 0.2629867196083069 1.4963449239730835 121 121 121
-0.5167814493179321 -0.22706332802772522 1.4678025245666504 106 106 106
-0.5107224583625793 -0.314647376537323 1.4630591869354248 120 120 120
-0.49830907583236694 -0.6463776230812073 1.4378539323806763 95 95 95
-0.5111805200576782 0.041809968650341034 1.5117475986480713 131 131 131
-0.49432045221328735 -0.19778025150299072 1.4895838499069214 113 113 113
-0.48992419242858887 -0.3102741539478302 1.479198932647705 29 29 29
-0.4814531207084656 -0.21183857321739197 1.5004119873046875 107 107 107
-0.48151272535324097 0.46294862031936646 1.6003522872924805 103 103 103
-0.39067840576171875 -0.40965765714645386 1.5326248407363892 26 26 26
-0.4044904410839081 0.35815826058387756 1.6316096782684326 138 138 138
-0.3799290657043457 -0.3220844268798828 1.5537396669387817 29 29 29
-0.37239789962768555 -0.23561830818653107 1.5709240436553955 33 33 33
-0.3837430477142334 0.29333484172821045 1.6349364519119263 124 124 124
-0.36581799387931824 -0.07562887668609619 1.5927814245224 110 110 110
-0.36278975009918213 -0.06431733816862106 1.5980147123336792 46 46 46
-0.37147337198257446 0.35042208433151245 1.6536287069320679 19 19 19
-0.358815997838974 0.38032883405685425 1.6527433395385742 57 57 57
-0.33971747756004333 0.04670969769358635 1.6226667165756226 89 89 89
-0.30520233511924744 0.2920152246952057 1.6743345260620117 53 53 53
-0.2941915988922119 -0.0013276541139930487 1.6452128887176514 130 130 130
-0.2812449336051941 -0.1718684583902359 1.6317397356033325 20 20 20
-0.2812449336051941 -0.1718684583902359 1.6317397356033325 20 20 20
-0.2845761477947235 0.019758716225624084 1.654748558998108 142 142 142
-0.28686589002609253 0.15081676840782166 1.6728630065917969 163 163 163
-0.28889229893684387 0.3663245737552643 1.7052016258239746 99 99 99
-0.28889229893684387 0.3663245737552643 1.7052016258239746 99 99 99
-0.28944283723831177 0.4498670995235443 1.70907461643219 34 34 34
-0.26857805252075195 -0.0732996016740799 1.6503092050552368 53 53 53
-0.2658018171787262 -0.15225356817245483 1.6398545503616333 126 126 126
-0.2670997083187103 -0.06106584891676903 1.6499887704849243 132 132 132
-0.2553965747356415 0.33918270468711853 1.7237709760665894 20 20 20
-0.2419632524251938 0.3370451033115387 1.730379581451416 20 20 20
-0.24085645377635956 0.39772355556488037 1.7308735847473145 92 92 92
-0.21820023655891418 -0.7713090181350708 1.5865236520767212 101 101 101
-0.22288890182971954 -0.16529637575149536 1.667199730873108 42 42 42
-0.22407235205173492 0.15672476589679718 1.708107829093933 61 61 61
-0.21818853914737701 0.22497348487377167 1.7267004251480103 45 45 45
-0.2111421674489975 -0.1635197550058365 1.6747469902038574 39 39 39
-0.19800424575805664 -0.2504390478134155 1.6598414182662964 45 45 45
-0.1676161140203476 0.08329068124294281 1.7311644554138184 24 24 24
-0.1603405922651291 -0.34446224570274353 1.6751490831375122 67 67 67
-0.15655604004859924 -0.0850152000784874 1.7147793769836426 30 30 30
-0.14770762622356415 -0.7829523086547852 1.6266133785247803 32 32 32
-0.13980312645435333 -0.09991410374641418 1.7190769910812378 110 110 110
-0.13878262042999268 -0.1313571333885193 1.7122055292129517 106 106 106
-0.13130053877830505 -0.7056832313537598 1.6485886573791504 101 101 101
-0.12405562400817871 -0.7850454449653625 1.6450001001358032 77 77 77
-0.12295524775981903 -0.5162066221237183 1.678749918937683 26 26 26
-0.11606519669294357 -0.7074539661407471 1.6544907093048096 97 97 97
-0.11461758613586426 -0.344294935464859 1.7075049877166748 46 46 46
-0.11073685437440872 0.18048317730426788 1.7802684307098389 40 40 40
-0.08737478405237198 0.18150874972343445 1.7871936559677124 56 56 56
-0.07802233099937439 0.23765873908996582 1.7993481159210205 24 24 24
-0.07704050838947296 0.20694859325885773 1.797540545463562 36 36 36
-0.07301598787307739 -0.35276180505752563 1.7325655221939087 23 23 23
-0.041793983429670334 -0.5099931955337524 1.7234058380126953 93 93 93
-0.03603604808449745 -0.07353762537240982 1.78219735622406 49 49 49
0.3262079656124115 -0.40771523118019104 0.9540953040122986 103 103 103
