ply
format ascii 1.0
element vertex 317
property float x
property float y
property float z
property uchar red
property uchar green
property uchar blue
end_header
-1.7835769653320312 2.6669089794158936 5.054112911224365 89 89 89
-1.5556668043136597 -1.7737113237380981 4.436766624450684 43 43 43
-1.5359151363372803 -1.761574387550354 4.404995918273926 40 40 40
-1.3448340892791748 -2.0023622512817383 4.008766174316406 38 38 38
-1.3304924964904785 -2.0095438957214355 3.9662647247314453 159 159 159
-1.3277029991149902 -2.005999803543091 3.9613966941833496 147 147 147
-1.4698094129562378 -1.7440617084503174 4.383773326873779 155 155 155
-1.4476869106292725 -1.816051721572876 4.375054359436035 40 40 40
-1.3190118074417114 -2.008631467819214 3.9968032836914062 76 76 76
-1.586918592453003 2.7137269973754883 4.881042957305908 92 92 92
-1.348530888557434 -1.7984304428100586 4.361975193023682 154 154 154
-1.3377646207809448 -1.8798198699951172 4.376251220703125 47 47 47
-1.2822301387786865 -1.954483985900879 4.265315532684326 23 23 23
-1.2822301387786865 -1.954483985900879 4.265315532684326 23 23 23
-1.3182568550109863 -1.625622272491455 4.411977767944336 159 159 159
-1.2843103408813477 -1.8305678367614746 4.398623466491699 28 28 28
-1.3111745119094849 -1.077144742012024 4.488266468048096 171 171 171
-1.3945494890213013 2.725017786026001 4.787349700927734 104 104 104
-1.268397569656372 -1.8998407125473022 4.365368366241455 117 117 117
-1.3130007982254028 -0.48504123091697693 4.594985008239746 22 22 22
-1.3238533735275269 -0.0913037359714508 4.635465621948242 26 26 26
-1.3238533735275269 -0.0913037359714508 4.635465621948242 26 26 26
-1.1601719856262207 -2.022900342941284 4.151102066040039 131 131 131
-1.2261617183685303 -1.2377008199691772 4.42912483215332 140 140 140
-1.3541735410690308 2.669800281524658 4.920529842376709 34 34 34
-1.2507586479187012 0.26371273398399353 4.6502485275268555 91 91 91
-1.240020513534546 1.52110755443573 4.743190765380859 44 44 44
-1.1032499074935913 -1.953080415725708 4.230679988861084 123 123 123
-1.2200044393539429 0.6163136959075928 4.697628498077393 57 57 57
-1.114092230796814 -2.0396535396575928 4.323254108428955 40 40 40
-1.1040263175964355 -2.0424108505249023 4.284704685211182 125 125 125
-1.111824631690979 -1.4040664434432983 4.333489418029785 139 139 139
-1.082406997680664 -2.028937339782715 4.3316521644592285 47 47 47
-1.1310187578201294 -0.045612920075654984 4.5295820236206055 124 124 124
-1.1301500797271729 0.7201040387153625 4.62685489654541 112 112 112
-1.1323553323745728 1.0655146837234497 4.671876430511475 33 33 33
-1.11078941822052 1.8694941997528076 4.729940414428711 92 92 92
-1.0771745443344116 -0.7924862504005432 4.651878833770752 120 120 120
-1.0336737632751465 -1.1770247220993042 4.554440975189209 125 125 125
-1.0371320247650146 -0.38209259510040283 4.634077548980713 114 114 114
-1.0760949850082397 1.5841124057769775 4.827816009521484 102 102 102
-0.9893602132797241 -1.8279308080673218 4.539308071136475 96 96 96
-1.0083813667297363 -0.6884688138961792 4.636765003204346 35 35 35
-0.9780833721160889 -0.27408266067504883 4.687797546386719 132 132 132
-0.9663125872612 -0.07958375662565231 4.70982027053833 124 124 124
-0.9986472129821777 1.4320324659347534 4.909961700439453 24 24 24
-0.9939270615577698 1.6144828796386719 4.927023410797119 118 118 118
-0.9899982810020447 1.5893497467041016 4.922238349914551 27 27 27
-0.9903286099433899 1.5902659893035889 4.9234747886657715 54 54 54
-0.9652847051620483 0.6110295057296753 4.857110500335693 128 128 128
-0.9652847051620483 0.6110295057296753 4.857110500335693 128 128 128
-0.9446685910224915 0.993367612361908 4.918313980102539 78 78 78
-0.9765655398368835 2.6894404888153076 5.084740161895752 79 79 79
-0.9482913017272949 1.6021370887756348 4.984811305999756 29 29 29
-0.9545360803604126 1.9871472120285034 5.026089668273926 20 20 20
-0.8488419651985168 -1.636013150215149 4.715219020843506 123 123 123
-0.8612041473388672 -0.6046552658081055 4.8010029792785645 130 130 130
-0.8612041473388672 -0.6046552658081055 4.8010029792785645 130 130 130
-0.8612041473388672 -0.6046552658081055 4.8010029792785645 130 130 130
-0.8844452500343323 1.3989721536636353 5.048259258270264 26 26 26
-0.8120557069778442 -1.8169939517974854 4.743824481964111 132 132 132
-0.8245397806167603 -0.6726365685462952 4.847903251647949 129 129 129
-0.7606520056724548 -1.1067533493041992 4.885341644287109 18 18 18
-0.7606520056724548 -1.1067533493041992 4.885341644287109 18 18 18
-0.724494993686676 -2.607644557952881 4.7573041915893555 34 34 34
-0.724494993686676 -2.607644557952881 4.7573041915893555 34 34 34
-0.7866812348365784 1.7675052881240845 5.230873107910156 22 22 22
-0.7520110011100769 0.015837285667657852 5.012817859649658 142 142 142
-0.7752256989479065 1.3856087923049927 5.203796863555908 19 19 19
-0.6486107110977173 -2.6283626556396484 4.82188081741333 68 68 68
-0.6433349251747131 -2.099839210510254 4.933460235595703 104 104 104
-0.6393077373504639 0.6542409062385559 5.269064426422119 134 134 134
-0.6447737812995911 0.28590235114097595 5.385970115661621 133 133 133
-0.5852211117744446 -2.266338586807251 4.941182613372803 104 104 104
-0.6008957028388977 -0.938285768032074 5.100991249084473 119 119 119
-0.6022973656654358 1.3155220746994019 5.410960674285889 72 72 72
-0.5609091520309448 0.7223407626152039 5.362071990966797 64 64 64
-0.5180720686912537 -2.1091907024383545 5.034900665283203 38 38 38
-0.5183693766593933 -2.083172559738159 5.090783596038818 33 33 33
-0.5260900259017944 0.43711116909980774 5.389819622039795 189 189 189
-0.5077913403511047 -2.041696786880493 5.184625148773193 84 84 84
-0.5067821145057678 0.4315301775932312 5.365825176239014 180 180 180
-0.4607469141483307 -2.1280648708343506 4.936197280883789 117 117 117
-0.46652132272720337 -1.8593553304672241 5.107909202575684 40 40 40
-0.4680418372154236 -1.9009244441986084 5.14369535446167 108 108 108
-0.4839116930961609 0.34267458319664 5.415836334228516 167 167 167
-0.43618443608283997 -2.1921567916870117 4.9742350578308105 105 105 105
-0.4314151108264923 -2.1447596549987793 4.988552093505859 112 112 112
-0.44613510370254517 -1.8932846784591675 5.207954406738281 69 69 69
-0.4390386939048767 -0.3647526800632477 5.3849639892578125 40 40 40
-0.4072222113609314 -2.2142601013183594 5.011956691741943 25 25 25
-0.4102663993835449 -2.1113877296447754 5.215574264526367 41 41 41
-0.4102663993835449 -2.1113877296447754 5.215574264526367 41 41 41
-0.4398805499076843 1.974449634552002 5.692936897277832 49 49 49
-0.3864240050315857 -2.2897188663482666 5.0903449058532715 108 108 108
-0.3822455406188965 -2.179428815841675 5.056094169616699 144 144 144
-0.37995100021362305 -2.08337140083313 5.2906718254089355 40 40 40
-0.3774857521057129 -2.07698655128479 5.2784223556518555 33 33 33
-0.3619171679019928 -2.1604421138763428 5.067690372467041 105 105 105
-0.3999292254447937 1.8596830368041992 5.736531734466553 15 15 15
-0.38225632905960083 0.5003262758255005 5.556484222412109 56 56 56
-0.3764801621437073 0.3371070325374603 5.49923849105835 74 74 74
-0.37166449427604675 0.6729688048362732 5.574852466583252 100 100 100
-0.34743741154670715 -1.9338277578353882 5.354440212249756 103 103 103
-0.3378170132637024 -2.0977742671966553 5.34476375579834 41 41 41
-0.32993289828300476 1.8446918725967407 5.791914939880371 23 23 23
-0.30732086300849915 -0.9961686134338379 5.478287220001221 47 47 47
-0.3024902641773224 -2.0982954502105713 5.390263080596924 34 34 34
-0.3058449625968933 0.40496310591697693 5.629699230194092 88 88 88
-0.2926361858844757 -1.8339688777923584 5.423743724822998 127 127 127
-0.27474814653396606 -2.6241931915283203 5.323065757751465 36 36 36
-0.2738005220890045 -1.897170066833496 5.429340362548828 14 14 14
-0.2738005220890045 -1.897170066833496 5.429340362548828 14 14 14
-0.2847560942173004 2.305962085723877 5.792652606964111 19 19 19
-0.2313995063304901 -0.29720619320869446 5.5675787925720215 110 110 110
-0.22164618968963623 0.3909609615802765 5.7342352867126465 58 58 58
-0.198744997382164 -1.7299153804779053 5.516993522644043 92 92 92
-0.2014968991279602 -0.15119321644306183 5.656822204589844 112 112 112
-0.18096978962421417 0.4012514650821686 5.789412498474121 72 72 72
-0.15735910832881927 -2.3585662841796875 5.3597493171691895 51 51 51
-0.1521739363670349 -2.1458427906036377 5.364883899688721 3 3 3
-0.14563903212547302 -1.7509839534759521 5.610937118530273 42 42 42
-0.13550467789173126 -1.8716329336166382 5.5904974937438965 87 87 87
-0.12207600474357605 0.9130365252494812 5.799256324768066 93 93 93
-0.1172163262963295 -1.2519896030426025 5.6966657638549805 114 114 114
-0.09034714847803116 -1.510918140411377 5.719363689422607 87 87 87
-0.05491138622164726 0.6412315964698792 5.690155029296875 67 67 67
-0.0022994426544755697 1.858221411705017 5.819212913513184 21 21 21
0.04705232381820679 2.6202542781829834 5.626646995544434 92 92 92
0.04647238552570343 2.664578676223755 5.289952278137207 104 104 104
0.05418686196208 -2.113532543182373 5.373518943786621 94 94 94
0.08722401410341263 -1.9704835414886475 5.620055198669434 27 27 27
0.09085863828659058 1.0679566860198975 5.5904107093811035 124 124 124
0.12500664591789246 0.923197329044342 5.613642692565918 92 92 92
0.12263224273920059 0.6354119777679443 5.436101913452148 121 121 121
0.13010089099407196 0.8289724588394165 5.607803821563721 78 78 78
0.15527799725532532 1.332403540611267 5.6242170333862305 113 113 113
0.25659605860710144 0.3124349117279053 5.998229026794434 195 195 195
0.3145507872104645 0.7854974865913391 5.524185657501221 29 29 29
0.3380475640296936 1.1930208206176758 5.4726715087890625 113 113 113
0.3693355321884155 1.0063426494598389 5.4669575691223145 58 58 58
0.4410910904407501 2.1008989810943604 5.538479804992676 24 24 24
0.44641435146331787 2.1105499267578125 5.5209503173828125 84 84 84
0.5002664923667908 0.6617470979690552 5.395045757293701 143 143 143
0.504673421382904 0.8465284705162048 5.344689846038818 71 71 71
0.504673421382904 0.8465284705162048 5.344689846038818 71 71 71
0.6010671854019165 1.9116108417510986 5.365677356719971 2 2 2
0.5970032811164856 0.6584762930870056 5.234935283660889 128 128 128
0.5852040648460388 -2.0994362831115723 5.033201694488525 99 99 99
0.6531332731246948 0.7363997101783752 5.217844486236572 145 145 145
0.7261959910392761 2.5629498958587646 5.381591796875 73 73 73
0.8650066256523132 1.191183090209961 5.148508548736572 22 22 22
0.9280112385749817 2.6677350997924805 5.254648685455322 97 97 97
0.8573399186134338 -2.2172951698303223 4.791777610778809 47 47 47
0.9400335550308228 -1.7884384393692017 5.2101922035217285 165 165 165
0.9257224202156067 1.355713129043579 5.082887649536133 55 55 55
0.9477247595787048 0.6668536067008972 5.173581600189209 114 114 114
0.926998496055603 0.9611644744873047 5.025940895080566 38 38 38
0.9431812167167664 1.7083126306533813 5.111880779266357 115 115 115
0.9979895949363708 0.5839625597000122 5.158374309539795 54 54 54
0.9788916707038879 1.376707911491394 5.015781402587891 21 21 21
1.0002604722976685 1.3844614028930664 5.026938438415527 24 24 24
1.0002604722976685 1.3844614028930664 5.026938438415527 24 24 24
1.0224332809448242 2.2360377311706543 5.123142719268799 92 92 92
1.0350909233093262 2.5024020671844482 5.148046493530273 99 99 99
1.0350909233093262 2.5024020671844482 5.148046493530273 99 99 99
1.0392485857009888 1.4014102220535278 5.041909217834473 20 20 20
1.0460575819015503 1.4382866621017456 5.001080513000488 111 111 111
1.0736677646636963 1.6606649160385132 5.023205757141113 73 73 73
1.0640860795974731 -1.8926191329956055 4.982463359832764 75 75 75
1.0801432132720947 1.9730337858200073 5.045801639556885 9 9 9
1.0805577039718628 1.506534457206726 4.985515594482422 75 75 75
1.1149392127990723 -0.5352264046669006 5.029895782470703 253 253 253
1.1291956901550293 -0.5639000535011292 5.056669235229492 250 250 250
1.113497018814087 1.607610821723938 4.958892345428467 127 127 127
1.1488959789276123 -0.7820510268211365 5.052902698516846 75 75 75
1.1529260873794556 -0.842420756816864 4.998869895935059 40 40 40
1.1663610935211182 1.6787163019180298 5.0528564453125 84 84 84
1.1497219800949097 1.3898122310638428 4.961194038391113 45 45 45
1.1564078330993652 1.8956869840621948 4.959035396575928 114 114 114
1.095966100692749 -2.3969504833221436 4.658791542053223 31 31 31
1.185678243637085 2.253816843032837 5.044623374938965 92 92 92
1.1418465375900269 0.7354255318641663 4.840206623077393 70 70 70
1.1637321710586548 1.2372322082519531 4.909193515777588 60 60 60
1.1869810819625854 2.274050235748291 5.010638236999512 94 94 94
1.2066012620925903 -0.8887941241264343 5.081185340881348 103 103 103
1.1656943559646606 1.5161540508270264 4.908599853515625 65 65 65
1.1818913221359253 1.4152299165725708 4.9192962646484375 26 26 26
1.1959819793701172 2.0667784214019775 4.975499629974365 106 106 106
1.2146751880645752 -0.8487834334373474 5.03678560256958 42 42 42
1.1883066892623901 1.6476279497146606 4.916501998901367 122 122 122
1.2149802446365356 2.2335028648376465 4.988653659820557 31 31 31
1.1934800148010254 1.705834150314331 4.885679721832275 125 125 125
1.2268726825714111 1.9647738933563232 4.938746452331543 108 108 108
1.2206929922103882 1.5713651180267334 4.896693229675293 140 140 140
1.2603310346603394 -1.3313392400741577 5.003391265869141 26 26 26
1.282928705215454 -0.8490227460861206 5.038020610809326 30 30 30
1.2683387994766235 -0.8925432562828064 4.942709922790527 42 42 42
1.1985074281692505 -2.074432134628296 4.658768177032471 61 61 61
1.2865149974822998 -1.3745415210723877 4.9825119972229 31 31 31
1.2647483348846436 1.407688021659851 4.879485130310059 27 27 27
1.2603944540023804 1.329441785812378 4.854060649871826 69 69 69
1.1937165260314941 -2.352029800415039 4.590485095977783 72 72 72
1.2835233211517334 2.001877546310425 4.905505657196045 22 22 22
1.2120046615600586 -2.1355206966400146 4.61738920211792 132 132 132
1.2728660106658936 1.477358102798462 4.8312578201293945 110 110 110
1.2630058526992798 0.7978967428207397 4.786327362060547 42 42 42
1.2782065868377686 1.5935899019241333 4.8537421226501465 76 76 76
1.3057340383529663 2.316537380218506 4.921268463134766 106 106 106
1.2212620973587036 -2.370530128479004 4.554689884185791 132 132 132
1.2996925115585327 1.216494083404541 4.85146951675415 97 97 97
1.2996925115585327 1.216494083404541 4.85146951675415 97 97 97
1.3296395540237427 2.329385280609131 4.93394660949707 49 49 49
1.5611454248428345 -0.30272379517555237 5.588749408721924 172 172 172
1.3572825193405151 1.8311800956726074 4.8195953369140625 103 103 103
1.3790736198425293 1.9353687763214111 4.843091011047363 102 102 102
1.3714373111724854 1.4733282327651978 4.786566734313965 125 125 125
1.3834569454193115 -1.9176639318466187 4.812472343444824 65 65 65
1.3834569454193115 -1.9176639318466187 4.812472343444824 65 65 65
1.471486210823059 0.4806951880455017 5.107945919036865 62 62 62
1.4071582555770874 2.22459077835083 4.8646392822265625 34 34 34
1.3162274360656738 -2.260869026184082 4.529390811920166 135 135 135
1.3937476873397827 1.436292290687561 4.783843994140625 81 81 81
1.4032787084579468 1.5050067901611328 4.75326681137085 121 121 121
1.4246081113815308 0.6705251932144165 4.8154730796813965 25 25 25
1.583532691001892 0.44960176944732666 5.327043533325195 168 168 168
1.7037510871887207 -0.2962089776992798 5.699055194854736 22 22 22
1.361581802368164 -2.2480034828186035 4.535312175750732 75 75 75
1.7024805545806885 -0.37745431065559387 5.661078929901123 13 13 13
1.7024805545806885 -0.37745431065559387 5.661078929901123 13 13 13
1.4537110328674316 2.2240240573883057 4.819061279296875 10 10 10
1.555144190788269 0.49939030408859253 5.093479156494141 69 69 69
1.3861174583435059 -2.0674307346343994 4.529853343963623 114 114 114
1.7448668479919434 -0.34800416231155396 5.658567905426025 229 229 229
1.7616138458251953 -0.6836200952529907 5.685841083526611 29 29 29
1.4886984825134277 2.015780448913574 4.756199359893799 26 26 26
1.8198755979537964 -0.13505516946315765 5.76824951171875 216 216 216
1.8198755979537964 -0.13505516946315765 5.76824951171875 216 216 216
1.4838175773620605 1.0443789958953857 4.6881327629089355 22 22 22
1.4840861558914185 1.5021655559539795 4.690369129180908 66 66 66
1.537502646446228 0.6930234432220459 4.8346076011657715 27 27 27
1.5201845169067383 1.635514497756958 4.71334171295166 34 34 34
1.5108752250671387 1.2392312288284302 4.682247638702393 16 16 16
1.5090481042861938 1.2619991302490234 4.6732401847839355 133 133 133
1.5279123783111572 1.6704119443893433 4.73127555847168 104 104 104
1.5396205186843872 2.249431610107422 4.769790172576904 23 23 23
1.8223609924316406 0.05516790226101875 5.596307277679443 76 76 76
1.791295051574707 -0.26290830969810486 5.478229999542236 57 57 57
1.791295051574707 -0.26290830969810486 5.478229999542236 57 57 57
1.5296030044555664 1.4249054193496704 4.670949935913086 39 39 39
1.562024474143982 2.2448267936706543 4.747124195098877 21 21 21
1.5580049753189087 2.0435373783111572 4.7279052734375 24 24 24
1.5513578653335571 1.4890098571777344 4.656527996063232 96 96 96
1.5589568614959717 1.449824333190918 4.642108917236328 34 34 34
1.564017415046692 1.5515774488449097 4.626540184020996 118 118 118
1.9596340656280518 0.10855337232351303 5.750590801239014 254 254 254
1.5696654319763184 1.0548360347747803 4.59675931930542 42 42 42
1.616586685180664 2.1563305854797363 4.732158184051514 98 98 98
1.9140933752059937 -0.4981016218662262 5.568233489990234 34 34 34
1.5960774421691895 1.434079885482788 4.615086555480957 99 99 99
1.6306101083755493 2.0140538215637207 4.6661763191223145 115 115 115
1.6155641078948975 1.485127568244934 4.61781120300293 65 65 65
1.6418590545654297 2.3746843338012695 4.6981658935546875 84 84 84
1.617334246635437 1.6283156871795654 4.624273777008057 124 124 124
1.6139144897460938 1.4212130308151245 4.610053539276123 100 100 100
1.6139144897460938 1.4212130308151245 4.610053539276123 100 100 100
1.6512295007705688 -1.4314688444137573 4.712120056152344 30 30 30
1.7450571060180664 0.5146691799163818 4.969203948974609 69 69 69
1.8650723695755005 -0.7230913043022156 5.29981803894043 43 43 43
1.8650723695755005 -0.7230913043022156 5.29981803894043 43 43 43
1.61113440990448 1.002926230430603 4.560995101928711 90 90 90
2.0214054584503174 -0.6660276651382446 5.705010414123535 10 10 10
1.6486624479293823 1.7668273448944092 4.621823787689209 122 122 122
1.9408754110336304 -0.296418160200119 5.407494068145752 46 46 46
1.6501113176345825 1.4463454484939575 4.584026336669922 130 130 130
1.6681206226348877 2.0280847549438477 4.631548881530762 128 128 128
1.6608539819717407 1.717283010482788 4.5895233154296875 128 128 128
1.7199560403823853 -1.2155334949493408 4.757840633392334 70 70 70
1.678328275680542 1.8131898641586304 4.6169352531433105 130 130 130
1.9948433637619019 -0.7351924777030945 5.479965686798096 39 39 39
1.7052830457687378 2.243016004562378 4.665258407592773 46 46 46
1.7322818040847778 -1.6440856456756592 4.726665019989014 68 68 68
1.694856882095337 1.8855466842651367 4.609216690063477 139 139 139
1.8017770051956177 0.513586163520813 4.8857102394104 69 69 69
1.6677664518356323 0.8597200512886047 4.502704620361328 54 54 54
1.7181695699691772 2.288940906524658 4.643387794494629 126 126 126
1.7181695699691772 2.288940906524658 4.643387794494629 126 126 126
1.6951216459274292 1.4469302892684937 4.571033477783203 122 122 122
2.024458885192871 0.21710450947284698 5.450636863708496 165 165 165
1.6979819536209106 1.1312894821166992 4.528304576873779 120 120 120
1.6979819536209106 1.1312894821166992 4.528304576873779 120 120 120
1.733849287033081 1.8701581954956055 4.621073246002197 40 40 40
1.743105411529541 2.274949550628662 4.637190341949463 21 21 21
2.0503628253936768 0.029131567105650902 5.4299187660217285 113 113 113
1.777317762374878 -0.8153550624847412 4.681951999664307 32 32 32
1.7261064052581787 1.4870803356170654 4.540524959564209 161 161 161
1.7361133098602295 1.6792091131210327 4.561329364776611 40 40 40
1.736986756324768 1.6211233139038086 4.537603855133057 145 145 145
1.6599267721176147 -2.047820806503296 4.335051536560059 117 117 117
1.7433841228485107 1.860803246498108 4.5538129806518555 24 24 24
1.7465534210205078 1.5303103923797607 4.511106014251709 127 127 127
1.756037950515747 1.3007266521453857 4.527863025665283 16 16 16
1.7726293802261353 1.8367693424224854 4.5494585037231445 125 125 125
1.81687593460083 -0.9030391573905945 4.647424697875977 28 28 28
1.765832781791687 1.3945661783218384 4.497554779052734 47 47 47
2.1117632389068604 -0.782299816608429 5.366393089294434 36 36 36
1.7867708206176758 1.993497610092163 4.528469085693359 117 117 117
1.801743745803833 1.87786066532135 4.534670352935791 28 28 28
1.8207215070724487 -1.9523358345031738 4.568216800689697 28 28 28
1.8063350915908813 1.4318817853927612 4.468776226043701 23 23 23
1.893004059791565 -1.1177129745483398 4.653652667999268 74 74 74
1.8597900867462158 2.295034885406494 4.5482988357543945 21 21 21
1.864687204360962 2.251899003982544 4.543841361999512 97 97 97
1.8771467208862305 2.320049285888672 4.558080673217773 69 69 69
1.9446848630905151 -1.813537836074829 4.679623126983643 72 72 72
1.9475386142730713 -1.4149916172027588 4.643975734710693 34 34 34
1.9450703859329224 -0.9030759930610657 4.60223388671875 33 33 33
