ply
format ascii 1.0
element vertex 204
property float x
property float y
property float z
property uchar red
property uchar green
property uchar blue
end_header
-13.45719051361084 6.178535461425781 27.432201385498047 87 87 87
-13.45719051361084 6.178535461425781 27.432201385498047 87 87 87
-13.131183624267578 8.4901123046875 26.89257049560547 84 84 84
-12.883184432983398 8.324836730957031 26.634153366088867 43 43 43
-12.798954963684082 8.36247444152832 26.7752628326416 102 102 102
-13.524463653564453 7.121582508087158 28.427474975585938 115 115 115
-13.729650497436523 6.457578182220459 29.0406551361084 117 117 117
-13.16504955291748 6.729237079620361 28.086854934692383 60 60 60
-14.67198371887207 3.0038399696350098 31.31231117248535 77 77 77
-12.991992950439453 7.87428092956543 28.212961196899414 41 41 41
-12.991992950439453 7.87428092956543 28.212961196899414 41 41 41
-14.410636901855469 2.1656463146209717 31.40338706970215 108 108 108
-11.847871780395508 10.921845436096191 25.813615798950195 93 93 93
-11.847871780395508 10.921845436096191 25.813615798950195 93 93 93
-11.996363639831543 10.974896430969238 26.24458885192871 40 40 40
-12.688015937805176 7.539256572723389 28.3102970123291 123 123 123
-12.688015937805176 7.539256572723389 28.3102970123291 123 123 123
-14.198616981506348 -3.726142406463623 32.11100769042969 115 115 115
-14.504002571105957 -9.781880378723145 33.2935905456543 95 95 95
-13.21964168548584 3.2426891326904297 30.503515243530273 113 113 113
-13.424642562866211 5.829763889312744 31.00832748413086 16 16 16
-13.424642562866211 5.829763889312744 31.00832748413086 16 16 16
-12.432114601135254 9.68940258026123 28.71164321899414 23 23 23
-12.72813606262207 7.9937424659729 29.578086853027344 118 118 118
-12.464781761169434 6.71553897857666 28.997745513916016 125 125 125
-13.500481605529785 2.9613125324249268 31.508975982666016 59 59 59
-12.849122047424316 6.814974784851074 30.450403213500977 104 104 104
-12.780933380126953 7.373035907745361 30.31016731262207 8 8 8
-12.25137996673584 9.700044631958008 29.097164154052734 26 26 26
-12.784104347229004 6.705567836761475 30.48178482055664 142 142 142
-12.338418006896973 9.768515586853027 31.04888916015625 49 49 49
-12.338418006896973 9.768515586853027 31.04888916015625 49 49 49
-13.057511329650879 -12.131794929504395 33.840232849121094 67 67 67
-13.32589054107666 -8.069878578186035 34.667457580566406 211 211 211
-11.396778106689453 9.113879203796387 30.0976619720459 112 112 112
-12.538712501525879 7.358602523803711 33.2618522644043 133 133 133
-11.335505485534668 11.791481971740723 30.35108757019043 47 47 47
-11.158257484436035 6.708597660064697 30.0189208984375 124 124 124
-11.798356056213379 6.605757713317871 31.92237091064453 43 43 43
-11.862580299377441 6.411853313446045 32.14194107055664 118 118 118
-11.662788391113281 9.710739135742188 31.63556480407715 60 60 60
-11.900285720825195 2.840702533721924 32.3798713684082 60 60 60
-11.987160682678223 7.974523544311523 32.655216217041016 106 106 106
-10.870774269104004 11.619033813476562 29.5792179107666 104 104 104
-12.067070007324219 1.2327218055725098 33.2751579284668 219 219 219
-11.453470230102539 3.367368698120117 31.68279266357422 64 64 64
-10.75 7.961503982543945 29.772138595581055 48 48 48
-11.51195240020752 7.812356948852539 32.028656005859375 42 42 42
-11.51195240020752 7.812356948852539 32.028656005859375 42 42 42
-11.439189910888672 6.823534965515137 31.96245765686035 118 118 118
-11.562315940856934 8.844066619873047 32.486812591552734 49 49 49
-11.097193717956543 8.696395874023438 31.15790367126465 40 40 40
-11.174803733825684 6.926414489746094 32.36040115356445 118 118 118
-11.17189884185791 10.160799026489258 32.482730865478516 21 21 21
-12.032145500183105 -12.073055267333984 35.44142532348633 94 94 94
-11.177959442138672 7.336272239685059 33.827213287353516 57 57 57
-10.785225868225098 2.7624101638793945 32.77632141113281 55 55 55
-10.173830032348633 8.452794075012207 31.00062370300293 56 56 56
-10.416776657104492 6.809317588806152 32.560184478759766 100 100 100
-10.013118743896484 3.598310708999634 32.83714294433594 71 71 71
-10.198493003845215 5.572615146636963 33.62117385864258 20 20 20
-11.25271224975586 -8.891448020935059 37.18476104736328 221 221 221
-10.067031860351562 3.115600109100342 33.32614517211914 140 140 140
-9.754819869995117 3.989783763885498 33.260589599609375 175 175 175
-9.754819869995117 3.989783763885498 33.260589599609375 175 175 175
-9.989953994750977 11.993827819824219 34.07120132446289 16 16 16
-9.761249542236328 5.164922714233398 33.7871208190918 111 111 111
-9.685083389282227 4.576694011688232 33.65908432006836 105 105 105
-9.196308135986328 11.651196479797363 32.9766731262207 97 97 97
-9.514389991760254 -12.004802703857422 35.268062591552734 94 94 94
-9.514389991760254 -12.004802703857422 35.268062591552734 94 94 94
-8.608638763427734 10.937307357788086 32.15702819824219 30 30 30
-9.591150283813477 -10.188538551330566 37.193458557128906 42 42 42
-8.601483345031738 10.330855369567871 34.41743469238281 90 90 90
-7.982720851898193 10.54665470123291 32.26710510253906 108 108 108
-8.30908489227295 5.448992729187012 35.576141357421875 19 19 19
-7.189672470092773 10.688925743103027 31.12674903869629 16 16 16
-8.373361587524414 8.364582061767578 36.557151794433594 87 87 87
-8.313419342041016 1.3419560194015503 36.323097229003906 47 47 47
-8.39111328125 -9.75622844696045 36.8322639465332 22 22 22
-8.64239501953125 -7.174859046936035 37.99348831176758 106 106 106
-8.188821792602539 -8.53763484954834 37.015480041503906 117 117 117
-8.200021743774414 10.501317024230957 37.11270523071289 66 66 66
-7.423876762390137 13.628995895385742 33.49518966674805 110 110 110
-8.21153450012207 -7.436249732971191 37.298797607421875 132 132 132
-7.665400505065918 2.9509940147399902 36.06650924682617 125 125 125
-7.811805248260498 3.4711813926696777 36.899024963378906 104 104 104
-7.650169849395752 -8.302715301513672 36.30394744873047 124 124 124
-7.8222551345825195 2.718578577041626 37.215187072753906 99 99 99
-8.079316139221191 -2.8638267517089844 38.8603401184082 147 147 147
-7.328199863433838 12.947271347045898 36.038795471191406 16 16 16
-7.548656940460205 -3.4685745239257812 37.59580612182617 133 133 133
-7.441412925720215 -3.202643871307373 38.35591506958008 113 113 113
-7.147645950317383 -5.3114142417907715 37.004791259765625 152 152 152
-6.792270660400391 12.819049835205078 35.2154541015625 80 80 80
-6.848093032836914 1.2244898080825806 36.92384719848633 108 108 108
-6.068948268890381 -13.835772514343262 33.455657958984375 77 77 77
-6.130511283874512 1.9979695081710815 36.28688049316406 64 64 64
-6.130511283874512 1.9979695081710815 36.28688049316406 64 64 64
-5.894649028778076 2.4879324436187744 36.206172943115234 143 143 143
-5.74711275100708 0.8228689432144165 35.59632873535156 85 85 85
-5.523244380950928 0.513338565826416 35.97639465332031 165 165 165
-4.108052730560303 16.054363250732422 27.266021728515625 60 60 60
-5.196582317352295 2.189138650894165 35.887916564941406 116 116 116
-5.196582317352295 2.189138650894165 35.887916564941406 116 116 116
-4.0188307762146 -8.630638122558594 32.28227233886719 41 41 41
-4.25220251083374 8.632052421569824 35.002586364746094 12 12 12
-3.6792821884155273 -10.115063667297363 30.542036056518555 152 152 152
-3.6259984970092773 -10.25064468383789 31.660602569580078 142 142 142
-3.5980350971221924 -8.147093772888184 31.910415649414062 147 147 147
-3.633270502090454 -6.179964065551758 32.63936233520508 148 148 148
-3.8922033309936523 -2.1244869232177734 35.10277557373047 108 108 108
-3.882944345474243 2.145909547805786 35.25690841674805 95 95 95
-3.811391830444336 -0.038529448211193085 34.64984893798828 94 94 94
-3.742475986480713 6.2051897048950195 34.789119720458984 102 102 102
-3.349114418029785 -9.093823432922363 31.26543617248535 121 121 121
-3.2882721424102783 -5.593610763549805 31.428556442260742 126 126 126
-3.2426841259002686 -9.866110801696777 31.85724639892578 40 40 40
-3.206836700439453 -7.631499290466309 31.666324615478516 27 27 27
-3.51025128364563 10.729365348815918 34.62628173828125 82 82 82
-3.442756175994873 9.884468078613281 34.366451263427734 21 21 21
-3.2287814617156982 -6.7066216468811035 32.39335250854492 28 28 28
-2.7395074367523193 -9.974318504333496 31.27495765686035 88 88 88
-2.897132635116577 -6.788187026977539 33.058895111083984 32 32 32
-2.7000772953033447 -3.532508611679077 30.615692138671875 66 66 66
-3.295384645462036 -2.4179768562316895 38.8156852722168 59 59 59
-2.9668638706207275 2.093710422515869 34.91950225830078 41 41 41
-2.9539029598236084 4.224563121795654 34.894866943359375 42 42 42
-2.9762332439422607 6.497522354125977 35.70750427246094 43 43 43
-2.931119680404663 8.68017578125 35.503211975097656 43 43 43
-2.3296289443969727 -13.56215763092041 28.279603958129883 121 121 121
-2.41125750541687 -10.588476181030273 31.600051879882812 20 20 20
-2.4876046180725098 -4.602294445037842 32.672706604003906 35 35 35
-2.456167459487915 -5.6075520515441895 32.35679626464844 44 44 44
-2.206010341644287 -10.731363296508789 29.604665756225586 129 129 129
-2.2481610774993896 -9.922942161560059 31.521020889282227 32 32 32
-2.0581600666046143 -14.17587947845459 29.270597457885742 140 140 140
-2.285451889038086 -4.797079563140869 34.87421798706055 152 152 152
-2.0598886013031006 -9.755104064941406 31.56100082397461 161 161 161
-1.6219111680984497 -13.602352142333984 27.646638870239258 142 142 142
-1.6412619352340698 -9.896934509277344 32.05587387084961 33 33 33
-1.362414836883545 -13.636610984802246 27.057043075561523 3 3 3
-1.3317104578018188 -14.699663162231445 26.686601638793945 93 93 93
-1.7801761627197266 15.123536109924316 36.1517333984375 90 90 90
-1.5137240886688232 -9.383431434631348 31.63343620300293 175 175 175
-1.2758554220199585 -9.343099594116211 31.354251861572266 35 35 35
-0.9394710063934326 -10.63869571685791 28.190462112426758 144 144 144
-0.5640678405761719 -12.86530590057373 24.781110763549805 48 48 48
-0.42182785272598267 -10.641193389892578 28.351118087768555 50 50 50
-0.17691819369792938 17.754606246948242 30.019500732421875 158 158 158
-0.17691819369792938 17.754606246948242 30.019500732421875 158 158 158
-0.172982320189476 17.93555450439453 29.3770809173584 172 172 172
0.39413395524024963 18.11087417602539 29.806882858276367 158 158 158
0.7680498957633972 -9.881991386413574 25.865049362182617 35 35 35
1.046737790107727 18.331790924072266 29.468536376953125 70 70 70
1.0945321321487427 18.55337142944336 29.31162452697754 98 98 98
0.9160556793212891 -12.093524932861328 24.427566528320312 135 135 135
1.162561058998108 -13.107867240905762 22.922218322753906 130 130 130
1.2135417461395264 -12.623841285705566 22.42870330810547 33 33 33
1.5310035943984985 -9.778335571289062 23.401737213134766 150 150 150
1.491294503211975 -13.370652198791504 21.669235229492188 41 41 41
1.491294503211975 -13.370652198791504 21.669235229492188 41 41 41
1.7784721851348877 -12.079452514648438 22.9166316986084 130 130 130
2.1285953521728516 -12.463356018066406 21.098695755004883 21 21 21
2.3750979900360107 -9.609790802001953 22.59172248840332 143 143 143
3.364928960800171 -4.205724239349365 29.903606414794922 40 40 40
3.364928960800171 -4.205724239349365 29.903606414794922 40 40 40
3.3822054862976074 -4.749660491943359 29.52766227722168 45 45 45
3.3822054862976074 -4.749660491943359 29.52766227722168 45 45 45
3.4241340160369873 -4.631672382354736 29.722734451293945 158 158 158
3.502319812774658 -4.493763446807861 30.086650848388672 30 30 30
3.502319812774658 -4.493763446807861 30.086650848388672 30 30 30
2.524152994155884 -8.92707347869873 21.627471923828125 36 36 36
3.5573947429656982 -4.268395900726318 29.20524787902832 155 155 155
3.735565662384033 -3.670088529586792 29.722135543823242 169 169 169
2.709908962249756 -11.559803009033203 21.495494842529297 127 127 127
3.70810604095459 -4.620981693267822 29.00066375732422 30 30 30
3.783372640609741 -4.174622058868408 29.529367446899414 57 57 57
3.783372640609741 -4.174622058868408 29.529367446899414 57 57 57
3.926480531692505 -4.358988285064697 28.72153091430664 36 36 36
3.926480531692505 -4.358988285064697 28.72153091430664 36 36 36
3.9756829738616943 -4.416331768035889 29.03748321533203 36 36 36
3.9756829738616943 -4.416331768035889 29.03748321533203 36 36 36
4.090482234954834 -4.560851097106934 29.621034622192383 36 36 36
4.093760013580322 -4.743621349334717 29.034343719482422 38 38 38
4.02186393737793 -4.22737979888916 28.4365291595459 157 157 157
2.9036386013031006 -11.451888084411621 20.230209350585938 64 64 64
4.19318151473999 -4.6774492263793945 28.590885162353516 61 61 61
4.604867935180664 0.7605671882629395 30.466169357299805 173 173 173
2.9925220012664795 -11.317838668823242 19.856170654296875 29 29 29
3.187838554382324 -11.631205558776855 20.74666404724121 116 116 116
3.2316224575042725 -9.19914722442627 20.203237533569336 125 125 125
3.2693493366241455 -10.816606521606445 18.82244873046875 99 99 99
5.436713695526123 1.1293456554412842 29.499229431152344 137 137 137
3.6025078296661377 -8.523290634155273 19.354446411132812 33 33 33
3.6025078296661377 -8.523290634155273 19.354446411132812 33 33 33
5.089303493499756 3.5258243083953857 25.77876853942871 58 58 58
4.657857418060303 -2.9822754859924316 23.35318946838379 105 105 105
4.592986583709717 -4.700530529022217 22.869516372680664 108 108 108
4.306863307952881 -6.441231727600098 21.312847137451172 129 129 129
4.715922832489014 -3.795945405960083 22.795976638793945 34 34 34
4.699975967407227 -4.835140228271484 22.56954002380371 30 30 30
4.699975967407227 -4.835140228271484 22.56954002380371 30 30 30
4.173023223876953 -8.4519681930542 19.983823776245117 134 134 134
