ply
format ascii 1.0
element vertex 54
property float x
property float y
property float z
property uchar red
property uchar green
property uchar blue
end_header
-2.4219186305999756 -1.1397860050201416 5.091800689697266 26 26 26
-2.41186261177063 -0.5890651345252991 5.129392623901367 75 75 75
-2.386014699935913 -0.7997623085975647 5.095171928405762 137 137 137
-2.386014699935913 -0.7997623085975647 5.095171928405762 137 137 137
-2.202533006668091 0.7349806427955627 4.738073348999023 70 70 70
-2.2416772842407227 0.5926715135574341 4.892041206359863 15 15 15
-2.333159923553467 0.1546405553817749 5.105360507965088 59 59 59
-2.2401280403137207 0.42671817541122437 5.035685062408447 83 83 83
-2.547423839569092 -1.0103029012680054 6.2196574211120605 43 43 43
-2.382474899291992 -0.631081759929657 6.015138149261475 27 27 27
-2.360593318939209 -0.26832202076911926 6.0187859535217285 29 29 29
-2.360593318939209 -0.26832202076911926 6.0187859535217285 29 29 29
-2.257495164871216 0.3377688527107239 5.780431270599365 85 85 85
-2.403918743133545 -1.0951106548309326 6.188158988952637 24 24 24
-2.311171770095825 0.2773371636867523 5.997077465057373 30 30 30
-2.315469264984131 -0.06937680393457413 6.833718776702881 31 31 31
-2.416431427001953 -1.2378987073898315 7.363057613372803 41 41 41
-2.4005303382873535 -0.8211474418640137 7.608085632324219 233 233 233
-1.80157470703125 -1.7861607074737549 6.129907131195068 58 58 58
-2.324568510055542 -0.7451035380363464 7.933874607086182 43 43 43
-2.3374741077423096 -0.540537416934967 8.005582809448242 131 131 131
-2.3279004096984863 -0.609972357749939 8.012146949768066 45 45 45
-2.2839159965515137 -0.6986768245697021 8.038134574890137 144 144 144
-2.0458548069000244 -1.4059895277023315 7.414464473724365 153 153 153
-2.1583244800567627 -0.6845451593399048 8.075977325439453 30 30 30
-2.1583244800567627 -0.6845451593399048 8.075977325439453 30 30 30
-2.127931594848633 -0.5937538146972656 8.009566307067871 156 156 156
-2.127931594848633 -0.5937538146972656 8.009566307067871 156 156 156
-2.077824592590332 -0.3361046612262726 7.942920684814453 85 85 85
-2.0894429683685303 -0.6990898847579956 8.027597427368164 158 158 158
-2.011970043182373 -0.6234452128410339 7.992785930633545 20 20 20
-1.993467926979065 -0.5243313908576965 7.953409194946289 20 20 20
-1.9398579597473145 -0.588297426700592 7.959012985229492 66 66 66
-1.9417279958724976 -0.505279004573822 7.971892833709717 44 44 44
-1.7181780338287354 -0.33133465051651 7.567314147949219 124 124 124
-0.8835729360580444 0.06787502020597458 4.970001220703125 35 35 35
-0.7942826747894287 0.05559651553630829 5.00676155090332 4 4 4
-0.7942826747894287 0.05559651553630829 5.00676155090332 4 4 4
-0.7450147271156311 0.8114591240882874 4.879561901092529 20 20 20
-0.6554808616638184 0.8492972254753113 4.908000469207764 43 43 43
-0.6275911331176758 0.8752797842025757 4.861390590667725 17 17 17
0.410556435585022 0.5214685797691345 2.486952304840088 28 28 28
0.4259074032306671 0.5199733376502991 2.4917688369750977 30 30 30
0.4281758666038513 -0.658610999584198 2.4141640663146973 32 32 32
0.47439348697662354 -0.7366624474525452 2.4213714599609375 76 76 76
0.47855108976364136 -0.4958302974700928 2.44026255607605 63 63 63
0.4838809669017792 -0.22777359187602997 2.4551661014556885 65 65 65
0.4891192615032196 -0.5251454710960388 2.4416120052337646 32 32 32
0.4976089298725128 -0.12217439711093903 2.475109815597534 22 22 22
0.49913787841796875 0.01385022047907114 2.4819653034210205 140 140 140
0.5083895921707153 0.26411643624305725 2.5027740001678467 42 42 42
0.5153620839118958 0.28037703037261963 2.5033507347106934 81 81 81
0.5178736448287964 0.3931609094142914 2.51544451713562 25 25 25
0.5178736448287964 0.3931609094142914 2.51544451713562 25 25 25
