ply
format ascii 1.0
element vertex 73
property float x
property float y
property float z
property uchar red
property uchar green
property uchar blue
end_header
-0.8533583879470825 0.4046971797943115 1.8073756694793701 32 32 32
-0.8017385601997375 0.38155439496040344 1.831283450126648 99 99 99
-0.7919325232505798 0.2127043455839157 1.8247982263565063 115 115 115
-0.7886504530906677 0.22570565342903137 1.8276091814041138 135 135 135
-0.7886504530906677 0.22570565342903137 1.8276091814041138 135 135 135
-0.6974958181381226 -0.6367820501327515 1.7960253953933716 103 103 103
-0.6837022304534912 0.5040373206138611 1.8985244035720825 106 106 106
-0.6775757670402527 0.43532437086105347 1.8996244668960571 120 120 120
-0.6610704064369202 0.4147379696369171 1.91269850730896 107 107 107
-0.6151484847068787 -0.7366840839385986 1.8382928371429443 124 124 124
-0.6146253347396851 -0.6866629123687744 1.8435901403427124 135 135 135
-0.6397060751914978 0.48278287053108215 1.9205710887908936 72 72 72
-0.6298367977142334 0.47437363862991333 1.9327781200408936 71 71 71
-0.7284659147262573 0.02709043398499489 2.2388551235198975 107 107 107
-0.5867372155189514 -0.6847662329673767 1.8545372486114502 133 133 133
-0.6126482486724854 0.5522395968437195 1.9427701234817505 110 110 110
-0.6048358082771301 0.4333916902542114 1.9310078620910645 153 153 153
-0.5814022421836853 -0.6802786588668823 1.8601655960083008 136 136 136
-0.5942671895027161 0.493125319480896 1.94070565700531 115 115 115
-0.6880025267601013 0.044633544981479645 2.252551317214966 254 254 254
-0.5826228260993958 0.7854677438735962 1.9597008228302002 92 92 92
-0.5716301798820496 0.4548138678073883 1.9518336057662964 3 3 3
-0.5716301798820496 0.4548138678073883 1.9518336057662964 3 3 3
-0.6509624123573303 0.04205124080181122 2.276336669921875 143 143 143
-0.6509624123573303 0.04205124080181122 2.276336669921875 143 143 143
-0.5675487518310547 0.19275741279125214 2.001147985458374 104 104 104
-0.5441752076148987 0.5496228337287903 1.9783722162246704 94 94 94
-0.5399781465530396 0.42058271169662476 1.974642276763916 120 120 120
-0.5429255962371826 -0.5821448564529419 2.025114059448242 18 18 18
-0.5107060074806213 0.3370276987552643 1.982184648513794 28 28 28
-0.5079621076583862 -0.5690263509750366 1.986833930015564 18 18 18
-0.4898245930671692 0.40865060687065125 1.9987329244613647 164 164 164
-0.4864458739757538 0.2778227925300598 1.989438533782959 40 40 40
-0.4828539490699768 0.42824786901474 2.004788875579834 133 133 133
-0.48779478669166565 0.7755848169326782 2.033957004547119 35 35 35
-0.47958454489707947 0.5641965270042419 2.0177764892578125 99 99 99
-0.4685887396335602 0.6016445159912109 2.022172689437866 101 101 101
-0.4649735987186432 0.36476871371269226 2.010647773742676 51 51 51
-0.4628298282623291 0.5600767135620117 2.023796319961548 111 111 111
-0.4551178514957428 0.3799353539943695 2.013617992401123 107 107 107
-0.4358857274055481 0.34163373708724976 2.029489517211914 16 16 16
-0.40903177857398987 0.37903106212615967 2.038198232650757 46 46 46
-0.4086303412914276 0.5492596626281738 2.0515968799591064 131 131 131
-0.4048704206943512 -0.5716386437416077 2.032405138015747 24 24 24
-0.374318391084671 -0.6407792568206787 1.952568769454956 122 122 122
-0.3815622627735138 0.4218943119049072 2.0523576736450195 125 125 125
-0.37037181854248047 0.4106799364089966 2.060633897781372 101 101 101
-0.32081449031829834 -0.6545979976654053 2.003965377807617 138 138 138
-0.3019997775554657 0.48754167556762695 2.101189374923706 128 128 128
-0.3011154532432556 0.5847075581550598 2.1072733402252197 107 107 107
-0.2972274720668793 0.4227246046066284 2.101618528366089 141 141 141
-0.29165029525756836 0.4033145010471344 2.103421926498413 137 137 137
-0.28970372676849365 0.26055973768234253 2.1006252765655518 47 47 47
-0.2858552932739258 0.5993657112121582 2.11893367767334 62 62 62
-0.2808159589767456 0.42639070749282837 2.100735664367676 133 133 133
-0.27945637702941895 0.47439754009246826 2.1145124435424805 102 102 102
-0.26598072052001953 0.5190948247909546 2.1207032203674316 119 119 119
-0.2651185691356659 0.47365307807922363 2.1200692653656006 46 46 46
-0.26230350136756897 0.54395991563797 2.125279664993286 40 40 40
-0.23832017183303833 0.4170861542224884 2.1302542686462402 122 122 122
-0.21840131282806396 0.3812597393989563 2.143160581588745 38 38 38
-0.2126043289899826 0.4299226403236389 2.147542715072632 57 57 57
-0.19528721272945404 -0.6863276958465576 2.0811033248901367 90 90 90
-0.13367584347724915 0.23546111583709717 2.1702163219451904 179 179 179
-0.13313540816307068 0.2911186218261719 2.1792993545532227 52 52 52
-0.12796343863010406 0.30672553181648254 2.1816956996917725 99 99 99
-0.09421335905790329 0.4032931327819824 2.202031135559082 95 95 95
-0.05383486673235893 0.6886962056159973 2.0709829330444336 102 102 102
-0.05315360426902771 0.6080325841903687 2.114550828933716 59 59 59
-0.05145285278558731 0.4547622501850128 2.234677791595459 83 83 83
-0.016655096784234047 0.3250417411327362 2.247819185256958 20 20 20
0.10994838178157806 0.23233094811439514 1.0626944303512573 23 23 23
0.3176581859588623 -0.5853562951087952 1.8451498746871948 149 149 149
