ply
format ascii 1.0
element vertex 66
property float x
property float y
property float z
property uchar red
property uchar green
property uchar blue
end_header
-0.31157559156417847 0.8729001879692078 2.085139274597168 28 28 28
-0.23030488193035126 0.47059640288352966 2.117239475250244 7 7 7
-0.22490635514259338 -0.18425065279006958 2.0976006984710693 134 134 134
-0.22591884434223175 0.5306669473648071 2.1227304935455322 132 132 132
-0.2256288379430771 0.5234588980674744 2.1231658458709717 20 20 20
-0.21545881032943726 -0.20464013516902924 2.1115589141845703 150 150 150
-0.19119739532470703 0.35148510336875916 2.2000937461853027 123 123 123
-0.12660148739814758 0.15027807652950287 2.3038008213043213 179 179 179
-0.10659928619861603 0.1818351447582245 2.3419971466064453 110 110 110
-0.08123437315225601 -0.4889894723892212 2.368443250656128 108 108 108
-0.07542072236537933 -0.7447477579116821 2.3296639919281006 46 46 46
-0.05737663432955742 -0.0395437628030777 2.431056261062622 119 119 119
-0.05577492713928223 0.6157788038253784 2.4526870250701904 18 18 18
-0.004283376503735781 -0.6250254511833191 2.428276777267456 26 26 26
0.07579004019498825 0.2068714201450348 2.375706434249878 99 99 99
0.08421321958303452 0.26064199209213257 2.3880558013916016 67 67 67
0.14266808331012726 0.24529965221881866 2.3841073513031006 72 72 72
0.14840403199195862 0.3394617438316345 2.386739492416382 102 102 102
0.19646769762039185 0.36418840289115906 2.3707683086395264 94 94 94
0.21710282564163208 -0.6689942479133606 2.194739580154419 96 96 96
0.2603776752948761 0.22183457016944885 2.3243298530578613 140 140 140
0.27551454305648804 -0.7055736184120178 2.1337921619415283 92 92 92
0.36941611766815186 0.16704046726226807 2.3455958366394043 59 59 59
0.4145628809928894 0.4373968839645386 2.2708516120910645 109 109 109
0.4305925667285919 0.7812685966491699 2.292081594467163 96 96 96
0.4493935704231262 0.4207953214645386 2.2683591842651367 37 37 37
0.43714943528175354 -0.6223548650741577 2.151299238204956 63 63 63
0.43714943528175354 -0.6223548650741577 2.151299238204956 63 63 63
0.46410638093948364 0.5853859782218933 2.2601490020751953 110 110 110
0.46052584052085876 0.45553353428840637 2.236886739730835 67 67 67
0.4638330340385437 0.4255412220954895 2.246335983276367 54 54 54
0.47021469473838806 0.5045000314712524 2.255319356918335 120 120 120
0.47340622544288635 0.37173447012901306 2.2390220165252686 75 75 75
0.48004937171936035 0.4767419695854187 2.2467095851898193 158 158 158
0.47874677181243896 0.22257941961288452 2.2307868003845215 59 59 59
0.4885943830013275 0.3136686086654663 2.23138165473938 39 39 39
0.4885943830013275 0.3136686086654663 2.23138165473938 39 39 39
0.5554217100143433 -0.25615760684013367 2.5178208351135254 50 50 50
0.4976959824562073 0.4445543885231018 2.2319796085357666 137 137 137
0.5020939707756042 0.4829205870628357 2.237128973007202 82 82 82
0.5105010867118835 0.6132136583328247 2.240541458129883 16 16 16
0.5881683230400085 -0.17419421672821045 2.575472831726074 191 191 191
0.5881683230400085 -0.17419421672821045 2.575472831726074 191 191 191
0.5881683230400085 -0.17419421672821045 2.575472831726074 191 191 191
0.598641574382782 -0.12620572745800018 2.571025848388672 65 65 65
0.5419958233833313 0.5889785289764404 2.2288098335266113 104 104 104
0.5433153510093689 0.44903695583343506 2.2146241664886475 120 120 120
0.6057083606719971 -0.27785226702690125 2.4187257289886475 36 36 36
0.6057083606719971 -0.27785226702690125 2.4187257289886475 36 36 36
0.5613002777099609 0.4399295747280121 2.2079720497131348 132 132 132
0.5633941292762756 0.3677830100059509 2.2078158855438232 22 22 22
0.5738679766654968 0.44695383310317993 2.2011916637420654 63 63 63
0.5768627524375916 0.3673308193683624 2.2015435695648193 113 113 113
0.5768627524375916 0.3673308193683624 2.2015435695648193 113 113 113
0.5871294140815735 0.41959312558174133 2.1982922554016113 44 44 44
0.5966559052467346 0.4391421973705292 2.1908535957336426 163 163 163
0.5953330993652344 0.29531294107437134 2.1775963306427 55 55 55
0.6121094822883606 0.42202264070510864 2.189426898956299 98 98 98
0.6121094822883606 0.42202264070510864 2.189426898956299 98 98 98
0.6178945302963257 0.43443989753723145 2.1812310218811035 86 86 86
0.6288567781448364 0.2319456785917282 2.1728107929229736 60 60 60
0.635720431804657 0.5265743732452393 2.1797664165496826 122 122 122
0.6421274542808533 0.31586727499961853 2.1602365970611572 79 79 79
0.6661390066146851 0.477107971906662 2.162095308303833 145 145 145
0.6681135892868042 0.4470469057559967 2.157834053039551 117 117 117
0.681799590587616 0.3994637131690979 2.1549909114837646 115 115 115
