ply
format ascii 1.0
element vertex 151
property float x
property float y
property float z
property uchar red
property uchar green
property uchar blue
end_header
-0.9774529933929443 0.4596191644668579 2.33736515045166 53 53 53
-0.9621305465698242 0.32140055298805237 2.3270695209503174 12 12 12
-0.9732871651649475 0.7398412227630615 2.3765571117401123 123 123 123
-0.8799502849578857 -0.7350135445594788 2.2009947299957275 32 32 32
-0.9253427982330322 0.19096501171588898 2.3214781284332275 52 52 52
-0.9093456268310547 -0.07770390063524246 2.2919418811798096 20 20 20
-0.9146047234535217 0.1878892183303833 2.333679676055908 24 24 24
-0.9067385196685791 0.06189081445336342 2.3174145221710205 43 43 43
-0.9192647933959961 0.4081461727619171 2.3532228469848633 121 121 121
-0.9379458427429199 1.0999412536621094 2.4534378051757812 121 121 121
-0.8151182532310486 -1.2348518371582031 2.15036940574646 117 117 117
-0.8122091293334961 -1.23184072971344 2.1474602222442627 118 118 118
-0.8774129748344421 -0.07312043011188507 2.3228302001953125 28 28 28
-0.8920928239822388 0.3252701759338379 2.362987518310547 2 2 2
-0.8311939835548401 -0.7553704380989075 2.216470718383789 127 127 127
-0.8860940337181091 0.4544772207736969 2.391176223754883 129 129 129
-0.8534470796585083 0.055098410695791245 2.3451483249664307 34 34 34
-0.8176984190940857 -0.37169137597084045 2.2866039276123047 112 112 112
-0.8349635601043701 -0.07712283730506897 2.3375425338745117 53 53 53
-0.7853209972381592 -1.0136040449142456 2.20196270942688 82 82 82
-0.8063784837722778 -0.3546995222568512 2.29056453704834 106 106 106
-0.7772937417030334 -1.0078332424163818 2.2147879600524902 17 17 17
-0.7954451441764832 -0.48920825123786926 2.2785379886627197 120 120 120
-0.7597177624702454 -1.1192264556884766 2.2032337188720703 102 102 102
-0.7569499015808105 -1.0061122179031372 2.2280263900756836 31 31 31
-0.801120936870575 0.06400342285633087 2.3692665100097656 131 131 131
-0.7296006083488464 -1.2541911602020264 2.192220449447632 97 97 97
-0.763134777545929 -0.48224323987960815 2.3037562370300293 29 29 29
-0.7641376256942749 0.03914835304021835 2.3971455097198486 19 19 19
-0.7591546773910522 0.18960049748420715 2.4213900566101074 140 140 140
-0.6882658004760742 -1.2921063899993896 2.2099826335906982 103 103 103
-0.6954930424690247 -0.8334014415740967 2.269953966140747 109 109 109
-0.6889635920524597 -1.0198323726654053 2.2533557415008545 100 100 100
-0.6886777281761169 -0.8734008073806763 2.271981954574585 31 31 31
-0.7489793300628662 0.5616791844367981 2.480043649673462 75 75 75
-0.7529118061065674 0.7223191857337952 2.5015337467193604 103 103 103
-0.7287656664848328 0.2810699939727783 2.4442267417907715 120 120 120
-0.7205204367637634 0.7229037284851074 2.5187227725982666 51 51 51
-0.6352285742759705 -1.2576087713241577 2.2508809566497803 87 87 87
-0.632218599319458 -1.1470770835876465 2.2652249336242676 30 30 30
-0.7200769782066345 1.2044923305511475 2.592757225036621 19 19 19
-0.6113855838775635 -1.2739524841308594 2.2522194385528564 23 23 23
-0.6167095899581909 -1.1497676372528076 2.280576229095459 28 28 28
-0.6160606741905212 -1.1490944623947144 2.2797858715057373 28 28 28
-0.6749057769775391 1.0733332633972168 2.597771167755127 105 105 105
-0.6045865416526794 -0.6326075792312622 2.3711414337158203 26 26 26
-0.5887724161148071 -0.745296835899353 2.355264902114868 104 104 104
-0.588839590549469 -0.642570972442627 2.375741958618164 115 115 115
-0.5834240913391113 -0.7269436717033386 2.353808879852295 115 115 115
-0.5684250593185425 -1.0150221586227417 2.318061590194702 43 43 43
-0.585581362247467 -0.377390056848526 2.422257661819458 97 97 97
-0.585581362247467 -0.377390056848526 2.422257661819458 97 97 97
-0.5548743009567261 -1.1491223573684692 2.303096055984497 42 42 42
-0.5548743009567261 -1.1491223573684692 2.303096055984497 42 42 42
-0.5851104259490967 -0.22791419923305511 2.4415953159332275 48 48 48
-0.5950950980186462 0.4547944962978363 2.53564715385437 124 124 124
-0.5766732692718506 -0.10272049903869629 2.4775710105895996 32 32 32
-0.5339563488960266 -1.1523730754852295 2.3158652782440186 24 24 24
-0.5666075348854065 -0.11831942200660706 2.4669742584228516 110 110 110
-0.5334572792053223 -0.8664904832839966 2.3655002117156982 60 60 60
-0.5189319252967834 -1.1623479127883911 2.316789150238037 105 105 105
-0.578072190284729 0.6938942074775696 2.5809309482574463 56 56 56
-0.5684900879859924 1.0540344715118408 2.656334638595581 18 18 18
-0.49136245250701904 -1.1493773460388184 2.3301451206207275 37 37 37
-0.5476689338684082 0.9286198019981384 2.6441502571105957 94 94 94
-0.4915224611759186 -0.7634759545326233 2.3983614444732666 46 46 46
-0.503587543964386 0.02324862964451313 2.5277862548828125 65 65 65
-0.503587543964386 0.02324862964451313 2.5277862548828125 65 65 65
-0.4582340121269226 -1.2745201587677002 2.3376827239990234 97 97 97
-0.4512788653373718 -1.1569148302078247 2.3585569858551025 31 31 31
-0.44666367769241333 -1.2954672574996948 2.348414182662964 27 27 27
-0.44926124811172485 -1.1443290710449219 2.3665950298309326 86 86 86
-0.45029833912849426 -0.8948463797569275 2.405928134918213 70 70 70
-0.4807392656803131 0.29230427742004395 2.575589179992676 182 182 182
-0.4807392656803131 0.29230427742004395 2.575589179992676 182 182 182
-0.45137348771095276 -0.506677508354187 2.4718809127807617 60 60 60
-0.4744376838207245 0.4538971781730652 2.6025381088256836 53 53 53
-0.46109914779663086 0.01958812214434147 2.549776554107666 39 39 39
-0.44911566376686096 -0.09577041119337082 2.53536057472229 139 139 139
-0.416570246219635 -1.199130654335022 2.3695731163024902 60 60 60
-0.41205090284347534 -1.1313514709472656 2.3813650608062744 108 108 108
-0.43413180112838745 -0.26598402857780457 2.518986701965332 20 20 20
-0.44048264622688293 0.030298499390482903 2.5610198974609375 142 142 142
-0.44455865025520325 0.23436178267002106 2.591669797897339 163 163 163
-0.44791489839553833 0.5713422894477844 2.6461191177368164 99 99 99
-0.39879506826400757 -1.35267972946167 2.355656147003174 124 124 124
-0.41464731097221375 -0.1136086955666542 2.5478155612945557 53 53 53
-0.37533095479011536 -1.1340901851654053 2.4000496864318848 117 117 117
-0.3406126797199249 -1.3237569332122803 2.395162343978882 104 104 104
-0.372567743062973 0.6188761591911316 2.680145025253296 92 92 92
-0.332976758480072 -1.17460298538208 2.418440818786621 101 101 101
-0.33396369218826294 -1.1386781930923462 2.4302453994750977 112 112 112
-0.32074376940727234 -1.3145012855529785 2.4090545177459717 114 114 114
-0.3455241322517395 0.24427174031734467 2.633746385574341 61 61 61
-0.31837353110313416 -1.1290600299835205 2.435445785522461 71 71 71
-0.35519734025001526 0.7745636105537415 2.730713367462158 18 18 18
-0.3134034276008606 -1.2743518352508545 2.4214658737182617 104 104 104
-0.30695101618766785 -1.3006901741027832 2.424978733062744 35 35 35
-0.33716246485710144 0.34860923886299133 2.6686835289001465 45 45 45
-0.32541805505752563 -0.25228965282440186 2.5810794830322266 39 39 39
-0.30965980887413025 -0.6540381908416748 2.533717632293701 60 60 60
-0.2849252223968506 -0.6628884673118591 2.5378830432891846 61 61 61
-0.26775914430618286 -1.2840410470962524 2.4451472759246826 118 118 118
-0.2634618878364563 -1.2519848346710205 2.447946548461914 135 135 135
-0.2721972167491913 -0.5268204808235168 2.564706325531006 40 40 40
-0.25163909792900085 -1.2129433155059814 2.459707736968994 52 52 52
-0.2715573310852051 0.28659752011299133 2.682431697845459 104 104 104
-0.2695748805999756 0.36829325556755066 2.6999635696411133 90 90 90
-0.24036283791065216 -1.1740598678588867 2.4923620223999023 33 33 33
-0.24560819566249847 -0.5299932360649109 2.568202495574951 67 67 67
-0.22483330965042114 -1.1931694746017456 2.4775261878967285 32 32 32
-0.23522140085697174 -0.2793120741844177 2.624967575073242 109 109 109
-0.2225668579339981 -1.0671364068984985 2.501155138015747 115 115 115
-0.24011410772800446 0.5739437341690063 2.7461483478546143 91 91 91
-0.20825718343257904 -1.1283016204833984 2.4981870651245117 100 100 100
-0.21549499034881592 -0.15350908041000366 2.6493725776672363 110 110 110
-0.21362856030464172 -0.20284684002399445 2.635455846786499 106 106 106
-0.21362856030464172 -0.20284684002399445 2.635455846786499 106 106 106
-0.19946299493312836 -1.0742554664611816 2.5071322917938232 101 101 101
-0.18842829763889313 -1.1929889917373657 2.499385118484497 77 77 77
-0.1879032403230667 -0.7918113470077515 2.5701236724853516 26 26 26
-0.19519779086112976 -0.1335173100233078 2.6772403717041016 39 39 39
-0.17752812802791595 -1.210001826286316 2.4959049224853516 40 40 40
-0.1727977991104126 -1.0925042629241943 2.5236644744873047 55 55 55
-0.1821717768907547 0.6301088333129883 2.788729190826416 19 19 19
-0.17084549367427826 0.27975913882255554 2.7475059032440186 40 40 40
-0.158453568816185 -0.10024891793727875 2.6882894039154053 106 106 106
-0.1610478311777115 0.3093039095401764 2.745950937271118 103 103 103
-0.1610478311777115 0.3093039095401764 2.745950937271118 103 103 103
-0.14730046689510345 -0.5319948792457581 2.6256299018859863 53 53 53
-0.1273658126592636 -0.8065372109413147 2.594355821609497 105 105 105
-0.1353902667760849 0.28329911828041077 2.770792245864868 56 56 56
-0.11698395758867264 -1.2858246564865112 2.5197999477386475 82 82 82
-0.11761755496263504 -1.1894558668136597 2.5459234714508057 91 91 91
-0.11688854545354843 -0.7966092824935913 2.605726718902588 28 28 28
-0.11782519519329071 -0.6634132862091064 2.6288204193115234 27 27 27
-0.11164145171642303 -0.5431041717529297 2.6557469367980957 23 23 23
-0.10364893823862076 -1.1614463329315186 2.5522215366363525 127 127 127
-0.09498543292284012 -0.906273365020752 2.5947623252868652 101 101 101
-0.09289949387311935 -0.860539436340332 2.604663133621216 96 96 96
-0.09591328352689743 -0.27977272868156433 2.7015585899353027 23 23 23
-0.08961118757724762 0.2935656011104584 2.791802406311035 46 46 46
-0.0798998475074768 -1.287852168083191 2.5244462490081787 56 56 56
-0.0798998475074768 -1.287852168083191 2.5244462490081787 56 56 56
-0.06317874044179916 -0.78084796667099 2.6291143894195557 93 93 93
-0.06114397943019867 -1.051836609840393 2.5920259952545166 25 25 25
0.4734185039997101 -0.4562864899635315 1.8316125869750977 62 62 62
0.48640912771224976 -0.45959311723709106 1.8409620523452759 224 224 224
0.5797140598297119 0.45803144574165344 2.064469814300537 42 42 42
0.6304853558540344 -0.3362940549850464 1.9424041509628296 36 36 36
0.7668399810791016 0.5169214010238647 1.768937110900879 74 74 74
