ply
format ascii 1.0
element vertex 136
property float x
property float y
property float z
property uchar red
property uchar green
property uchar blue
end_header
-1.2489633560180664 0.11612001061439514 2.613516330718994 91 91 91
-1.251851201057434 1.2076987028121948 2.6626510620117188 29 29 29
-1.2359888553619385 0.8356147408485413 2.665839910507202 46 46 46
-1.1985085010528564 0.13349637389183044 2.637345552444458 32 32 32
-1.1872971057891846 0.3232232630252838 2.6336262226104736 120 120 120
-1.1879504919052124 0.4235099256038666 2.6362619400024414 105 105 105
-1.1812390089035034 0.5032349824905396 2.639706611633301 121 121 121
-1.187187671661377 -0.16973355412483215 2.6756787300109863 103 103 103
-1.187187671661377 -0.16973355412483215 2.6756787300109863 103 103 103
-1.174759030342102 0.5131486058235168 2.6638565063476562 121 121 121
-1.1608996391296387 0.7117447853088379 2.6979033946990967 104 104 104
-1.1608996391296387 0.7117447853088379 2.6979033946990967 104 104 104
-1.155340313911438 0.5514405369758606 2.742262125015259 22 22 22
-1.1520272493362427 0.6445194482803345 2.7505555152893066 24 24 24
-1.1460658311843872 0.8142446875572205 2.7561848163604736 24 24 24
-1.1266694068908691 0.6260291337966919 2.8291304111480713 12 12 12
-1.124921202659607 0.5514842867851257 2.834602117538452 129 129 129
-1.136962652206421 -0.9627768397331238 2.8782644271850586 32 32 32
-1.1356455087661743 -0.9618859887123108 2.8763723373413086 32 32 32
-1.090580940246582 -1.0217225551605225 2.902312994003296 114 114 114
-1.1155587434768677 -0.8732805848121643 2.9708917140960693 41 41 41
-1.0993868112564087 -0.9735447764396667 2.930298328399658 36 36 36
-1.0927343368530273 0.2876982092857361 2.960118293762207 135 135 135
-1.0957638025283813 -0.8675907254219055 2.9859120845794678 31 31 31
-1.0633292198181152 -0.9899479746818542 2.9121079444885254 118 118 118
-1.0864324569702148 0.24285830557346344 3.009153366088867 138 138 138
-1.0784845352172852 -0.9658270478248596 3.004383087158203 34 34 34
-1.0784845352172852 -0.9658270478248596 3.004383087158203 34 34 34
-1.0770100355148315 -0.6752079725265503 3.025214910507202 79 79 79
-1.0734477043151855 0.19077607989311218 3.0264790058135986 175 175 175
-1.0630465745925903 -0.879569411277771 3.0524327754974365 111 111 111
-1.0580551624298096 0.35783281922340393 3.0480964183807373 106 106 106
-1.0496690273284912 -0.8346840739250183 3.0868728160858154 110 110 110
-1.0426959991455078 -0.9601504802703857 3.0881240367889404 39 39 39
-1.04476797580719 0.14614172279834747 3.11240553855896 81 81 81
-1.0375628471374512 -0.17156437039375305 3.1059646606445312 134 134 134
-1.0442380905151367 0.29906588792800903 3.136625051498413 102 102 102
-1.0235644578933716 -1.0180633068084717 3.095895290374756 144 144 144
-1.0235644578933716 -1.0180633068084717 3.095895290374756 144 144 144
-1.017554759979248 -1.0529513359069824 3.0832197666168213 132 132 132
-1.030354619026184 -0.7910702228546143 3.1471333503723145 91 91 91
-1.0228103399276733 -1.0919150114059448 3.133847951889038 44 44 44
-0.9965462684631348 -0.9820318818092346 3.102626323699951 10 10 10
-1.0162853002548218 -0.7913677096366882 3.1728262901306152 36 36 36
-1.0126380920410156 -0.08005265146493912 3.196110725402832 115 115 115
-0.9492439031600952 -0.9027361869812012 3.256195545196533 28 28 28
-0.8540946245193481 0.38973838090896606 3.2154338359832764 92 92 92
-0.8327180743217468 0.2743350565433502 3.2143261432647705 107 107 107
-0.8478135466575623 0.12319432199001312 3.3480305671691895 172 172 172
-0.6406689882278442 0.8987046480178833 3.2247726917266846 22 22 22
-0.6206845045089722 0.5546116828918457 3.2000813484191895 33 33 33
-0.5970292687416077 -1.0273663997650146 3.124171733856201 99 99 99
-0.6064350605010986 0.14399805665016174 3.294135808944702 171 171 171
-0.5525974035263062 0.26927539706230164 3.173753023147583 66 66 66
-0.5464298725128174 0.2862975299358368 3.1688196659088135 138 138 138
-0.5464298725128174 0.2862975299358368 3.1688196659088135 138 138 138
-0.479044109582901 -1.0511257648468018 3.077712297439575 76 76 76
-0.4942292869091034 -0.8364615440368652 3.191037654876709 198 198 198
-0.43777671456336975 -1.0099999904632568 3.0933709144592285 103 103 103
-0.4460590183734894 0.5504945516586304 3.1764888763427734 82 82 82
-0.4008166193962097 1.0080995559692383 3.2196204662323 35 35 35
-0.38047048449516296 0.7128458619117737 3.18715500831604 113 113 113
-0.37419965863227844 -0.2471979707479477 3.1679046154022217 58 58 58
-0.3300972878932953 -0.5309374928474426 3.0912158489227295 37 37 37
-0.33819928765296936 0.5687305927276611 3.175551652908325 27 27 27
-0.32642877101898193 0.5858296751976013 3.1635613441467285 121 121 121
-0.32245710492134094 0.5706023573875427 3.1781365871429443 26 26 26
-0.2951053977012634 -1.1643116474151611 3.0684397220611572 124 124 124
-0.3101971447467804 0.6840489506721497 3.1717708110809326 69 69 69
-0.3043633997440338 -0.9168102741241455 3.1542809009552 130 130 130
-0.29204362630844116 -1.0828884840011597 3.068167209625244 137 137 137
-0.2843201458454132 0.5691136121749878 3.194981813430786 31 31 31
-0.2801242768764496 0.5613581538200378 3.172855854034424 42 42 42
-0.25926026701927185 -0.9194546937942505 3.1655845642089844 61 61 61
-0.25926026701927185 -0.9194546937942505 3.1655845642089844 61 61 61
-0.26110514998435974 0.794018030166626 3.181680679321289 107 107 107
-0.2560470998287201 0.6141844391822815 3.144902467727661 64 64 64
-0.26535558700561523 -0.19383232295513153 3.3566625118255615 205 205 205
-0.23931002616882324 0.7075040340423584 3.165863275527954 119 119 119
-0.23467682301998138 0.6434084177017212 3.1707961559295654 183 183 183
-0.23138320446014404 -0.4119931161403656 3.220686912536621 210 210 210
-0.22194814682006836 0.29138273000717163 3.141282796859741 57 57 57
-0.22404347360134125 1.1468151807785034 3.1909759044647217 73 73 73
-0.2233830988407135 0.688874363899231 3.1796035766601562 121 121 121
-0.2233830988407135 0.688874363899231 3.1796035766601562 121 121 121
-0.21197427809238434 0.38694584369659424 3.1316843032836914 10 10 10
-0.22630806267261505 -0.1245623305439949 3.419090509414673 10 10 10
-0.22935450077056885 0.011334897950291634 3.453913927078247 43 43 43
-0.2057504802942276 0.5997425317764282 3.1620099544525146 108 108 108
-0.20076483488082886 0.6504977941513062 3.1612002849578857 84 84 84
-0.19697335362434387 0.8339181542396545 3.18159556388855 3 3 3
-0.17819592356681824 1.0754555463790894 3.187241792678833 72 72 72
-0.17894147336483002 -0.18299922347068787 3.504148244857788 56 56 56
-0.17894147336483002 -0.18299922347068787 3.504148244857788 56 56 56
-0.14853206276893616 0.7992427945137024 3.174572706222534 101 101 101
-0.13804925978183746 0.6045149564743042 3.1541643142700195 121 121 121
-0.1483526974916458 -0.28663820028305054 3.513653516769409 38 38 38
-0.13126695156097412 0.8931013345718384 3.180680274963379 99 99 99
-0.1397477239370346 -0.2831610441207886 3.4525609016418457 2 2 2
-0.13369229435920715 -0.017349226400256157 3.503638982772827 171 171 171
-0.08106312900781631 0.755998969078064 3.1651296615600586 27 27 27
-0.07242363691329956 0.5651675462722778 3.149158000946045 31 31 31
-0.07229339331388474 0.04609248414635658 3.4433176517486572 254 254 254
-0.058242302387952805 0.5916039943695068 3.1430203914642334 126 126 126
-0.05491120368242264 0.397915780544281 3.1394262313842773 40 40 40
-0.060451772063970566 0.02853037789463997 3.4075851440429688 149 149 149
-0.04081263393163681 -0.3418840765953064 3.370187997817993 33 33 33
-0.02176736667752266 0.6543838381767273 3.149420738220215 118 118 118
-0.02202663943171501 0.8840831518173218 3.156179428100586 100 100 100
-0.015505527146160603 -0.3887788951396942 3.22597336769104 2 2 2
-0.014508959837257862 0.5294684767723083 3.1423187255859375 46 46 46
-0.010690395720303059 0.8239196538925171 3.1543092727661133 114 114 114
-0.004770095460116863 0.7231587171554565 3.170541286468506 125 125 125
-0.000994421076029539 0.5560917258262634 3.145711660385132 97 97 97
-2.601969026727602e-05 0.9193710684776306 3.165099859237671 104 104 104
0.004762197379022837 0.14213058352470398 3.246516704559326 77 77 77
0.022449862211942673 -0.3542626202106476 3.291180372238159 36 36 36
0.03987346589565277 0.5013402104377747 3.149733543395996 20 20 20
0.040214549750089645 0.6708901524543762 3.143314838409424 37 37 37
0.04228496924042702 0.6491031646728516 3.1484227180480957 140 140 140
0.05361520126461983 -0.2307284027338028 3.3487985134124756 44 44 44
0.0791524201631546 0.8144726753234863 3.1445350646972656 117 117 117
0.11389494687318802 0.9233092665672302 3.1547482013702393 90 90 90
0.11702173203229904 0.49983030557632446 3.1259686946868896 17 17 17
0.11932948231697083 0.608182430267334 3.131265163421631 143 143 143
0.12211121618747711 0.6289659142494202 3.1296865940093994 133 133 133
0.12866757810115814 0.9815434813499451 3.1431081295013428 106 106 106
0.1332792043685913 0.6610203981399536 3.139874219894409 138 138 138
0.14476092159748077 -0.18935425579547882 3.2448625564575195 125 125 125
0.14819183945655823 0.7381137609481812 3.1477744579315186 124 124 124
0.14821986854076385 0.5766575932502747 3.117233991622925 139 139 139
0.15166741609573364 -0.27992621064186096 3.222463369369507 27 27 27
0.15295414626598358 0.18027199804782867 3.254256248474121 255 255 255
0.1711144745349884 -0.25378674268722534 3.22245192527771 123 123 123
0.18329444527626038 0.8359550833702087 3.1377296447753906 120 120 120
0.21988625824451447 1.0175516605377197 3.131852149963379 111 111 111
