ply
format ascii 1.0
element vertex 272
property float x
property float y
property float z
property uchar red
property uchar green
property uchar blue
end_header
-4.047782897949219 -0.34735456109046936 8.19419002532959 26 26 26
-4.4430646896362305 4.895029067993164 9.02355670928955 26 26 26
-3.874526023864746 -2.349501609802246 7.945479869842529 25 25 25
-3.874526023864746 -2.349501609802246 7.945479869842529 25 25 25
-4.045073986053467 0.11623857915401459 8.369189262390137 46 46 46
-3.812253952026367 -2.3688948154449463 7.919511318206787 119 119 119
-3.84100341796875 -1.448873519897461 8.047107696533203 20 20 20
-4.015552520751953 0.6456957459449768 8.413268089294434 134 134 134
-3.798137903213501 -1.7610957622528076 7.958607196807861 119 119 119
-4.061624526977539 1.0876792669296265 8.517005920410156 38 38 38
-4.0001349449157715 0.7094371318817139 8.387960433959961 106 106 106
-3.8490278720855713 -1.3505209684371948 8.090682983398438 28 28 28
-3.9881668090820312 1.070299506187439 8.52137279510498 24 24 24
-3.548069715499878 -4.203897953033447 7.692044734954834 100 100 100
-3.829359531402588 0.1522984355688095 8.32741928100586 120 120 120
-3.426325559616089 -4.564674377441406 7.487011909484863 110 110 110
-3.7855782508850098 -0.38712671399116516 8.286590576171875 32 32 32
-3.850555896759033 0.5940834879875183 8.44863224029541 35 35 35
-3.759848117828369 0.11990191042423248 8.372451782226562 49 49 49
-3.7672245502471924 0.3484290838241577 8.416224479675293 106 106 106
-3.9490346908569336 2.971343517303467 8.832087516784668 59 59 59
-3.521495819091797 -2.8736913204193115 7.890069007873535 123 123 123
-3.838994264602661 1.3974699974060059 8.603668212890625 118 118 118
-3.7561991214752197 0.6197587847709656 8.429932594299316 128 128 128
-3.7224652767181396 -0.37046018242836 8.354829788208008 38 38 38
-3.9055402278900146 3.4955060482025146 8.909929275512695 131 131 131
-3.9055402278900146 3.4955060482025146 8.909929275512695 131 131 131
-3.7045207023620605 1.4849069118499756 8.556374549865723 92 92 92
-3.882591485977173 3.5531198978424072 8.97009563446045 19 19 19
-3.7046825885772705 1.0878766775131226 8.567351341247559 30 30 30
-3.304621458053589 -3.781787872314453 7.67336893081665 81 81 81
-3.293083667755127 -4.22201681137085 7.647665023803711 24 24 24
-3.2363052368164062 -4.67743444442749 7.591841697692871 100 100 100
-3.8852269649505615 4.497986793518066 9.116673469543457 15 15 15
-3.8852269649505615 4.497986793518066 9.116673469543457 15 15 15
-3.709017038345337 2.4163503646850586 8.754495620727539 90 90 90
-3.2796051502227783 -3.774794816970825 7.747974395751953 20 20 20
-3.219007968902588 -4.832965850830078 7.605366230010986 87 87 87
-3.407630205154419 -1.7740164995193481 8.089699745178223 125 125 125
-3.377122163772583 -2.0336694717407227 8.03503131866455 101 101 101
-3.377122163772583 -2.0336694717407227 8.03503131866455 101 101 101
-3.7231345176696777 2.483339548110962 8.882052421569824 26 26 26
-3.136075735092163 -4.085349082946777 7.4868268966674805 94 94 94
-3.339698553085327 -1.8769125938415527 8.037405967712402 119 119 119
-3.290374517440796 -2.8619651794433594 7.964358806610107 92 92 92
-3.233459711074829 -2.818709373474121 7.85799503326416 97 97 97
-3.451258659362793 0.14419373869895935 8.394787788391113 136 136 136
-3.2096917629241943 -3.219896078109741 7.833171844482422 22 22 22
-3.455514669418335 0.10057087242603302 8.435995101928711 51 51 51
-3.211589813232422 -3.2648098468780518 7.841313362121582 33 33 33
-3.2118401527404785 -3.1583847999572754 7.848451614379883 21 21 21
-3.1254043579101562 1.0091239213943481 7.640170574188232 116 116 116
-3.6161506175994873 3.4340386390686035 8.93759536743164 125 125 125
-3.65702223777771 3.9246530532836914 9.056334495544434 18 18 18
-3.65702223777771 3.9246530532836914 9.056334495544434 18 18 18
-3.665687084197998 3.9891059398651123 9.077606201171875 22 22 22
-3.665687084197998 3.9891059398651123 9.077606201171875 22 22 22
-3.215799331665039 -2.3329122066497803 8.013805389404297 37 37 37
-3.1478943824768066 -0.35718756914138794 7.917514324188232 55 55 55
-2.995009183883667 -4.645990371704102 7.556690692901611 105 105 105
-3.1940200328826904 -1.9470791816711426 8.070420265197754 17 17 17
-3.3731040954589844 0.14681027829647064 8.52457046508789 135 135 135
-3.188061237335205 -1.8420528173446655 8.058981895446777 30 30 30
-3.637491464614868 4.934144973754883 9.219945907592773 17 17 17
-3.6484289169311523 5.1873860359191895 9.28928279876709 17 17 17
-3.578843832015991 4.388261795043945 9.142520904541016 19 19 19
-3.3761026859283447 1.5688775777816772 8.725393295288086 139 139 139
-3.0470876693725586 -3.3288283348083496 7.908642768859863 78 78 78
-3.129769802093506 -1.2921839952468872 8.199503898620605 108 108 108
-3.1124041080474854 -1.2843642234802246 8.164466857910156 103 103 103
-2.9916024208068848 -2.752487897872925 7.925356864929199 117 117 117
-3.176785469055176 0.06475835293531418 8.496174812316895 18 18 18
-3.1528384685516357 0.0713081881403923 8.470248222351074 26 26 26
-3.130551338195801 -0.3529185652732849 8.431720733642578 129 129 129
-3.128232479095459 0.6113858222961426 8.52436351776123 133 133 133
-3.041978597640991 -0.04666006565093994 8.46141242980957 127 127 127
-3.041978597640991 -0.04666006565093994 8.46141242980957 127 127 127
-2.7111780643463135 -4.669466972351074 7.67705774307251 84 84 84
-2.9899492263793945 -0.014818173833191395 8.494304656982422 132 132 132
-2.9899492263793945 -0.014818173833191395 8.494304656982422 132 132 132
-2.7026560306549072 -4.269322872161865 7.741687297821045 30 30 30
-2.6039328575134277 -4.755075454711914 7.581658363342285 87 87 87
-2.625808000564575 -4.72395133972168 7.650187015533447 26 26 26
-2.6634020805358887 -3.6627702713012695 7.810018062591553 114 114 114
-2.5661656856536865 -4.669162273406982 7.669397830963135 103 103 103
-2.548671245574951 -4.644808292388916 7.631655216217041 96 96 96
-2.9599626064300537 2.563786506652832 8.885963439941406 60 60 60
-2.6132209300994873 -4.299009323120117 7.844039440155029 77 77 77
-2.9708690643310547 2.8871328830718994 8.974649429321289 19 19 19
-2.5799460411071777 -3.7588303089141846 7.84478759765625 35 35 35
-2.5523457527160645 -4.302630424499512 7.818117618560791 33 33 33
-2.913300037384033 3.380742073059082 9.030780792236328 18 18 18
-2.630258083343506 -1.3047345876693726 8.154229164123535 52 52 52
-2.914228677749634 3.8323099613189697 9.145041465759277 19 19 19
-2.478134870529175 -4.294694423675537 7.796788215637207 41 41 41
-2.5882456302642822 -1.7565451860427856 8.144814491271973 95 95 95
-2.541228771209717 -2.370375633239746 8.088732719421387 13 13 13
-2.4449613094329834 -3.790536880493164 7.883448600769043 41 41 41
-2.4032347202301025 -4.292992115020752 7.822637557983398 40 40 40
-2.4032347202301025 -4.292992115020752 7.822637557983398 40 40 40
-2.4945554733276367 -2.420525550842285 8.132781982421875 112 112 112
-2.5148181915283203 -1.401571273803711 8.30285358428955 30 30 30
-2.3021907806396484 -4.279839992523193 7.799776554107666 25 25 25
-2.3021907806396484 -4.279839992523193 7.799776554107666 25 25 25
-2.4505462646484375 -0.8944144248962402 8.36268424987793 48 48 48
-2.4530670642852783 -0.7830760478973389 8.404257774353027 42 42 42
-2.4530670642852783 -0.7830760478973389 8.404257774353027 42 42 42
-2.242473602294922 -4.3048810958862305 7.765378952026367 101 101 101
-2.245870590209961 -3.761380434036255 7.854222297668457 51 51 51
-2.458836793899536 0.4500734508037567 8.61807918548584 79 79 79
-2.5069713592529297 1.6343483924865723 8.907058715820312 124 124 124
-2.3422160148620605 -0.9103769063949585 8.361343383789062 59 59 59
-2.2046542167663574 -3.805617332458496 7.943885803222656 48 48 48
-2.3938519954681396 2.492703676223755 8.940073013305664 54 54 54
-2.399928092956543 4.75386381149292 9.320331573486328 22 22 22
-1.9713175296783447 -4.659170627593994 7.6739349365234375 97 97 97
-2.21127986907959 0.2165384292602539 8.611580848693848 74 74 74
-2.2851181030273438 2.960850954055786 9.111886978149414 17 17 17
-2.282804489135742 2.9046974182128906 9.103464126586914 17 17 17
-2.282804489135742 2.9046974182128906 9.103464126586914 17 17 17
-1.9584879875183105 -4.273966312408447 7.824960231781006 33 33 33
-1.93160080909729 -4.199389934539795 7.802480220794678 85 85 85
-1.93160080909729 -4.199389934539795 7.802480220794678 85 85 85
-1.9134984016418457 -4.77154016494751 7.780172348022461 26 26 26
-1.887468695640564 -2.3071837425231934 8.213083267211914 2 2 2
-1.8112074136734009 -4.206079483032227 7.912137985229492 114 114 114
-1.9917460680007935 1.0010100603103638 8.712471961975098 179 179 179
-1.9917460680007935 1.0010100603103638 8.712471961975098 179 179 179
-1.7618690729141235 -5.007966041564941 7.772022724151611 121 121 121
-1.8983029127120972 -1.0131489038467407 8.449414253234863 102 102 102
-1.876334309577942 -1.4225972890853882 8.369255065917969 42 42 42
-1.9690728187561035 0.027552366256713867 8.809173583984375 87 87 87
-1.9867918491363525 1.6375272274017334 8.931253433227539 53 53 53
-1.8838945627212524 -0.39239397644996643 8.528182029724121 130 130 130
-1.8618303537368774 -0.9854208827018738 8.446440696716309 86 86 86
-1.7948280572891235 -1.3641676902770996 8.44061279296875 113 113 113
-1.8577576875686646 0.8163329362869263 8.806632995605469 165 165 165
-1.8389087915420532 2.061837911605835 8.979982376098633 99 99 99
-1.5866934061050415 -4.193586349487305 7.943324089050293 72 72 72
-1.5213655233383179 -4.91793966293335 7.872481346130371 105 105 105
-1.7306833267211914 1.742571234703064 9.007786750793457 18 18 18
-1.7184807062149048 1.8910243511199951 9.025447845458984 17 17 17
-1.4774631261825562 -4.33848762512207 7.905180931091309 92 92 92
-1.4599298238754272 -4.169634819030762 7.886070728302002 111 111 111
-1.4384536743164062 -4.790388107299805 7.873654365539551 19 19 19
-1.4202203750610352 -4.8284687995910645 7.809904098510742 104 104 104
-1.5188103914260864 -1.92165207862854 8.359650611877441 46 46 46
-1.5188103914260864 -1.92165207862854 8.359650611877441 46 46 46
-1.6561241149902344 2.398541212081909 9.130111694335938 20 20 20
-1.6074514389038086 1.6197586059570312 9.004609107971191 45 45 45
-1.6626697778701782 3.3748178482055664 9.352697372436523 81 81 81
-1.6331901550292969 2.8326261043548584 9.189277648925781 21 21 21
-1.4026871919631958 -4.74495267868042 7.95109748840332 100 100 100
-1.6251229047775269 3.735637903213501 9.225248336791992 19 19 19
-1.3671879768371582 -4.821129322052002 7.922107696533203 31 31 31
-1.6179389953613281 4.273421764373779 9.4152250289917 14 14 14
-1.5577607154846191 2.2681033611297607 9.092914581298828 81 81 81
-1.344832420349121 -4.200222492218018 7.928634166717529 98 98 98
-1.510011076927185 1.7896971702575684 8.991288185119629 72 72 72
-1.3256690502166748 -4.249964237213135 7.971384525299072 104 104 104
-1.5151803493499756 2.715764045715332 9.127445220947266 105 105 105
-1.4746662378311157 0.8773211240768433 8.905062675476074 64 64 64
-1.4826457500457764 2.509100914001465 9.131802558898926 76 76 76
-1.388923168182373 -0.9555390477180481 8.592147827148438 37 37 37
-1.2632262706756592 -4.360544204711914 8.01663589477539 30 30 30
-1.2672942876815796 -4.349724769592285 8.055675506591797 42 42 42
-1.4525226354599 2.833757162094116 9.243834495544434 15 15 15
-1.2617555856704712 -3.492403984069824 8.078667640686035 32 32 32
-1.3884868621826172 2.3743984699249268 9.125164031982422 24 24 24
-1.2538669109344482 -2.6179966926574707 8.251511573791504 17 17 17
-1.2451879978179932 -2.526103973388672 8.281749725341797 57 57 57
-1.1936198472976685 -4.629958152770996 7.943323135375977 118 118 118
-1.2235734462738037 -2.643660306930542 8.28858470916748 58 58 58
-1.1437171697616577 -4.485891342163086 7.975607872009277 48 48 48
-1.229398250579834 -0.9108486175537109 8.595322608947754 110 110 110
-1.3535388708114624 4.7875542640686035 9.620793342590332 55 55 55
-1.1817684173583984 -1.9560953378677368 8.42418098449707 48 48 48
-1.177065134048462 -0.5328110456466675 8.606457710266113 103 103 103
-1.1939518451690674 0.4339759051799774 8.859526634216309 79 79 79
-1.1939518451690674 0.4339759051799774 8.859526634216309 79 79 79
-1.0626745223999023 -3.1123907566070557 8.210273742675781 88 88 88
-1.0846288204193115 -1.9662299156188965 8.402152061462402 68 68 68
-1.15200936794281 1.0464245080947876 8.928059577941895 109 109 109
-1.0250978469848633 -4.381912708282471 7.956611633300781 32 32 32
-1.1419737339019775 1.200682520866394 8.957026481628418 97 97 97
-1.13387930393219 1.3458969593048096 8.98682975769043 99 99 99
-1.0066269636154175 -3.919978618621826 8.054588317871094 116 116 116
-1.032690405845642 -0.49240821599960327 8.678849220275879 33 33 33
-1.0310053825378418 -0.4917656481266022 8.671562194824219 35 35 35
-0.9534522891044617 -4.149790287017822 8.03186321258545 105 105 105
-1.0617501735687256 2.2839627265930176 9.16759204864502 16 16 16
-1.0650056600570679 2.3347060680389404 9.194755554199219 15 15 15
-1.0241345167160034 0.9422502517700195 8.95814037322998 36 36 36
-1.008280634880066 2.1284828186035156 9.174637794494629 83 83 83
-0.8744198679924011 -4.390967845916748 8.012313842773438 82 82 82
-1.0286717414855957 4.186403274536133 9.501670837402344 15 15 15
-0.9251094460487366 -0.5683887004852295 8.617786407470703 113 113 113
-0.923956036567688 -0.4949074685573578 8.733782768249512 32 32 32
-0.9757628440856934 2.8243613243103027 9.280172348022461 17 17 17
-0.844732403755188 -4.4850754737854 8.042794227600098 39 39 39
-0.9678801894187927 3.0369014739990234 9.292091369628906 26 26 26
-0.8224741816520691 -4.716922760009766 7.975959777832031 54 54 54
-0.8484005928039551 -2.9352705478668213 8.358037948608398 27 27 27
-0.8484005928039551 -2.9352705478668213 8.358037948608398 27 27 27
-0.8569605946540833 -1.9497321844100952 8.444987297058105 57 57 57
-0.8226901292800903 -0.49184998869895935 8.687113761901855 40 40 40
-0.7783946990966797 -1.9653425216674805 8.535636901855469 56 56 56
-0.8041774034500122 1.047499656677246 8.95362663269043 115 115 115
-0.7584155201911926 1.1051421165466309 8.965126037597656 64 64 64
-0.7115398645401001 1.0272562503814697 8.970832824707031 81 81 81
-0.69804847240448 -0.3665611743927002 8.824667930603027 107 107 107
-0.69804847240448 -0.3665611743927002 8.824667930603027 107 107 107
-0.6706514358520508 -1.9618529081344604 8.487196922302246 46 46 46
-0.6742708683013916 1.2255001068115234 9.011161804199219 45 45 45
-0.5853608250617981 -4.705493450164795 7.952492713928223 74 74 74
-0.6407051682472229 0.09960833191871643 8.870965957641602 98 98 98
-0.5999202728271484 -2.9606640338897705 8.305837631225586 101 101 101
-0.5682620406150818 -4.352425575256348 8.049811363220215 82 82 82
-0.5711464881896973 -4.10810661315918 8.139237403869629 38 38 38
-0.5656552910804749 -3.8712692260742188 8.173038482666016 25 25 25
-0.5743722319602966 -2.508237361907959 8.418814659118652 73 73 73
-0.5515907406806946 -3.8296968936920166 8.230836868286133 102 102 102
-0.5937540531158447 0.9462370872497559 8.937668800354004 118 118 118
-0.5510454773902893 -2.9291694164276123 8.346803665161133 30 30 30
-0.5399131178855896 -2.4191715717315674 8.370884895324707 30 30 30
-0.5223947167396545 -4.029817581176758 8.150198936462402 82 82 82
-0.518402099609375 -4.257889747619629 8.083210945129395 136 136 136
-0.5209956765174866 -3.348956823348999 8.230071067810059 26 26 26
-0.5401034951210022 -1.932434320449829 8.568794250488281 89 89 89
-0.5568516254425049 1.041747808456421 8.948266983032227 51 51 51
-0.5568516254425049 1.041747808456421 8.948266983032227 51 51 51
-0.5478652715682983 1.6133005619049072 8.873029708862305 120 120 120
-0.5178865790367126 -1.0491589307785034 8.64730453491211 40 40 40
-0.5077962279319763 -1.9986642599105835 8.556970596313477 22 22 22
-0.4475450813770294 -4.654658794403076 7.839566230773926 57 57 57
-0.4475450813770294 -4.654658794403076 7.839566230773926 57 57 57
-0.45894286036491394 -3.1615774631500244 8.299654006958008 99 99 99
-0.4509194791316986 0.44747138023376465 8.915731430053711 19 19 19
-0.44417908787727356 0.8535555005073547 9.015392303466797 25 25 25
-0.4060646891593933 -0.9742372632026672 8.68062686920166 76 76 76
-0.3557569980621338 -3.8333427906036377 8.289230346679688 74 74 74
-0.3364581763744354 -3.8397581577301025 8.161197662353516 33 33 33
-0.33814311027526855 -2.86802339553833 8.378582000732422 75 75 75
-0.34433430433273315 1.2353320121765137 9.093631744384766 31 31 31
-0.17787201702594757 -2.431705951690674 8.401952743530273 21 21 21
0.11230120062828064 2.3425076007843018 5.152840614318848 161 161 161
0.29642900824546814 2.518608331680298 4.373257160186768 54 54 54
0.3130139410495758 2.613074779510498 4.001661777496338 121 121 121
0.45975372195243835 -1.2021517753601074 5.107828617095947 253 253 253
0.4712999165058136 -1.57951021194458 5.041347503662109 213 213 213
0.47562912106513977 -1.5642234086990356 5.042269229888916 108 108 108
0.476340115070343 -1.6014763116836548 5.001513957977295 212 212 212
0.4944556653499603 -1.0334248542785645 5.154757022857666 57 57 57
0.41170716285705566 2.574140787124634 4.111820697784424 31 31 31
0.5530000329017639 1.0763254165649414 5.512167453765869 14 14 14
0.5717476010322571 2.009000062942505 5.4849724769592285 106 106 106
0.5858364105224609 2.390024185180664 4.912248611450195 76 76 76
0.602571427822113 -1.6439530849456787 5.033480167388916 229 229 229
0.6702399253845215 2.028329849243164 5.278904914855957 41 41 41
0.8694835901260376 1.7549347877502441 5.779213905334473 43 43 43
0.9101999998092651 1.8014369010925293 5.783312797546387 63 63 63
0.825629472732544 -1.462273120880127 5.200163841247559 192 192 192
0.8911827206611633 1.9913051128387451 5.557137966156006 68 68 68
0.9844769239425659 1.7809381484985352 5.7688775062561035 155 155 155
0.9011086821556091 -1.5843182802200317 5.191972732543945 206 206 206
0.9925068616867065 2.106809616088867 4.979238986968994 122 122 122
0.9150689840316772 2.186932325363159 4.528841972351074 39 39 39
0.9027740955352783 2.3410227298736572 3.8531243801116943 53 53 53
0.9638486504554749 2.337099552154541 3.7966248989105225 100 100 100
0.9638486504554749 2.337099552154541 3.7966248989105225 100 100 100
1.0103721618652344 2.3116517066955566 3.950549840927124 44 44 44
1.0184037685394287 2.3041152954101562 3.9761273860931396 113 113 113
