ply
format ascii 1.0
element vertex 131
property float x
property float y
property float z
property uchar red
property uchar green
property uchar blue
end_header
-0.4205241799354553 0.943960964679718 2.735029697418213 23 23 23
-0.40920284390449524 0.3602660596370697 2.7106385231018066 38 38 38
-0.40920284390449524 0.3602660596370697 2.7106385231018066 38 38 38
-0.3957497775554657 0.6686517000198364 2.7263455390930176 40 40 40
-0.39559927582740784 0.798910915851593 2.734828233718872 39 39 39
-0.3695695698261261 0.47308313846588135 2.7115724086761475 27 27 27
-0.36567145586013794 0.3189733326435089 2.713303565979004 122 122 122
-0.36567145586013794 0.3189733326435089 2.713303565979004 122 122 122
-0.3433709442615509 0.49592164158821106 2.727665662765503 118 118 118
-0.32417818903923035 0.6852066516876221 2.7563211917877197 101 101 101
-0.32417818903923035 0.6852066516876221 2.7563211917877197 101 101 101
-0.30517199635505676 0.6247504949569702 2.8085107803344727 7 7 7
-0.3056194484233856 -0.25419673323631287 2.843625783920288 134 134 134
-0.3056194484233856 -0.25419673323631287 2.843625783920288 134 134 134
-0.29842203855514526 0.703518271446228 2.810214042663574 132 132 132
-0.2962632179260254 0.7835250496864319 2.8047993183135986 25 25 25
-0.2962632179260254 0.7835250496864319 2.8047993183135986 25 25 25
-0.29778242111206055 0.6948511004447937 2.8119499683380127 20 20 20
-0.27120745182037354 -0.8954899907112122 2.9645111560821533 30 30 30
-0.22260546684265137 -0.9046733379364014 2.999575614929199 35 35 35
-0.20402634143829346 -0.8139445781707764 3.0442943572998047 105 105 105
-0.19741424918174744 0.28603804111480713 2.981435537338257 140 140 140
-0.16796351969242096 0.19903072714805603 3.0539822578430176 179 179 179
-0.1507311910390854 0.35904669761657715 3.075511932373047 108 108 108
-0.12128782272338867 0.1571943163871765 3.1282036304473877 79 79 79
-0.11340998858213425 -0.9472790956497192 3.137529134750366 144 144 144
-0.11340998858213425 -0.9472790956497192 3.137529134750366 144 144 144
-0.1085880845785141 -0.7319624423980713 3.19277024269104 90 90 90
-0.1085880845785141 -0.7319624423980713 3.19277024269104 90 90 90
-0.10146600008010864 -1.013147234916687 3.1652708053588867 46 46 46
-0.07607478648424149 -0.05257114768028259 3.2211105823516846 119 119 119
-0.06888635456562042 0.18066087365150452 3.216221332550049 147 147 147
-0.01364805642515421 0.3979855179786682 3.223297595977783 113 113 113
-0.005942454095929861 -0.8401219248771667 3.2725162506103516 26 26 26
0.10171070694923401 0.2769995629787445 3.1522347927093506 99 99 99
0.11039573699235916 0.34158432483673096 3.1279687881469727 67 67 67
0.18771971762180328 0.32283374667167664 3.1375372409820557 72 72 72
0.23539432883262634 0.2655979096889496 3.128878355026245 138 138 138
0.25849634408950806 0.2910819947719574 3.1458520889282227 102 102 102
0.28795480728149414 -0.9494377970695496 3.018719434738159 99 99 99
0.34250110387802124 0.27858152985572815 3.1005003452301025 119 119 119
0.34756872057914734 0.2966289818286896 3.0973427295684814 140 140 140
0.34756872057914734 0.2966289818286896 3.0973427295684814 140 140 140
0.34426674246788025 -0.9305417537689209 3.00188946723938 99 99 99
0.3823888301849365 -0.9764692783355713 2.9514951705932617 92 92 92
0.4227941930294037 -0.9403934478759766 2.965754747390747 102 102 102
0.4980120062828064 0.962857186794281 3.0645010471343994 37 37 37
0.4988291263580322 0.9504333734512329 3.0705726146698 30 30 30
0.530745804309845 0.5495690107345581 3.038825035095215 27 27 27
0.5678937435150146 1.0340501070022583 3.0384633541107178 96 96 96
0.5456836819648743 -1.0903950929641724 2.9170379638671875 125 125 125
0.5451821088790894 -1.086944818496704 2.911297082901001 126 126 126
0.558968722820282 -0.8531151413917542 2.9856200218200684 134 134 134
0.6019695401191711 0.5705972909927368 3.0538055896759033 32 32 32
0.5969796180725098 0.8119003772735596 3.0192673206329346 28 28 28
0.6001594066619873 0.56186443567276 3.029639720916748 37 37 37
0.6030072569847107 0.6668701767921448 3.0110857486724854 85 85 85
0.6615398526191711 -0.1624009609222412 3.275012969970703 163 163 163
0.6025443077087402 -0.8547671437263489 2.9797260761260986 63 63 63
0.6025443077087402 -0.8547671437263489 2.9797260761260986 63 63 63
0.6194149851799011 0.7812250852584839 3.0160915851593018 110 110 110
0.6055247187614441 -1.020564079284668 2.934079170227051 136 136 136
0.615013599395752 0.6081129312515259 2.985543966293335 67 67 67
0.618879497051239 0.5675098896026611 3.0011837482452393 54 54 54
0.6287012100219727 0.6746261715888977 3.0171985626220703 120 120 120
0.6521885395050049 -0.3880816400051117 3.116485118865967 6 6 6
0.6414750814437866 0.6371256709098816 3.005953788757324 158 158 158
0.6454404592514038 0.30081185698509216 3.001957416534424 59 59 59
0.6324664354324341 -1.1439437866210938 2.878307819366455 113 113 113
0.7092453241348267 -0.31900086998939514 3.2080087661743164 50 50 50
0.6669060587882996 0.5956321954727173 2.992581605911255 137 137 137
0.7482823729515076 -0.11792299151420593 3.3248353004455566 231 231 231
0.6720707416534424 0.6461194753646851 2.993133068084717 82 82 82
0.6799992918968201 0.8181833624839783 2.9952008724212646 16 16 16
0.6970940232276917 1.0457435846328735 2.9832570552825928 150 150 150
0.7701963186264038 -0.1563185453414917 3.2989766597747803 65 65 65
0.7991326451301575 -0.08690492808818817 3.3671536445617676 253 253 253
0.7237711548805237 0.7877238988876343 2.985898494720459 104 104 104
0.7289870977401733 0.602820873260498 2.9786972999572754 120 120 120
0.7269297242164612 0.6382392048835754 2.9721806049346924 123 123 123
0.7364581227302551 -0.3774099051952362 3.0000267028808594 206 206 206
0.8195184469223022 0.005499721504747868 3.3266055583953857 253 253 253
0.7891198396682739 -0.3560539186000824 3.1478753089904785 36 36 36
0.7891198396682739 -0.3560539186000824 3.1478753089904785 36 36 36
0.7712120413780212 0.6007415652275085 2.9636096954345703 63 63 63
0.7702081203460693 0.4850894510746002 2.9507970809936523 3 3 3
0.7756124138832092 0.4937155246734619 2.9620301723480225 113 113 113
0.7891485095024109 0.5640431642532349 2.9598701000213623 44 44 44
0.7755469679832458 -0.9389746189117432 2.8675007820129395 41 41 41
0.8016477823257446 0.5901496410369873 2.95070481300354 163 163 163
0.8013437986373901 0.39745599031448364 2.92756986618042 55 55 55
0.8245970606803894 0.5686654448509216 2.9525012969970703 98 98 98
0.8910356163978577 -0.09609568864107132 3.1642072200775146 35 35 35
0.8310624957084656 0.5847100615501404 2.940359115600586 86 86 86
0.8392495512962341 0.872423529624939 2.943169355392456 104 104 104
0.8434151411056519 0.5311722755432129 2.9457364082336426 52 52 52
0.8499788641929626 0.8164870142936707 2.9460504055023193 109 109 109
0.8495903015136719 0.31319740414619446 2.934711217880249 60 60 60
0.8549970984458923 0.7093300819396973 2.9415018558502197 122 122 122
0.8582541346549988 0.9780469536781311 2.9296998977661133 82 82 82
0.860082745552063 0.9016886949539185 2.936161518096924 80 80 80
0.8211073875427246 -1.202750563621521 2.79789400100708 132 132 132
0.9064330458641052 -0.3299899101257324 3.085953712463379 195 195 195
0.9064330458641052 -0.3299899101257324 3.085953712463379 195 195 195
0.9149852991104126 -0.3728780150413513 3.1045196056365967 0 0 0
0.8638412356376648 0.4243975877761841 2.909543991088867 79 79 79
0.8686767816543579 -0.6531299352645874 2.902662992477417 66 66 66
0.9659512639045715 0.03643140569329262 3.182457208633423 139 139 139
0.8950484395027161 0.500100314617157 2.9276113510131836 13 13 13
0.8974452018737793 0.6436195969581604 2.9247658252716064 145 145 145
0.920534074306488 0.5395185947418213 2.9193365573883057 115 115 115
0.9241514801979065 0.7101730704307556 2.91892147064209 132 132 132
0.9323793649673462 0.8091921210289001 2.922513008117676 121 121 121
0.7901449203491211 -0.4419315457344055 2.4605438709259033 81 81 81
0.9775862097740173 -0.31459593772888184 3.030486822128296 52 52 52
0.9564219117164612 1.0275897979736328 2.9028708934783936 101 101 101
0.9624535441398621 0.9227874279022217 2.897545576095581 24 24 24
0.9699239730834961 0.7387825846672058 2.9062540531158447 134 134 134
0.9702575206756592 0.626954972743988 2.8981380462646484 131 131 131
0.9775448441505432 0.8886858820915222 2.8871958255767822 48 48 48
1.016331672668457 0.1593545377254486 3.0129337310791016 117 117 117
0.974127471446991 -0.42851901054382324 2.8498666286468506 92 92 92
0.9948738813400269 0.5813966393470764 2.8996787071228027 137 137 137
1.0127732753753662 0.5908672213554382 2.888258695602417 27 27 27
1.0386123657226562 0.23682639002799988 2.9456982612609863 61 61 61
1.036087989807129 0.202716663479805 2.9319567680358887 140 140 140
1.0262246131896973 0.8215414881706238 2.872311592102051 121 121 121
1.035513997077942 0.618344247341156 2.881679058074951 129 129 129
1.0487847328186035 0.8926675319671631 2.865231990814209 50 50 50
1.0487847328186035 0.8926675319671631 2.865231990814209 50 50 50
1.0570087432861328 0.9085351824760437 2.858633518218994 107 107 107
