ply
format ascii 1.0
element vertex 115
property float x
property float y
property float z
property uchar red
property uchar green
property uchar blue
end_header
-2.932565927505493 1.107893705368042 6.116412162780762 92 92 92
-2.8691229820251465 0.2986449599266052 6.225385665893555 61 61 61
-2.582162857055664 2.121706008911133 6.234707355499268 71 71 71
-2.5583932399749756 2.075676202774048 6.2362799644470215 22 22 22
-2.52789044380188 1.5291852951049805 6.248297214508057 104 104 104
-2.518033266067505 1.3138247728347778 6.278639793395996 121 121 121
-2.54971981048584 0.3869384229183197 6.4594621658325195 46 46 46
-2.9881861209869385 -1.9766446352005005 7.608400344848633 62 62 62
-2.5320382118225098 -2.7559573650360107 6.530364036560059 120 120 120
-2.424999713897705 1.259861946105957 6.278783798217773 114 114 114
-2.484951972961426 -0.4301599860191345 6.671565055847168 228 228 228
-2.3891987800598145 0.48361870646476746 6.423277378082275 26 26 26
-2.367788076400757 1.469567060470581 6.412473678588867 85 85 85
-2.4129223823547363 -2.5684211254119873 6.540238857269287 132 132 132
-2.3525145053863525 0.48813045024871826 6.427163600921631 17 17 17
-2.406074047088623 -2.5606391429901123 6.581265449523926 132 132 132
-2.2837400436401367 1.240972876548767 6.290502071380615 43 43 43
-2.2826576232910156 1.7008556127548218 6.338253974914551 109 109 109
-2.3057897090911865 1.2434388399124146 6.411086082458496 24 24 24
-2.2624330520629883 1.3220241069793701 6.316378116607666 56 56 56
-2.461012125015259 -0.11720165610313416 6.913862705230713 46 46 46
-2.407754898071289 -0.8048312664031982 6.8072075843811035 31 31 31
-2.2413926124572754 1.3845652341842651 6.380144119262695 134 134 134
-2.2468602657318115 0.6221015453338623 6.411914348602295 55 55 55
-2.203090190887451 0.8966484665870667 6.3899827003479 38 38 38
-2.328596591949463 -0.4204551577568054 6.84915828704834 55 55 55
-2.328596591949463 -0.4204551577568054 6.84915828704834 55 55 55
-2.165738105773926 1.635482668876648 6.38822603225708 57 57 57
-2.143761396408081 1.398127794265747 6.355984210968018 38 38 38
-2.127908945083618 1.7756541967391968 6.356545925140381 16 16 16
-2.127908945083618 1.7756541967391968 6.356545925140381 16 16 16
-2.109253406524658 2.3090569972991943 6.371020793914795 106 106 106
-2.0883290767669678 2.2844948768615723 6.356557369232178 69 69 69
-2.2016243934631348 0.12061876058578491 6.778463363647461 85 85 85
-2.2361690998077393 -0.902808427810669 6.937620639801025 43 43 43
-2.2361690998077393 -0.902808427810669 6.937620639801025 43 43 43
-2.1576666831970215 -0.04896664246916771 6.713573455810547 254 254 254
-2.20007061958313 -0.8944435715675354 6.861319065093994 31 31 31
-2.04215145111084 1.7081559896469116 6.405045509338379 91 91 91
-2.038858652114868 1.2984604835510254 6.431343078613281 121 121 121
-2.0280306339263916 0.5348830819129944 6.436147212982178 107 107 107
-2.1812641620635986 -0.18426638841629028 7.032135009765625 253 253 253
-2.0651819705963135 0.21425512433052063 6.695581912994385 155 155 155
-1.9798628091812134 1.2710925340652466 6.449220180511475 128 128 128
-1.9567958116531372 1.0470741987228394 6.514459133148193 31 31 31
-1.8562448024749756 -1.9331210851669312 6.220493793487549 22 22 22
-1.8938655853271484 1.2066079378128052 6.462605953216553 33 33 33
-1.8938655853271484 1.2066079378128052 6.462605953216553 33 33 33
-1.8815770149230957 1.277605652809143 6.518945693969727 122 122 122
-1.987174391746521 -0.3876970708370209 6.955100059509277 44 44 44
-1.9821017980575562 0.017230475321412086 6.951321125030518 254 254 254
-1.8401604890823364 1.334397315979004 6.487929344177246 131 131 131
-1.946507215499878 -0.844170331954956 7.027840614318848 6 6 6
-1.7660274505615234 1.888075351715088 6.462571620941162 94 94 94
-1.819963812828064 -3.042294502258301 6.723766803741455 130 130 130
-1.819963812828064 -3.042294502258301 6.723766803741455 130 130 130
-1.7752838134765625 0.6486108899116516 6.569445610046387 60 60 60
-1.7486964464187622 1.7581592798233032 6.472353935241699 115 115 115
-1.7508591413497925 1.530043363571167 6.515312194824219 121 121 121
-1.7602521181106567 0.5436965227127075 6.591004848480225 108 108 108
-1.8514918088912964 0.010072159580886364 6.995103359222412 139 139 139
-1.7055630683898926 0.9345807433128357 6.538585662841797 36 36 36
-1.80881929397583 -0.16951826214790344 6.947934627532959 243 243 243
-1.6901520490646362 1.0752201080322266 6.628072738647461 19 19 19
-1.6359186172485352 2.4507992267608643 6.448394298553467 104 104 104
-1.7869715690612793 -0.30899128317832947 7.060860633850098 253 253 253
-1.6447710990905762 0.5402914881706238 6.649368762969971 108 108 108
-1.5993497371673584 1.5319868326187134 6.574939250946045 132 132 132
-1.5883514881134033 1.7533020973205566 6.579799175262451 117 117 117
-1.5418860912322998 1.717207908630371 6.465219020843506 115 115 115
-1.5612480640411377 -2.3646767139434814 6.567662715911865 111 111 111
-1.6549711227416992 -0.13881127536296844 6.966346740722656 94 94 94
-1.5611339807510376 0.5464704036712646 6.738225936889648 122 122 122
-1.5072656869888306 2.287269115447998 6.546944618225098 108 108 108
-1.5811957120895386 -0.5375004410743713 6.883687496185303 4 4 4
-1.5050657987594604 2.0091726779937744 6.587465286254883 23 23 23
-1.4784561395645142 1.3368556499481201 6.576944351196289 126 126 126
-1.5041455030441284 -1.0208066701889038 6.7783098220825195 113 113 113
-1.505678653717041 -0.4266074597835541 6.814872741699219 86 86 86
-1.44762122631073 1.3080971240997314 6.636063098907471 114 114 114
-1.445298433303833 1.6079756021499634 6.883237838745117 126 126 126
-1.3402408361434937 1.7680083513259888 6.584490776062012 118 118 118
-1.3551931381225586 -2.4576992988586426 6.8244547843933105 183 183 183
-1.297136902809143 1.9292609691619873 6.617823600769043 52 52 52
-1.297136902809143 1.9292609691619873 6.617823600769043 52 52 52
-1.2776228189468384 1.9690247774124146 6.632358551025391 109 109 109
-1.1835434436798096 1.267623782157898 6.700486183166504 15 15 15
-1.1696124076843262 1.9747304916381836 6.655499458312988 111 111 111
-1.1887471675872803 -0.33866190910339355 6.844201564788818 254 254 254
-1.1512867212295532 1.453080177307129 6.6812591552734375 39 39 39
-1.1781744956970215 -0.048301488161087036 6.8447418212890625 255 255 255
-1.1643733978271484 -0.23750942945480347 6.829938888549805 252 252 252
-1.1221147775650024 2.4832937717437744 6.617456912994385 134 134 134
-1.1358234882354736 1.255342960357666 6.697420120239258 24 24 24
-1.1358234882354736 1.255342960357666 6.697420120239258 24 24 24
-1.1125800609588623 1.2785298824310303 6.732885360717773 23 23 23
-1.0999377965927124 1.5234918594360352 6.683804988861084 103 103 103
-1.0894925594329834 1.6063820123672485 6.683497905731201 121 121 121
-1.0636570453643799 1.7101173400878906 6.705091953277588 100 100 100
-1.058406949043274 1.682990312576294 6.702987194061279 137 137 137
-1.040700078010559 1.5272458791732788 6.6789655685424805 48 48 48
-1.040700078010559 1.5272458791732788 6.6789655685424805 48 48 48
-1.0344512462615967 0.5960636734962463 6.772715091705322 63 63 63
-1.0086060762405396 1.699784278869629 6.727700233459473 91 91 91
-0.9934467673301697 1.3172985315322876 6.767203330993652 146 146 146
-0.9477731585502625 1.3490715026855469 6.706486225128174 121 121 121
-0.9143717885017395 1.4143593311309814 6.763386249542236 114 114 114
-0.8845292925834656 1.266438364982605 6.767895698547363 18 18 18
-0.8853750824928284 1.2426096200942993 6.795031547546387 30 30 30
-0.8202133774757385 1.3420480489730835 6.747251033782959 99 99 99
-0.8202133774757385 1.3420480489730835 6.747251033782959 99 99 99
-0.8202305436134338 0.48150643706321716 6.819528102874756 68 68 68
-0.7782579660415649 1.3502670526504517 6.777637958526611 98 98 98
-0.6876066327095032 2.649604558944702 6.720244407653809 112 112 112
-0.6511785387992859 2.015482187271118 6.751823902130127 47 47 47
