ply
format ascii 1.0
element vertex 49
property float x
property float y
property float z
property uchar red
property uchar green
property uchar blue
end_header
-2.8394882678985596 -1.0625098943710327 6.087635040283203 78 78 78
-2.76790452003479 -1.4078649282455444 5.957794189453125 16 16 16
-2.6938889026641846 -1.3780840635299683 5.963298797607422 19 19 19
-2.641638994216919 -1.4098913669586182 5.977806091308594 68 68 68
-2.661362648010254 -1.1383129358291626 6.090353488922119 120 120 120
-2.5563101768493652 -1.401450276374817 6.002122402191162 36 36 36
-2.5525081157684326 -1.2451802492141724 6.033748149871826 38 38 38
-2.4606409072875977 -1.5560623407363892 5.920862197875977 137 137 137
-2.7036476135253906 0.442655473947525 6.54415225982666 42 42 42
-2.664679527282715 0.1688019037246704 6.483912467956543 93 93 93
-2.415790557861328 -1.2594082355499268 5.999424934387207 181 181 181
-2.406857967376709 -1.4185082912445068 6.018314838409424 134 134 134
-2.5794360637664795 0.40605440735816956 6.4651923179626465 139 139 139
-2.3676159381866455 -1.0503560304641724 6.081828594207764 92 92 92
-2.497129440307617 0.49404585361480713 6.490402698516846 49 49 49
-2.363675355911255 -0.57917720079422 6.202307224273682 69 69 69
-2.4311530590057373 0.41653603315353394 6.401313304901123 41 41 41
-2.2869210243225098 -1.3556551933288574 6.027958869934082 177 177 177
-2.377523422241211 -0.3972298502922058 6.270050525665283 61 61 61
-2.3783278465270996 -0.07905811816453934 6.355582237243652 45 45 45
-2.3810408115386963 0.11003036797046661 6.403648376464844 50 50 50
-2.3586010932922363 0.01335876528173685 6.392370223999023 77 77 77
-2.3586010932922363 0.01335876528173685 6.392370223999023 77 77 77
-2.389273166656494 0.30440962314605713 6.482606410980225 25 25 25
-2.31595778465271 -0.3962109386920929 6.295424461364746 121 121 121
-2.3578155040740967 0.12628282606601715 6.422530174255371 39 39 39
-2.321056604385376 -0.10308840125799179 6.380033016204834 106 106 106
-2.3647563457489014 0.46406641602516174 6.530648231506348 96 96 96
-2.3236966133117676 0.23709283769130707 6.459686756134033 80 80 80
-1.8533275127410889 -1.0201162099838257 6.050969123840332 23 23 23
-1.8591208457946777 -0.9072295427322388 6.126154899597168 25 25 25
-1.8593285083770752 -0.797809898853302 6.150285243988037 26 26 26
-1.8635212182998657 -0.7003578543663025 6.179431915283203 26 26 26
-1.9254876375198364 0.28188589215278625 6.41154670715332 92 92 92
-1.8631666898727417 -0.5766870379447937 6.209638595581055 25 25 25
-1.8603085279464722 -0.47706499695777893 6.232806205749512 31 31 31
-1.864904522895813 -0.34489384293556213 6.2663750648498535 29 29 29
-1.867369294166565 -0.12062135338783264 6.319338798522949 31 31 31
-1.7794560194015503 -1.1154834032058716 6.074653625488281 22 22 22
-1.869819164276123 0.20645108819007874 6.428465843200684 29 29 29
-1.7416398525238037 -0.9536637663841248 6.128142833709717 170 170 170
-1.684584140777588 -1.0175704956054688 6.097304821014404 196 196 196
-1.684584140777588 -1.0175704956054688 6.097304821014404 196 196 196
-1.642982006072998 -1.2105101346969604 6.036180019378662 24 24 24
-1.6712418794631958 -0.6295281648635864 6.18942928314209 133 133 133
-1.639817714691162 -0.9544579386711121 6.0974626541137695 109 109 109
-1.4940216541290283 -0.6134342551231384 6.170813083648682 27 27 27
-1.4625829458236694 -0.9677624702453613 6.093918800354004 217 217 217
-1.4961596727371216 -0.15431460738182068 6.302336692810059 30 30 30
