ply
format ascii 1.0
element vertex 57
property float x
property float y
property float z
property uchar red
property uchar green
property uchar blue
end_header
-0.9049469232559204 -0.687971830368042 1.9363399744033813 85 85 85
-0.893127977848053 0.40967634320259094 1.9580250978469849 99 99 99
-0.8875092267990112 0.23150518536567688 1.9646272659301758 66 66 66
-0.8830252289772034 0.2430824637413025 1.9626197814941406 131 131 131
-0.8830252289772034 0.2430824637413025 1.9626197814941406 131 131 131
-0.8794977068901062 0.12258853018283844 2.036548614501953 120 120 120
-0.8475430011749268 0.1930602788925171 2.034696102142334 54 54 54
-0.803938627243042 -0.7023872137069702 1.9797074794769287 102 102 102
-0.8199535012245178 0.21110619604587555 2.033742904663086 80 80 80
-0.7515451312065125 0.42704352736473083 2.031717538833618 58 58 58
-0.7515451312065125 0.42704352736473083 2.031717538833618 58 58 58
-0.7333022952079773 0.45559507608413696 2.0444178581237793 118 118 118
-0.7124312520027161 -0.6880330443382263 2.0311591625213623 135 135 135
-0.7155919671058655 0.4720355272293091 2.0551888942718506 130 130 130
-0.7303372621536255 0.20077048242092133 2.1026735305786133 28 28 28
-0.804083526134491 0.0925942063331604 2.336158514022827 157 157 157
-0.9857764840126038 -0.8805622458457947 2.8679983615875244 74 74 74
-0.7018870115280151 0.43628329038619995 2.0621278285980225 39 39 39
-0.7894495129585266 0.030786506831645966 2.326495409011841 254 254 254
-0.7108311653137207 0.1965717077255249 2.1067757606506348 31 31 31
-0.7700076699256897 0.12801973521709442 2.2932825088500977 135 135 135
-0.6885536313056946 0.44246771931648254 2.0702991485595703 19 19 19
-0.6871229410171509 0.5976743698120117 2.0680036544799805 111 111 111
-0.6762624382972717 -0.7549120783805847 2.056490182876587 133 133 133
-0.6509652137756348 0.4600422978401184 2.0844614505767822 112 112 112
-0.7974936962127686 -0.7946139574050903 2.626255512237549 88 88 88
-0.6910112500190735 -0.23456627130508423 2.3712313175201416 247 247 247
-0.6123694181442261 0.598262369632721 2.107921838760376 104 104 104
-0.6088098883628845 0.46250131726264954 2.1109657287597656 118 118 118
-0.5992658138275146 0.8529426455497742 2.12380313873291 99 99 99
-0.6652522087097168 -0.25047627091407776 2.368053674697876 140 140 140
-0.6030583381652832 0.13646700978279114 2.219784736633301 76 76 76
-0.5644684433937073 0.43048951029777527 2.1310834884643555 35 35 35
-0.557747483253479 0.6915534734725952 2.144129991531372 24 24 24
-0.5538420081138611 0.450508177280426 2.135552406311035 133 133 133
-0.5474272966384888 -0.687867283821106 2.1150057315826416 42 42 42
-0.4966323971748352 -0.5510468482971191 1.9351630210876465 19 19 19
-0.5471979975700378 0.4714178442955017 2.141278028488159 134 134 134
-0.5272431373596191 0.6556231379508972 2.1480698585510254 103 103 103
-0.5233634114265442 0.4143276512622833 2.1494927406311035 115 115 115
-0.5120197534561157 -0.8599076271057129 2.123582363128662 162 162 162
-0.517551064491272 0.24397443234920502 2.149829864501953 57 57 57
-0.4708297550678253 0.40730103850364685 2.176237106323242 101 101 101
-0.46811285614967346 0.531561553478241 2.1769766807556152 129 129 129
-0.4563302993774414 0.15061593055725098 2.2544565200805664 253 253 253
-0.43935513496398926 0.6768001317977905 2.195484161376953 98 98 98
-0.43326419591903687 0.46860429644584656 2.1913084983825684 125 125 125
-0.4277205467224121 0.5078728795051575 2.198431968688965 84 84 84
-0.394024521112442 0.6126174330711365 2.2142248153686523 123 123 123
-0.38041213154792786 0.6638092398643494 2.2265536785125732 54 54 54
-0.38041213154792786 0.6638092398643494 2.2265536785125732 54 54 54
-0.37438100576400757 0.6767395734786987 2.230010747909546 106 106 106
-0.3274369239807129 0.8515866994857788 2.254824638366699 112 112 112
-0.3172582685947418 0.524785578250885 2.250990390777588 119 119 119
-0.30592402815818787 0.6890047192573547 2.2637150287628174 7 7 7
-0.3036888837814331 0.5770431756973267 2.255885124206543 101 101 101
-0.29063478112220764 0.4182634949684143 2.255976676940918 96 96 96
