ply
format ascii 1.0
element vertex 85
property float x
property float y
property float z
property uchar red
property uchar green
property uchar blue
end_header
-0.8363678455352783 0.7034933567047119 3.2163822650909424 111 111 111
-0.8415614366531372 0.9144921898841858 3.245957374572754 108 108 108
-0.8293629288673401 0.7212352156639099 3.218228816986084 121 121 121
-0.8336555361747742 0.793765664100647 3.2368571758270264 113 113 113
-0.8241601586341858 0.7675655484199524 3.2279140949249268 124 124 124
-0.8168152570724487 0.6388480067253113 3.2315900325775146 160 160 160
-0.7800979018211365 0.7148868441581726 3.2384543418884277 146 146 146
-0.7779220342636108 0.8342417478561401 3.252493381500244 35 35 35
-0.7532191872596741 0.7867103219032288 3.244605302810669 123 123 123
-0.7532191872596741 0.7867103219032288 3.244605302810669 123 123 123
-0.6992915868759155 -1.0847645998001099 3.134281635284424 111 111 111
-0.71347975730896 -0.9608799815177917 3.2567636966705322 25 25 25
-0.7151592373847961 1.0276676416397095 3.2791452407836914 27 27 27
-0.7011833190917969 0.8133019804954529 3.2634897232055664 103 103 103
-0.6955856084823608 0.6884009838104248 3.244919538497925 129 129 129
-0.6933308243751526 1.0653048753738403 3.2727854251861572 98 98 98
-0.672987699508667 0.7294539213180542 3.247404098510742 58 58 58
-0.6716983318328857 0.6674020290374756 3.245816946029663 92 92 92
-0.6672489643096924 0.6317228078842163 3.2419931888580322 120 120 120
-0.6685900092124939 0.25904056429862976 3.3165297508239746 62 62 62
-0.6461723446846008 0.7884847521781921 3.257847547531128 127 127 127
-0.6222646236419678 0.6742475032806396 3.2618677616119385 125 125 125
-0.6091356873512268 0.974316418170929 3.2633304595947266 52 52 52
-0.5893430709838867 -1.0999022722244263 3.183884382247925 113 113 113
-0.608307421207428 0.22498618066310883 3.341855049133301 137 137 137
-0.568795382976532 0.6658758521080017 3.257446527481079 136 136 136
-0.5653677582740784 -0.8987017273902893 3.268596649169922 235 235 235
-0.5473995208740234 0.9976399540901184 3.281153917312622 113 113 113
-0.5350403189659119 0.683560311794281 3.257291078567505 137 137 137
-0.527224600315094 1.2476288080215454 3.281057834625244 110 110 110
-0.5236033201217651 0.6361279487609863 3.2798967361450195 20 20 20
-0.5100972652435303 0.6408871412277222 3.2660677433013916 38 38 38
-0.5068521499633789 0.7657702565193176 3.275982618331909 103 103 103
-0.489867627620697 0.8460031151771545 3.294865846633911 95 95 95
-0.4823034107685089 0.7680849432945251 3.282566785812378 46 46 46
-0.4823034107685089 0.7680849432945251 3.282566785812378 46 46 46
-0.4808127284049988 0.770972728729248 3.2918198108673096 46 46 46
-0.4808127284049988 0.770972728729248 3.2918198108673096 46 46 46
-0.4741894602775574 0.8872587084770203 3.283602237701416 39 39 39
-0.4681418538093567 0.31688356399536133 3.2956583499908447 56 56 56
-0.45345109701156616 -1.0815515518188477 3.2189512252807617 100 100 100
-0.4770307242870331 -0.821571946144104 3.398858070373535 219 219 219
-0.3844108581542969 0.6970296502113342 3.2951862812042236 61 61 61
-0.3732624650001526 0.6703515648841858 3.293175458908081 96 96 96
-0.348836213350296 -1.1359703540802002 3.202967405319214 94 94 94
-0.347917765378952 0.677907407283783 3.3144314289093018 95 95 95
-0.33468443155288696 0.39834272861480713 3.2984817028045654 56 56 56
-0.33468443155288696 0.39834272861480713 3.2984817028045654 56 56 56
-0.25720009207725525 -1.0654778480529785 3.2179324626922607 106 106 106
-0.24964627623558044 0.3466535806655884 3.3094398975372314 139 139 139
-0.24611689150333405 0.3869032859802246 3.310685634613037 170 170 170
-0.24611689150333405 0.3869032859802246 3.310685634613037 170 170 170
-0.22720946371555328 0.4446007311344147 3.3255491256713867 112 112 112
-0.22246894240379333 0.6000107526779175 3.3213517665863037 110 110 110
-0.2085278034210205 0.28768104314804077 3.3148767948150635 124 124 124
-0.20409759879112244 0.5573643445968628 3.316534996032715 41 41 41
-0.2035549283027649 -0.8588718175888062 3.392827033996582 234 234 234
-0.16956819593906403 0.4080544710159302 3.3170228004455566 85 85 85
-0.16046522557735443 0.9891200065612793 3.184584617614746 114 114 114
-0.16092689335346222 0.16923289000988007 3.4975554943084717 64 64 64
-0.11601439863443375 1.1280287504196167 3.133251190185547 14 14 14
-0.09984841197729111 0.7309706211090088 3.3400931358337402 87 87 87
-0.05921260640025139 -0.9755668044090271 3.3189501762390137 41 41 41
0.004136285744607449 1.3105162382125854 3.127401828765869 93 93 93
0.007865502499043941 1.2397041320800781 3.2521791458129883 12 12 12
0.2534702718257904 -0.9382720589637756 2.6600394248962402 30 30 30
0.2799001932144165 0.7917375564575195 2.7778732776641846 41 41 41
0.2963586747646332 -0.7466174960136414 2.6811914443969727 96 96 96
0.29514196515083313 -0.826939046382904 2.6691973209381104 2 2 2
0.3003377914428711 -0.971562385559082 2.655193328857422 91 91 91
0.3162555992603302 0.6261007189750671 2.759370803833008 6 6 6
0.3263966739177704 -0.42441678047180176 2.686793804168701 23 23 23
0.35383257269859314 -0.41061851382255554 2.671626567840576 150 150 150
0.36809390783309937 1.3705918788909912 2.7743327617645264 98 98 98
0.35433778166770935 -0.9456176161766052 2.661935329437256 153 153 153
0.3845313787460327 -1.448227882385254 2.2482118606567383 110 110 110
0.660391092300415 1.4605478048324585 2.4440436363220215 45 45 45
0.7771284580230713 -0.3808107376098633 2.3113701343536377 48 48 48
0.7771284580230713 -0.3808107376098633 2.3113701343536377 48 48 48
0.5927999019622803 0.3833311200141907 1.7534271478652954 36 36 36
0.6169228553771973 -0.023488495498895645 1.7257812023162842 22 22 22
0.6400724053382874 -0.016568085178732872 1.6111595630645752 17 17 17
0.6479306817054749 0.21320468187332153 1.6257145404815674 118 118 118
0.6598161458969116 0.06069985777139664 1.5621726512908936 116 116 116
0.6935402154922485 0.3238414227962494 1.4966281652450562 93 93 93
