ply
format ascii 1.0
element vertex 49
property float x
property float y
property float z
property uchar red
property uchar green
property uchar blue
end_header
-0.753561794757843 0.18286114931106567 1.6100205183029175 122 122 122
-0.77164626121521 0.11952371150255203 1.651670217514038 67 67 67
-0.747477650642395 0.3480742573738098 1.6166070699691772 107 107 107
-0.7610269784927368 -0.49388444423675537 1.695235013961792 175 175 175
-0.7145794034004211 0.3376208543777466 1.631500482559204 99 99 99
-0.729346752166748 -0.4843587875366211 1.6740446090698242 216 216 216
-0.7102947235107422 0.18829287588596344 1.6361342668533325 115 115 115
-0.7057828307151794 0.19832544028759003 1.6344270706176758 135 135 135
-0.7057828307151794 0.19832544028759003 1.6344270706176758 135 135 135
-0.7199980616569519 -0.4836675524711609 1.6797932386398315 222 222 222
-0.6395386457443237 -0.5848435759544373 1.6470731496810913 103 103 103
-0.6113681197166443 0.4484507739543915 1.6967829465866089 106 106 106
-0.6263042688369751 0.1484643816947937 1.7415310144424438 75 75 75
-0.6074305176734924 0.3884960114955902 1.7022807598114014 120 120 120
-0.5971521735191345 0.34880363941192627 1.6985936164855957 56 56 56
-0.7294822335243225 -0.682843029499054 2.2288925647735596 86 86 86
-0.6447768211364746 0.023594802245497704 1.9817676544189453 107 107 107
-0.5625360012054443 0.35837000608444214 1.7306357622146606 30 30 30
-0.5473464131355286 0.36066722869873047 1.7344266176223755 0 0 0
-0.5475987792015076 0.4905449151992798 1.7349580526351929 110 110 110
-0.5365893244743347 -0.6275975108146667 1.7163206338882446 136 136 136
-0.5376684069633484 0.31706082820892334 1.742781162261963 82 82 82
-0.6092727780342102 0.038368336856365204 1.9946188926696777 254 254 254
-0.5187996625900269 0.37612780928611755 1.7501214742660522 103 103 103
-0.5133088231086731 0.4068809151649475 1.751487374305725 3 3 3
-0.5133088231086731 0.4068809151649475 1.751487374305725 3 3 3
-0.5763911604881287 0.037234045565128326 2.0155701637268066 143 143 143
-0.49038073420524597 0.5668205618858337 1.7792024612426758 30 30 30
-0.4880438446998596 0.49037232995033264 1.7725275754928589 94 94 94
-0.4853244721889496 0.37729862332344055 1.7744029760360718 120 120 120
-0.4407291114330292 0.3664259910583496 1.7974560260772705 164 164 164
-0.43405085802078247 0.38324663043022156 1.8012745380401611 133 133 133
-0.41117310523986816 0.19488246738910675 1.8096606731414795 59 59 59
-0.4017133414745331 -0.6277392506599426 1.7880773544311523 134 134 134
-0.4151815176010132 0.17083695530891418 1.8710078001022339 136 136 136
-0.3933016061782837 0.3073548972606659 1.830702781677246 16 16 16
-0.393173485994339 0.6993790864944458 1.834210753440857 104 104 104
-0.37213292717933655 0.43320339918136597 1.8371758460998535 130 130 130
-0.37296876311302185 -0.5226424336433411 1.870086908340454 24 24 24
-0.37755411863327026 0.11892042309045792 1.9092143774032593 253 253 253
-0.34417417645454407 0.37966999411582947 1.85062837600708 125 125 125
-0.33464163541793823 0.40377646684646606 1.8582683801651 90 90 90
-0.29717597365379333 0.5516499280929565 1.886522650718689 104 104 104
-0.2947790324687958 0.141474649310112 1.9278281927108765 113 113 113
-0.25490835309028625 0.3576538860797882 1.9102998971939087 13 13 13
-0.25281134247779846 0.343980997800827 1.907688021659851 99 99 99
-0.25265154242515564 0.42572927474975586 1.9076857566833496 102 102 102
-0.23972511291503906 0.4669097065925598 1.910372257232666 119 119 119
-0.23972511291503906 0.4669097065925598 1.910372257232666 119 119 119
