ply
format ascii 1.0
element vertex 102
property float x
property float y
property float z
property uchar red
property uchar green
property uchar blue
end_header
-0.7560019493103027 0.3534666895866394 1.6353418827056885 107 107 107
-0.784875214099884 0.12055817991495132 1.6996945142745972 67 67 67
-0.7136052846908569 0.2028174102306366 1.6533674001693726 135 135 135
-0.7136052846908569 0.2028174102306366 1.6533674001693726 135 135 135
-0.7205801010131836 -0.4859115481376648 1.6815274953842163 222 222 222
-0.7205801010131836 -0.4859115481376648 1.6815274953842163 222 222 222
-0.6383466124534607 -0.5850027203559875 1.6443570852279663 103 103 103
-0.6193999648094177 0.45485734939575195 1.719234585762024 106 106 106
-0.6137897968292236 0.39328694343566895 1.7203871011734009 120 120 120
-0.6051298379898071 0.3539021611213684 1.721346139907837 56 56 56
-0.5738530158996582 -0.5484673380851746 1.6923893690109253 25 25 25
-0.5639231204986572 -0.6749712824821472 1.6850974559783936 124 124 124
-0.5659865140914917 -0.5729086399078369 1.6914609670639038 136 136 136
-0.5632665753364563 -0.6295970678329468 1.6896295547485352 135 135 135
-0.5795878767967224 0.4355366826057434 1.7392605543136597 72 72 72
-0.5795878767967224 0.4355366826057434 1.7392605543136597 72 72 72
-0.571687638759613 0.4301433265209198 1.7541452646255493 71 71 71
-0.6586966514587402 0.021560249850153923 2.0239408016204834 107 107 107
-0.5683437585830688 0.3615478575229645 1.7482482194900513 30 30 30
-0.5607604384422302 0.37291884422302246 1.7540206909179688 39 39 39
-0.5388319492340088 -0.6283264756202698 1.7029169797897339 133 133 133
-0.5388319492340088 -0.6283264756202698 1.7029169797897339 133 133 133
-0.5534228682518005 0.3645351231098175 1.7534714937210083 0 0 0
-0.5550664067268372 0.49787601828575134 1.7589688301086426 110 110 110
-0.5499086380004883 0.3921765387058258 1.754826545715332 153 153 153
-0.5336200594902039 -0.6241664886474609 1.7070510387420654 136 136 136
-0.5456666946411133 0.5401269197463989 1.7666407823562622 90 90 90
-0.5429341793060303 0.32032114267349243 1.7597752809524536 82 82 82
-0.53983074426651 0.44596782326698303 1.7619788646697998 115 115 115
-0.5395437479019165 0.4062865972518921 1.7625935077667236 136 136 136
-0.5395437479019165 0.4062865972518921 1.7625935077667236 136 136 136
-0.5422583222389221 0.5741205215454102 1.776681900024414 33 33 33
-0.5104066133499146 -0.7063714861869812 1.7135521173477173 111 111 111
-0.524760365486145 0.38099631667137146 1.770469069480896 103 103 103
-0.524760365486145 0.38099631667137146 1.770469069480896 103 103 103
-0.5450628995895386 -0.3517545461654663 1.846972942352295 2 2 2
-0.5891350507736206 -0.23377133905887604 2.0180065631866455 23 23 23
-0.5116448998451233 0.601080060005188 1.7882277965545654 102 102 102
-0.5891104936599731 0.038272563368082047 2.0600874423980713 143 143 143
-0.5891104936599731 0.038272563368082047 2.0600874423980713 143 143 143
-0.5124016404151917 0.6661099791526794 1.793650507926941 105 105 105
-0.4965132772922516 0.5736637711524963 1.8012276887893677 30 30 30
-0.49404510855674744 0.49718034267425537 1.7951139211654663 94 94 94
-0.48603370785713196 0.5505359172821045 1.7998390197753906 99 99 99
-0.47376808524131775 0.3715292513370514 1.798412561416626 131 131 131
-0.47060835361480713 0.2522790729999542 1.796897053718567 31 31 31
-0.46429720520973206 0.30742862820625305 1.8025449514389038 28 28 28
-0.4641691744327545 0.3780096173286438 1.8054049015045166 53 53 53
-0.4569805860519409 -0.5357193350791931 1.816957950592041 72 72 72
-0.4533744752407074 0.353091299533844 1.8094725608825684 32 32 32
-0.4467104375362396 0.24441947042942047 1.8066163063049316 82 82 82
-0.4450050890445709 0.37043699622154236 1.815401554107666 164 164 164
-0.44324710965156555 0.25323814153671265 1.812801480293274 40 40 40
-0.43845751881599426 0.38684919476509094 1.8193187713623047 133 133 133
-0.4322773814201355 0.3544481694698334 1.8213211297988892 99 99 99
-0.4254959225654602 0.5439454317092896 1.834601640701294 101 101 101
-0.4223104417324066 0.3313530385494232 1.8261916637420654 51 51 51
-0.41368910670280457 0.19653023779392242 1.8208236694335938 59 59 59
-0.41429635882377625 0.40237855911254883 1.8317190408706665 121 121 121
-0.3999895453453064 -0.6242033243179321 1.7803170680999756 134 134 134
-0.3999895453453064 -0.6242033243179321 1.7803170680999756 134 134 134
-0.39152997732162476 -0.5114669799804688 1.7520360946655273 68 68 68
-0.4114508628845215 0.6983038187026978 1.8555307388305664 32 32 32
-0.3963053226470947 0.3096820116043091 1.8446757793426514 16 16 16
-0.39659690856933594 0.5609346032142639 1.8464630842208862 38 38 38
-0.3942379951477051 0.5600131750106812 1.843967318534851 39 39 39
-0.3763856887817383 0.33209624886512756 1.8491772413253784 98 98 98
-0.37508639693260193 0.4372308850288391 1.8528586626052856 130 130 130
-0.3703443109989166 0.4953775703907013 1.8575760126113892 131 131 131
-0.3806587755680084 0.12120842933654785 1.9257237911224365 253 253 253
-0.3635169565677643 0.5670595765113831 1.8675222396850586 22 22 22
-0.34910422563552856 -0.6378459930419922 1.8087984323501587 106 106 106
-0.3468789756298065 0.3824875056743622 1.865053415298462 125 125 125
-0.3365088999271393 0.37229058146476746 1.8716201782226562 101 101 101
-0.30815210938453674 0.5506107211112976 1.899003505706787 54 54 54
-0.27456754446029663 0.4402335584163666 1.9075043201446533 128 128 128
-0.2699284553527832 0.3820885121822357 1.9069596529006958 141 141 141
-0.26383358240127563 0.237399160861969 1.913176417350769 47 47 47
-0.25957247614860535 0.5402072668075562 1.919860601425171 62 62 62
-0.2554500102996826 0.38554999232292175 1.9087719917297363 133 133 133
-0.2531753182411194 0.34329551458358765 1.9097689390182495 99 99 99
-0.2538207471370697 0.42799583077430725 1.9176849126815796 102 102 102
-0.2486933022737503 0.3548162877559662 1.9179977178573608 6 6 6
-0.24118943512439728 0.46765488386154175 1.9197900295257568 119 119 119
-0.24128837883472443 0.42899423837661743 1.9273357391357422 46 46 46
-0.24128837883472443 0.42899423837661743 1.9273357391357422 46 46 46
-0.23826563358306885 0.4903496503829956 1.9264029264450073 40 40 40
-0.21621762216091156 0.37777745723724365 1.932006597518921 122 122 122
-0.19853217899799347 0.3446756601333618 1.946010708808899 38 38 38
-0.19313666224479675 0.38808906078338623 1.9479013681411743 57 57 57
-0.17201896011829376 0.37502241134643555 1.9549983739852905 99 99 99
-0.1356101781129837 0.1605874001979828 1.9583896398544312 106 106 106
-0.1276911199092865 0.3172764480113983 1.97642982006073 31 31 31
-0.12590070068836212 0.3834683895111084 1.9834074974060059 82 82 82
-0.11294843256473541 0.24562431871891022 1.9815547466278076 111 111 111
-0.08591341972351074 0.3636518716812134 1.9991275072097778 95 95 95
-0.07218155264854431 0.401216983795166 2.008443593978882 92 92 92
-0.04845888167619705 0.17272603511810303 2.0067906379699707 109 109 109
-0.04845888167619705 0.17272603511810303 2.0067906379699707 109 109 109
-0.020485209301114082 0.39934441447257996 2.033374786376953 99 99 99
-0.015277079306542873 0.2922077775001526 2.032059907913208 20 20 20
-0.015277079306542873 0.2922077775001526 2.032059907913208 20 20 20
