ply
format ascii 1.0
element vertex 116
property float x
property float y
property float z
property uchar red
property uchar green
property uchar blue
end_header
-1.066233515739441 0.5035448670387268 2.4342708587646484 99 99 99
-1.0492613315582275 0.2968541085720062 2.43074631690979 135 135 135
-1.0492613315582275 0.2968541085720062 2.43074631690979 135 135 135
-1.0504769086837769 0.5621368288993835 2.443821907043457 91 91 91
-1.0584639310836792 -0.7115345597267151 2.4694442749023438 222 222 222
-1.0584639310836792 -0.7115345597267151 2.4694442749023438 222 222 222
-0.9274932742118835 -0.8476957082748413 2.388481616973877 103 103 103
-0.8651652932167053 -1.136663794517517 2.3987317085266113 80 80 80
-0.9093273878097534 0.6665593385696411 2.5234601497650146 106 106 106
-0.9261912107467651 0.22020886838436127 2.5757174491882324 75 75 75
-0.9009318947792053 0.5757555961608887 2.5246188640594482 120 120 120
-0.8850081562995911 0.5164280533790588 2.517050266265869 56 56 56
-0.8689427971839905 0.9825460314750671 2.569028854370117 74 74 74
-1.0184129476547241 -0.16972652077674866 3.0373713970184326 161 161 161
-0.8163354396820068 -0.9756720066070557 2.4388792514801025 124 124 124
-0.8209403157234192 -0.8308907151222229 2.453364849090576 136 136 136
-1.0141485929489136 0.07594228535890579 3.035752296447754 255 255 255
-0.81479412317276 -0.9113773703575134 2.4443297386169434 135 135 135
-0.8354315757751465 0.5775222778320312 2.552324056625366 61 61 61
-0.8307697176933289 -0.3617395758628845 2.540078639984131 69 69 69
-0.8367181420326233 0.6297681927680969 2.5674498081207275 71 71 71
-0.8320662975311279 0.5286835432052612 2.5592095851898193 30 30 30
-0.8221645951271057 0.5455207824707031 2.5711495876312256 39 39 39
-0.7785476446151733 -0.9093356728553772 2.4610323905944824 133 133 133
-0.8112096190452576 0.5343546271324158 2.5702545642852783 0 0 0
-0.8127198815345764 0.7282465696334839 2.575085163116455 110 110 110
-0.8052756190299988 0.5739875435829163 2.569596529006958 153 153 153
-0.7693762183189392 -0.9015840888023376 2.4619791507720947 136 136 136
-0.7991766333580017 0.7911194562911987 2.5874314308166504 90 90 90
-0.7922148704528809 0.4669177532196045 2.5675628185272217 82 82 82
-0.7900856137275696 0.6520884037017822 2.5784974098205566 115 115 115
-0.9290027022361755 0.057848259806632996 3.041098117828369 254 254 254
-0.7839382886886597 0.632267951965332 2.588592529296875 114 114 114
-0.7854567170143127 0.747761607170105 2.593045234680176 103 103 103
-0.7646609544754028 0.4663848578929901 2.585099935531616 24 24 24
-0.8041395545005798 -0.5173180103302002 2.724926471710205 2 2 2
-0.7600407004356384 0.6042103171348572 2.594914197921753 3 3 3
-0.7551820874214172 0.9810490608215332 2.6234118938446045 89 89 89
-0.8794353008270264 0.05421224609017372 3.0747201442718506 143 143 143
-0.7508376836776733 0.9757119417190552 2.6280925273895264 105 105 105
-0.7095822691917419 -0.4165571331977844 2.5235817432403564 24 24 24
-0.7262366414070129 0.8397249579429626 2.6349880695343018 30 30 30
-0.7216663956642151 0.7264394760131836 2.622288465499878 94 94 94
-0.7158056497573853 0.5565829873085022 2.6171553134918213 120 120 120
-0.7114468216896057 0.8062711358070374 2.6348230838775635 99 99 99
-0.7099788784980774 -0.7608954310417175 2.6481235027313232 18 18 18
-0.6915662288665771 0.5426869988441467 2.6253533363342285 131 131 131
-0.6778562664985657 0.4482054114341736 2.6313605308532715 28 28 28
-0.676701009273529 0.5520818829536438 2.632577657699585 53 53 53
-0.6593214273452759 -0.7381608486175537 2.5787441730499268 18 18 18
-0.6616846919059753 -0.7802276611328125 2.6326189041137695 72 72 72
-0.6616846919059753 -0.7802276611328125 2.6326189041137695 72 72 72
-0.6620036363601685 0.5159606337547302 2.642341136932373 32 32 32
-0.6474922299385071 0.5392630696296692 2.6415953636169434 164 164 164
-0.6389325261116028 0.5645881295204163 2.6516494750976562 133 133 133
-0.6343792080879211 0.7431095838546753 2.6670145988464355 99 99 99
-0.6549307107925415 0.1705971658229828 2.82429575920105 131 131 131
-0.6208702921867371 0.7957161664962769 2.6783697605133057 101 101 101
-0.6127322912216187 0.740089476108551 2.678361177444458 111 111 111
-0.6014418005943298 0.2850227653980255 2.646913766860962 59 59 59
-0.6012186408042908 0.5016987919807434 2.65991473197937 107 107 107
-0.5766782164573669 -0.9050049185752869 2.5693299770355225 134 134 134
-0.5766782164573669 -0.9050049185752869 2.5693299770355225 134 134 134
-0.5540936589241028 -0.7291892170906067 2.48173451423645 68 68 68
-0.5761514902114868 0.4517074227333069 2.6826553344726562 16 16 16
-0.563175618648529 0.8154818415641785 2.7103285789489746 72 72 72
-0.563175618648529 0.8154818415641785 2.7103285789489746 72 72 72
-0.547775387763977 0.484485924243927 2.6919374465942383 98 98 98
-0.5457779765129089 0.6372115612030029 2.6967546939849854 130 130 130
-0.5408713221549988 0.7254607081413269 2.7143962383270264 131 131 131
-0.5400435328483582 -0.7625474333763123 2.710979700088501 24 24 24
-0.5437936782836914 -0.38482025265693665 2.7570502758026123 93 93 93
-0.5028252005577087 -0.9259593486785889 2.6093146800994873 106 106 106
-0.49712032079696655 -0.8512952327728271 2.593302011489868 122 122 122
-0.5049839615821838 0.5387110710144043 2.7091281414031982 149 149 149
-0.5051572918891907 0.5579988956451416 2.7167670726776123 125 125 125
-0.48933151364326477 0.5430322289466858 2.7228105068206787 101 101 101
-0.48674869537353516 0.6440778970718384 2.7335779666900635 134 134 134
-0.4444946348667145 0.7969261407852173 2.768188714981079 53 53 53
-0.4444946348667145 0.7969261407852173 2.768188714981079 53 53 53
-0.4252075254917145 -0.8658962845802307 2.6551804542541504 138 138 138
-0.4364526569843292 0.8113982677459717 2.7723135948181152 104 104 104
-0.4359535872936249 0.8795586824417114 2.7780001163482666 95 95 95
-0.43058034777641296 -0.718311071395874 2.7761576175689697 236 236 236
-0.39929360151290894 0.7736861109733582 2.792720079421997 107 107 107
-0.39929360151290894 0.7736861109733582 2.792720079421997 107 107 107
-0.38556262850761414 0.5341212749481201 2.781588315963745 137 137 137
-0.3844905197620392 0.34869661927223206 2.790109872817993 47 47 47
-0.372136652469635 0.5235781073570251 2.7899575233459473 13 13 13
-0.3682929277420044 0.5018377304077148 2.780369758605957 99 99 99
-0.3682929277420044 0.5018377304077148 2.780369758605957 99 99 99
-0.3692915141582489 0.6257560849189758 2.793137311935425 102 102 102
-0.3508739769458771 0.6851885318756104 2.7980265617370605 119 119 119
-0.3507751226425171 0.628309965133667 2.8067312240600586 46 46 46
-0.3507751226425171 0.628309965133667 2.8067312240600586 46 46 46
-0.33287525177001953 0.5158109068870544 2.8013360500335693 16 16 16
-0.31494349241256714 0.5517978668212891 2.815847396850586 122 122 122
-0.28755179047584534 0.5030134320259094 2.822951555252075 38 38 38
-0.2809205651283264 0.5693528056144714 2.839181900024414 57 57 57
-0.27346980571746826 0.709341824054718 2.8288626670837402 51 51 51
-0.25782591104507446 -0.9093002080917358 2.7500345706939697 90 90 90
-0.2493741661310196 0.5475767254829407 2.839296579360962 99 99 99
-0.18253560364246368 0.5610621571540833 2.884195566177368 82 82 82
-0.18889591097831726 -0.7022623419761658 2.987257242202759 225 225 225
-0.17676499485969543 0.31244462728500366 2.8714890480041504 179 179 179
-0.1756427139043808 0.38612058758735657 2.8784308433532715 52 52 52
-0.16439810395240784 0.3601648807525635 2.8886916637420654 111 111 111
-0.14667567610740662 0.45316609740257263 2.9043924808502197 44 44 44
-0.06922323256731033 0.8942733407020569 2.7437078952789307 44 44 44
-0.06882613897323608 0.7952558398246765 2.757540225982666 59 59 59
-0.06750933080911636 0.6017791032791138 2.94704532623291 83 83 83
-0.029034752398729324 0.5892053246498108 2.9720983505249023 99 99 99
-0.015614522621035576 0.6564090251922607 2.9814960956573486 61 61 61
0.3556036651134491 -0.7744956612586975 2.3729450702667236 83 83 83
0.379148930311203 -0.35440120100975037 2.427482843399048 39 39 39
0.4436536133289337 -0.754143476486206 2.381744146347046 32 32 32
