ply
format ascii 1.0
element vertex 68
property float x
property float y
property float z
property uchar red
property uchar green
property uchar blue
end_header
-1.0568927526474 -0.6940402388572693 2.29957914352417 204 204 204
-0.9714525938034058 0.1869865208864212 2.2915093898773193 121 121 121
-0.9466469883918762 0.17762060463428497 2.323406219482422 39 39 39
-0.9448630809783936 0.061517756432294846 2.3207473754882812 38 38 38
-0.9207909107208252 0.5564000010490417 2.2749764919281006 104 104 104
-0.9151389002799988 0.8815242648124695 2.276460886001587 72 72 72
-0.9373860955238342 -0.3389195501804352 2.374044895172119 159 159 159
-0.9373860955238342 -0.3389195501804352 2.374044895172119 159 159 159
-0.90260249376297 0.436707466840744 2.2916982173919678 115 115 115
-0.9103556871414185 0.17664030194282532 2.3358070850372314 28 28 28
-0.8857937455177307 0.460582435131073 2.2931854724884033 114 114 114
-0.918106198310852 -0.1613827645778656 2.4643514156341553 228 228 228
-0.8564392328262329 0.4418691396713257 2.3180596828460693 33 33 33
-0.9132240414619446 0.045937493443489075 2.499507427215576 50 50 50
-0.8331678509712219 0.6202428936958313 2.3133771419525146 109 109 109
-0.8331678509712219 0.6202428936958313 2.3133771419525146 109 109 109
-0.8326140642166138 0.44684749841690063 2.3131322860717773 24 24 24
-0.8949217796325684 -0.19075655937194824 2.493882417678833 10 10 10
-0.8244483470916748 0.48094442486763 2.3007144927978516 56 56 56
-0.8872178792953491 -0.050531093031167984 2.490422010421753 46 46 46
-0.8816260695457458 -0.28987178206443787 2.493093967437744 31 31 31
-0.8196629285812378 0.6765636801719666 2.3213086128234863 94 94 94
-0.8171406388282776 0.5040319561958313 2.3248860836029053 134 134 134
-0.819404661655426 0.22777202725410461 2.338862419128418 55 55 55
-0.8861974477767944 -0.12344066798686981 2.531707525253296 235 235 235
-0.8146890997886658 0.48479005694389343 2.3268990516662598 133 133 133
-0.807037353515625 0.30587315559387207 2.3335888385772705 26 26 26
-0.8064630627632141 0.4436495900154114 2.3329527378082275 55 55 55
-0.7868444919586182 0.5105583667755127 2.3285560607910156 38 38 38
-0.7801386117935181 0.6484220027923584 2.328054666519165 16 16 16
-0.7763689756393433 0.19681107997894287 2.3617501258850098 107 107 107
-0.8121798634529114 -0.3235287666320801 2.5203301906585693 43 43 43
-0.8121798634529114 -0.3235287666320801 2.5203301906585693 43 43 43
-0.8043701648712158 -0.322797566652298 2.5092337131500244 31 31 31
-0.7500529885292053 0.6259607672691345 2.350630283355713 91 91 91
-0.7993296384811401 -0.28608742356300354 2.5132267475128174 213 213 213
-0.7475777268409729 0.4769197404384613 2.358682155609131 121 121 121
-0.7379072308540344 0.6984251737594604 2.3572661876678467 90 90 90
-0.6963587999343872 0.44336777925491333 2.3756017684936523 33 33 33
-0.7361313700675964 -0.3359861969947815 2.5309150218963623 15 15 15
-0.6874305605888367 0.4665144085884094 2.3811261653900146 122 122 122
-0.7278319597244263 -0.09382662922143936 2.543520212173462 60 60 60
-0.7064318060874939 -0.3015543520450592 2.5517330169677734 6 6 6
-0.6526808738708496 0.6944926977157593 2.3837363719940186 94 94 94
-0.664600133895874 -1.1142510175704956 2.4558768272399902 130 130 130
-0.6491102576255798 0.23731723427772522 2.40236234664917 60 60 60
-0.6900710463523865 0.03081514500081539 2.555863618850708 254 254 254
-0.6463326215744019 0.43800362944602966 2.404390573501587 110 110 110
-0.6444603800773621 0.5624949336051941 2.3974084854125977 121 121 121
-0.6310814619064331 0.3321397602558136 2.3998405933380127 104 104 104
-0.6310814619064331 0.3321397602558136 2.3998405933380127 104 104 104
-0.6257563829421997 0.34260931611061096 2.3989129066467285 36 36 36
-0.6174474954605103 0.39340847730636597 2.4215545654296875 19 19 19
-0.6094281673431396 0.9118723273277283 2.4018311500549316 104 104 104
-0.6040058732032776 0.47599783539772034 2.4111716747283936 114 114 114
-0.5895089507102966 0.5641320943832397 2.422548770904541 132 132 132
-0.576892077922821 0.6387205719947815 2.413745880126953 115 115 115
-0.5637450814247131 0.19566868245601654 2.432011365890503 122 122 122
-0.5617427229881287 0.844550609588623 2.4303174018859863 108 108 108
-0.5568792819976807 0.16802096366882324 2.4330530166625977 68 68 68
-0.5518912672996521 0.5863085389137268 2.4360029697418213 133 133 133
-0.5465061068534851 0.4938814640045166 2.431541681289673 126 126 126
-0.5411797761917114 0.5194310545921326 2.4409372806549072 137 137 137
-0.4934934079647064 0.9173423051834106 2.4476637840270996 118 118 118
-0.4825679361820221 0.7149165272712708 2.457303285598755 52 52 52
-0.4825679361820221 0.7149165272712708 2.457303285598755 52 52 52
-0.4794265329837799 0.46837902069091797 2.4626049995422363 24 24 24
-0.47447872161865234 0.7281278967857361 2.45811128616333 109 109 109
