ply
format ascii 1.0
element vertex 83
property float x
property float y
property float z
property uchar red
property uchar green
property uchar blue
end_header
-1.5364110469818115 0.5370985269546509 3.402646541595459 67 67 67
-1.5950514078140259 1.9837590456008911 3.5333118438720703 11 11 11
-1.5799936056137085 1.7525495290756226 3.5052452087402344 13 13 13
-1.5030415058135986 -0.27110275626182556 3.343440532684326 66 66 66
-1.5232332944869995 0.45660117268562317 3.399243116378784 81 81 81
-1.509285807609558 0.15104886889457703 3.387834072113037 13 13 13
-1.4734143018722534 -0.6564521789550781 3.3256399631500244 22 22 22
-1.4784795045852661 -0.4142230451107025 3.3463897705078125 12 12 12
-1.4783881902694702 -0.2464292198419571 3.370948314666748 28 28 28
-1.413196086883545 -1.927510380744934 3.2416985034942627 66 66 66
-1.413196086883545 -1.927510380744934 3.2416985034942627 66 66 66
-1.4500948190689087 -0.6675155758857727 3.3301050662994385 99 99 99
-1.451195478439331 -0.6521061658859253 3.3400650024414062 21 21 21
-1.5014389753341675 0.5668421387672424 3.45751953125 17 17 17
-1.4977695941925049 0.5660650730133057 3.452936887741089 17 17 17
-1.440428376197815 -0.6340579390525818 3.3407154083251953 103 103 103
-1.417060375213623 0.19504345953464508 3.433194637298584 15 15 15
-1.4495638608932495 1.9737681150436401 3.589500904083252 11 11 11
-1.3505160808563232 -0.422706663608551 3.3923544883728027 110 110 110
-1.2586523294448853 -1.8971511125564575 3.2718114852905273 54 54 54
-1.3594725131988525 2.3712100982666016 3.6584322452545166 10 10 10
-1.2284562587738037 -1.9043002128601074 3.3214681148529053 86 86 86
-1.3431453704833984 2.382514238357544 3.6365549564361572 70 70 70
-1.2935587167739868 1.1003460884094238 3.5695624351501465 18 18 18
-1.2940750122070312 1.1271696090698242 3.5724165439605713 13 13 13
-1.3142552375793457 1.9846735000610352 3.6524534225463867 95 95 95
-1.2093740701675415 -0.8644921183586121 3.40447735786438 75 75 75
-1.2764081954956055 1.16234290599823 3.5978949069976807 14 14 14
-1.217565894126892 -0.6244115829467773 3.4357869625091553 24 24 24
-1.2480226755142212 0.35069018602371216 3.522916316986084 12 12 12
-1.2215298414230347 -0.4504714608192444 3.4617676734924316 14 14 14
-1.2394250631332397 0.1613435447216034 3.5138673782348633 13 13 13
-1.1991958618164062 -0.852968692779541 3.429351568222046 14 14 14
-1.1945431232452393 1.5885357856750488 3.66097092628479 17 17 17
-1.160193920135498 2.4076778888702393 3.7643184661865234 91 91 91
-1.076764464378357 -0.4292338490486145 3.5243992805480957 74 74 74
-1.014691948890686 -0.20774312317371368 3.5592103004455566 89 89 89
-1.0697435140609741 2.186363458633423 3.786041259765625 88 88 88
-1.0007966756820679 0.14962825179100037 3.6182706356048584 14 14 14
-0.986371636390686 -0.2700575888156891 3.569173574447632 83 83 83
-0.9641264081001282 -0.8320978879928589 3.5135889053344727 13 13 13
-0.9867464303970337 -0.03372225910425186 3.6005992889404297 11 11 11
-0.9732072949409485 -0.35222548246383667 3.559001922607422 84 84 84
-0.9756582379341125 -0.24646812677383423 3.585395336151123 16 16 16
-0.9403846859931946 -0.8305616974830627 3.5399370193481445 15 15 15
-0.9574795365333557 -0.22862674295902252 3.607623338699341 101 101 101
-0.8060508370399475 -1.6536659002304077 3.5270276069641113 16 16 16
-0.8351909518241882 2.1769587993621826 3.893841028213501 12 12 12
-0.7756076455116272 0.7519938349723816 3.7744810581207275 9 9 9
-0.7533552050590515 -0.03391537442803383 3.6813275814056396 13 13 13
-0.7501651048660278 0.33884379267692566 3.7273590564727783 53 53 53
-0.6952405571937561 -1.8634706735610962 3.563938856124878 9 9 9
-0.7178417444229126 -0.44080913066864014 3.6850101947784424 12 12 12
-0.6933263540267944 -1.8609167337417603 3.5601227283477783 8 8 8
-0.7010266184806824 -0.5943835973739624 3.670232057571411 13 13 13
-0.656883716583252 -1.4437713623046875 3.613081932067871 14 14 14
-0.5783280730247498 2.3924014568328857 4.024422645568848 70 70 70
-0.5652576684951782 1.7346560955047607 3.9321024417877197 11 11 11
-0.5657522082328796 1.9642854928970337 3.9980037212371826 13 13 13
-0.5531809329986572 1.5550212860107422 3.965522527694702 12 12 12
-0.5513246059417725 1.742897391319275 3.9713923931121826 11 11 11
-0.5044578313827515 0.14106346666812897 3.8247854709625244 61 61 61
-0.46754196286201477 0.49824097752571106 3.865670919418335 23 23 23
-0.4200707972049713 -1.0381053686141968 3.752768039703369 13 13 13
-0.4127759635448456 -0.2298523336648941 3.8368334770202637 17 17 17
-0.382620245218277 -0.6458686590194702 3.801582098007202 60 60 60
-0.335906058549881 2.3528897762298584 4.122923374176025 14 14 14
-0.2857653796672821 -0.42166414856910706 3.8874728679656982 12 12 12
-0.22205470502376556 -0.4342431128025055 3.8881824016571045 75 75 75
-0.20907388627529144 -0.425150990486145 3.908390522003174 15 15 15
-0.20305438339710236 -0.615919291973114 3.8861701488494873 12 12 12
-0.14498525857925415 -1.2820993661880493 3.8503267765045166 71 71 71
-0.005468203220516443 0.14496009051799774 4.061650276184082 48 48 48
0.04271990433335304 -0.6268789768218994 4.007789611816406 11 11 11
0.1376366764307022 -0.7840514779090881 4.025606155395508 63 63 63
0.22089432179927826 1.9602150917053223 4.384823799133301 10 10 10
0.3596682846546173 2.3787753582000732 4.452973365783691 67 67 67
0.6598013043403625 2.340662717819214 4.586717128753662 16 16 16
0.6688326597213745 0.5864999294281006 4.396482944488525 59 59 59
0.9084492325782776 2.367345094680786 4.708407402038574 82 82 82
1.1656850576400757 1.9282351732254028 4.775904655456543 9 9 9
1.2785053253173828 -0.2076413482427597 4.590193748474121 13 13 13
1.6963740587234497 0.5964442491531372 4.883683204650879 68 68 68
