ply
format ascii 1.0
element vertex 108
property float x
property float y
property float z
property uchar red
property uchar green
property uchar blue
end_header
-0.8556578159332275 -0.2638770341873169 1.8570576906204224 124 124 124
-0.8567495942115784 -0.21973417699337006 1.8651396036148071 115 115 115
-0.8310830593109131 -0.6265149116516113 1.8290882110595703 16 16 16
-0.8432972431182861 -0.2564191520214081 1.8594098091125488 122 122 122
-0.8246957063674927 -0.2665776014328003 1.875576376914978 22 22 22
-0.8249425292015076 -0.17234425246715546 1.8910622596740723 26 26 26
-0.8154663443565369 -0.15940691530704498 1.8953169584274292 130 130 130
-0.8057771325111389 0.03344208002090454 1.9264252185821533 99 99 99
-0.8101382255554199 0.2690442204475403 1.9589577913284302 12 12 12
-0.7802364826202393 0.1584574580192566 1.9567455053329468 52 52 52
-0.7681820392608643 -0.0683869794011116 1.935791254043579 20 20 20
-0.7649858593940735 0.04923344403505325 1.954475998878479 43 43 43
-0.7710404396057129 0.2952168583869934 1.9737720489501953 127 127 127
-0.7728027105331421 0.3435629904270172 1.9784059524536133 121 121 121
-0.7194846868515015 -0.3470298945903778 1.9149080514907837 117 117 117
-0.7194846868515015 -0.3470298945903778 1.9149080514907837 117 117 117
-0.7063601613044739 -0.6420114636421204 1.883565068244934 127 127 127
-0.6675348877906799 -0.8609543442726135 1.8714001178741455 82 82 82
-0.6612244248390198 -0.8560961484909058 1.8836193084716797 17 17 17
-0.6727780103683472 -0.41607967019081116 1.9273630380630493 120 120 120
-0.6594207882881165 -0.8498026132583618 1.9001742601394653 95 95 95
-0.643272340297699 -1.085624098777771 1.8704149723052979 24 24 24
-0.643272340297699 -1.085624098777771 1.8704149723052979 24 24 24
-0.6389583945274353 -0.6253242492675781 1.922890543937683 110 110 110
-0.6511872410774231 -0.26348069310188293 1.962329626083374 113 113 113
-0.6446828246116638 -0.40951573848724365 1.9463168382644653 29 29 29
-0.6570731401443481 -0.07163508981466293 1.9949617385864258 76 76 76
-0.6380773782730103 0.1579599678516388 2.0347015857696533 140 140 140
-0.6034387946128845 0.6065704226493835 2.1101386547088623 51 51 51
-0.5404239296913147 -1.0667592287063599 1.913469672203064 87 87 87
-0.5370472073554993 -0.9726375937461853 1.9234631061553955 30 30 30
-0.519999623298645 -1.0793026685714722 1.9134387969970703 23 23 23
-0.510304868221283 -0.5359299182891846 2.001774311065674 26 26 26
-0.4976148307323456 -0.5453844666481018 2.0082027912139893 115 115 115
-0.48176640272140503 -0.860122561454773 1.9645766019821167 43 43 43
-0.4964264929294586 -0.4230429232120514 2.0303587913513184 29 29 29
-0.4964264929294586 -0.4230429232120514 2.0303587913513184 29 29 29
-0.4711727797985077 -0.9742022752761841 1.9548587799072266 42 42 42
-0.4711727797985077 -0.9742022752761841 1.9548587799072266 42 42 42
-0.49305787682533264 -0.19514530897140503 2.057039260864258 48 48 48
-0.5013212561607361 0.3826434016227722 2.135803699493408 124 124 124
-0.4853762686252594 0.45904070138931274 2.161196708679199 19 19 19
-0.4395866394042969 -0.9837871193885803 1.9621057510375977 105 105 105
-0.4833153784275055 0.5845720767974854 2.1612393856048584 56 56 56
-0.4353962242603302 -0.9751595258712769 1.9691920280456543 26 26 26
-0.4353962242603302 -0.9751595258712769 1.9691920280456543 26 26 26
-0.4700731933116913 0.4975874423980713 2.1644508838653564 57 57 57
-0.43086814880371094 -0.8627186417579651 1.9908530712127686 58 58 58
-0.41523540019989014 -0.09181903302669525 2.0953218936920166 68 68 68
-0.3817829191684723 -0.9778136610984802 1.99477219581604 31 31 31
-0.3795360326766968 -0.965424120426178 1.9985121488571167 86 86 86
-0.3775777220726013 -0.7522780895233154 2.0182645320892334 70 70 70
-0.39892101287841797 0.3826741576194763 2.189101219177246 53 53 53
-0.3837372660636902 -0.004750226624310017 2.1447038650512695 130 130 130
-0.3780858814716339 -0.08303293585777283 2.1334166526794434 139 139 139
-0.3469213545322418 -1.1232028007507324 1.9944130182266235 111 111 111
-0.37449342012405396 0.19608432054519653 2.1821084022521973 163 163 163
-0.3428637981414795 -0.9788315296173096 2.01568865776062 46 46 46
-0.37571391463279724 0.48134633898735046 2.221553325653076 99 99 99
-0.37571391463279724 0.48134633898735046 2.221553325653076 99 99 99
-0.3382374346256256 -1.144018530845642 1.9957139492034912 124 124 124
-0.3465653955936432 -0.20160283148288727 2.1377310752868652 126 126 126
-0.3172819912433624 -1.1799484491348267 2.001161575317383 110 110 110
-0.31720951199531555 -1.179884672164917 2.0010688304901123 110 110 110
-0.3128993809223175 -0.8565120697021484 2.0449166297912598 34 34 34
-0.2888309955596924 -1.1197998523712158 2.028831958770752 104 104 104
-0.3127977252006531 0.5234596729278564 2.254476547241211 92 92 92
-0.2813102602958679 -0.9927186369895935 2.043383836746216 101 101 101
-0.2816255986690521 -0.9600923657417297 2.049201011657715 112 112 112
-0.29918956756591797 0.11645808070898056 2.216259717941284 24 24 24
-0.27119529247283936 -1.109259009361267 2.0349907875061035 114 114 114
-0.29161614179611206 0.20534276962280273 2.221907138824463 61 61 61
-0.2653575539588928 -1.079764723777771 2.050981044769287 104 104 104
-0.27463018894195557 -0.21561826765537262 2.17745304107666 39 39 39
-0.2125709056854248 -1.0252786874771118 2.078392744064331 52 52 52
-0.22697465121746063 0.3111763000488281 2.274608612060547 90 90 90
-0.20706498622894287 -0.45040857791900635 2.165950298309326 67 67 67
-0.20039190351963043 -0.7139995694160461 2.131838798522949 98 98 98
-0.21585600078105927 0.4358176290988922 2.308894634246826 16 16 16
-0.2034910023212433 -0.1129174530506134 2.2270760536193848 30 30 30
-0.18961556255817413 -1.006693959236145 2.0896949768066406 32 32 32
-0.18734616041183472 -0.9018710851669312 2.1091408729553223 115 115 115
-0.18764165043830872 -0.8782544732093811 2.11712908744812 38 38 38
-0.2014751136302948 0.4877930283546448 2.313877582550049 91 91 91
-0.17545194923877716 -0.9531219601631165 2.107383966445923 100 100 100
-0.18160495162010193 -0.13214796781539917 2.2306954860687256 110 110 110
-0.15881647169589996 -1.007765531539917 2.1090478897094727 77 77 77
-0.1584683507680893 -0.6716338992118835 2.170905828475952 26 26 26
-0.16453273594379425 -0.11468154191970825 2.2546541690826416 39 39 39
-0.14987628161907196 -1.023406744003296 2.109138250350952 40 40 40
-0.1577240526676178 0.23885446786880493 2.2963318824768066 122 122 122
-0.1445927917957306 -0.11579563468694687 2.2615244388580322 37 37 37
-0.1441413015127182 0.2353159785270691 2.31669020652771 40 40 40
-0.13430850207805634 -0.6592622399330139 2.1768083572387695 91 91 91
-0.13404470682144165 -0.08677726984024048 2.272033929824829 106 106 106
-0.12420836836099625 -0.4526524543762207 2.2155184745788574 53 53 53
-0.11395062506198883 0.23889778554439545 2.332998275756836 56 56 56
-0.09847359359264374 -1.0843499898910522 2.1234498023986816 82 82 82
-0.09892568737268448 -1.0037591457366943 2.1454389095306396 91 91 91
-0.09829852730035782 -0.6756664514541626 2.1982688903808594 28 28 28
-0.09903064370155334 -0.5625131726264954 2.213905096054077 27 27 27
-0.09278956800699234 -0.8756440281867981 2.1655311584472656 88 88 88
-0.09418778121471405 -0.46146249771118164 2.2420005798339844 23 23 23
-0.08710158616304398 -0.9807373285293579 2.1514580249786377 127 127 127
-0.07795488089323044 -0.7299536466598511 2.1969804763793945 96 96 96
-0.06695742905139923 -1.0827511548995972 2.1206424236297607 56 56 56
-0.0530102364718914 -0.6625296473503113 2.218435049057007 93 93 93
-0.04695834964513779 -0.09701665490865707 2.3132483959198 49 49 49
