ply
format ascii 1.0
element vertex 120
property float x
property float y
property float z
property uchar red
property uchar green
property uchar blue
end_header
-1.940816044807434 0.8905339241027832 4.254836559295654 99 99 99
-1.900482416152954 0.5297582745552063 4.226624965667725 131 131 131
-1.900482416152954 0.5297582745552063 4.226624965667725 131 131 131
-1.91124427318573 0.7281194925308228 4.259636878967285 29 29 29
-1.8421465158462524 0.7860226631164551 4.278512001037598 99 99 99
-1.766615390777588 0.45911672711372375 4.3832621574401855 80 80 80
-1.7401881217956543 1.361372470855713 4.384172439575195 24 24 24
-1.685562014579773 1.8506669998168945 4.464375019073486 85 85 85
-1.6312426328659058 1.0144284963607788 4.36293888092041 116 116 116
-1.648650884628296 0.3962782323360443 4.432511329650879 86 86 86
-1.6099786758422852 0.9139406085014343 4.352065086364746 58 58 58
-1.6099786758422852 0.9139406085014343 4.352065086364746 58 58 58
-1.5713911056518555 0.9754408001899719 4.38072395324707 118 118 118
-1.9057166576385498 0.1536782830953598 5.3197431564331055 59 59 59
-1.5929337739944458 1.7368779182434082 4.478725910186768 74 74 74
-1.4227842092514038 -1.6096575260162354 4.050665378570557 121 121 121
-1.4350268840789795 -1.376389503479004 4.089310169219971 135 135 135
-1.5687401294708252 0.4358949065208435 4.518581390380859 28 28 28
-1.8543258905410767 0.21584177017211914 5.3880720138549805 157 157 157
-1.5636889934539795 -1.066035509109497 4.5705437660217285 22 22 22
-1.5088927745819092 1.1139023303985596 4.418801307678223 88 88 88
-1.492539644241333 0.9256218671798706 4.383763790130615 39 39 39
-1.8114573955535889 0.0807722806930542 5.341549873352051 254 254 254
-1.7137846946716309 -0.5666545629501343 5.146234035491943 33 33 33
-1.6996805667877197 -0.5609281659126282 5.103975296020508 33 33 33
-1.6130385398864746 -0.793278694152832 4.848188877105713 28 28 28
-1.4765647649765015 1.2830249071121216 4.443279266357422 111 111 111
-1.355602502822876 -1.502070426940918 4.079052448272705 135 135 135
-1.4551191329956055 1.0639959573745728 4.414179801940918 35 35 35
-1.3434861898422241 -1.491021752357483 4.0837578773498535 133 133 133
-1.4743893146514893 1.51739501953125 4.494570732116699 77 77 77
-1.4743893146514893 1.51739501953125 4.494570732116699 77 77 77
-1.4320347309112549 1.1472985744476318 4.434405326843262 114 114 114
-1.4254286289215088 1.0449905395507812 4.420986652374268 146 146 146
-1.4265539646148682 1.0108997821807861 4.433037757873535 125 125 125
-1.3974463939666748 0.659386932849884 4.404024600982666 23 23 23
-1.2236123085021973 -1.020614743232727 3.863276481628418 24 24 24
-1.3751351833343506 1.7262911796569824 4.5303850173950195 94 94 94
-1.3459270000457764 -0.6398487091064453 4.451657772064209 30 30 30
-1.4009257555007935 -0.8637867569923401 4.642845153808594 29 29 29
-1.6121703386306763 0.11662158370018005 5.363675594329834 254 254 254
-1.6104366779327393 0.007787423208355904 5.376116752624512 241 241 241
-1.5924819707870483 0.27454644441604614 5.3350043296813965 178 178 178
-1.5401912927627563 -0.5227884650230408 5.285228252410889 247 247 247
-1.3059849739074707 1.2768604755401611 4.496601581573486 104 104 104
-1.2889293432235718 0.9793398380279541 4.469672203063965 118 118 118
-1.0103880167007446 -0.6065621972084045 3.5173304080963135 61 61 61
-1.2979134321212769 1.4230765104293823 4.539618968963623 92 92 92
-1.2966532707214355 1.8383746147155762 4.588540077209473 99 99 99
-1.2966532707214355 1.8383746147155762 4.588540077209473 99 99 99
-1.2453689575195312 0.9561432600021362 4.477424621582031 129 129 129
-0.9462457895278931 -0.5882024168968201 3.4134907722473145 53 53 53
-1.2378456592559814 1.031002402305603 4.478938102722168 121 121 121
-1.4571038484573364 -0.5106696486473083 5.280001163482666 36 36 36
-1.2287923097610474 1.0205289125442505 4.465881824493408 124 124 124
-1.2213969230651855 0.7942559719085693 4.48519229888916 93 93 93
-0.8879270553588867 -0.5719610452651978 3.3190577030181885 52 52 52
-1.198607087135315 0.9093703627586365 4.51323127746582 35 35 35
-1.1926031112670898 0.9094244837760925 4.502178192138672 35 35 35
-1.1926031112670898 0.9094244837760925 4.502178192138672 35 35 35
-1.150729775428772 -1.3010296821594238 4.388887882232666 77 77 77
-1.16376793384552 0.9483403563499451 4.489516735076904 133 133 133
-1.1832460165023804 1.818701982498169 4.604170322418213 94 94 94
-1.0496211051940918 -1.1685030460357666 4.091867446899414 19 19 19
-1.1555166244506836 0.996015727519989 4.522130966186523 134 134 134
-1.1493040323257446 1.3072412014007568 4.55960750579834 106 106 106
-1.1223630905151367 1.397456169128418 4.574177265167236 103 103 103
-1.101312518119812 0.8723827600479126 4.52480411529541 115 115 115
-1.1081043481826782 1.3018509149551392 4.5712666511535645 114 114 114
-1.0749151706695557 0.5078083872795105 4.466300964355469 57 57 57
-1.0891895294189453 0.887387752532959 4.526988983154297 83 83 83
-1.0862524509429932 1.0313689708709717 4.53909158706665 126 126 126
-0.9954499006271362 -1.4894262552261353 4.204867839813232 134 134 134
-0.9026864767074585 -1.0854169130325317 3.815636157989502 21 21 21
-1.0779131650924683 -0.7773491740226746 4.560825824737549 56 56 56
-0.9794836044311523 -1.7526265382766724 4.1625075340271 123 123 123
-0.9855828285217285 0.8562091588973999 4.559399127960205 101 101 101
-0.982101321220398 1.1180973052978516 4.570669174194336 129 129 129
-0.9918591976165771 0.44411441683769226 4.67931604385376 117 117 117
-0.9918591976165771 0.44411441683769226 4.67931604385376 117 117 117
-0.8508285284042358 -1.3948619365692139 4.208301067352295 118 118 118
-0.908099353313446 0.9839063286781311 4.595463752746582 125 125 125
-0.882055401802063 0.9585532546043396 4.607438087463379 141 141 141
-0.857558012008667 1.1309839487075806 4.651848316192627 121 121 121
-0.8303050398826599 1.2941153049468994 4.670062065124512 123 123 123
-0.8016207218170166 1.4017834663391113 4.694808483123779 54 54 54
-0.8016207218170166 1.4017834663391113 4.694808483123779 54 54 54
-0.7270559668540955 -1.4220421314239502 4.312605857849121 142 142 142
-0.7933580279350281 1.4310097694396973 4.7162041664123535 106 106 106
-0.7903839349746704 1.4302639961242676 4.709310054779053 106 106 106
-0.7834763526916504 0.2498752325773239 4.880430698394775 235 235 235
-0.7263689637184143 1.3691041469573975 4.748462677001953 109 109 109
-0.6965945959091187 0.6263826489448547 4.723062515258789 48 48 48
-0.6619610786437988 1.1018226146697998 4.70610237121582 119 119 119
-0.6359886527061462 1.212486743927002 4.7303466796875 101 101 101
-0.6327670216560364 1.111361026763916 4.741648197174072 48 48 48
-0.6001428365707397 0.9154447913169861 4.718292236328125 1 1 1
-0.5672521591186523 0.978594958782196 4.743499755859375 121 121 121
-0.5133100152015686 0.8904740214347839 4.732869625091553 37 37 37
-0.5038632750511169 1.0075677633285522 4.777479648590088 60 60 60
-0.4875587224960327 0.9735843539237976 4.787628173828125 100 100 100
-0.4875587224960327 0.9735843539237976 4.787628173828125 100 100 100
-0.42421576380729675 -1.4827487468719482 4.4129791259765625 95 95 95
-0.4427342414855957 0.9668944478034973 4.7489213943481445 99 99 99
-0.43154799938201904 0.5805636644363403 4.745729446411133 49 49 49
-0.34370818734169006 0.6887962222099304 4.802884101867676 92 92 92
-0.34370818734169006 0.6887962222099304 4.802884101867676 92 92 92
-0.3099792003631592 -1.4028165340423584 4.473230361938477 93 93 93
-0.3244022727012634 0.9969087243080139 4.835499286651611 94 94 94
-0.3118453621864319 0.5605525970458984 4.7870683670043945 72 72 72
-0.3024004399776459 0.7281008362770081 4.827168941497803 97 97 97
-0.2860848605632782 1.0135122537612915 4.899293899536133 113 113 113
-0.27988165616989136 -1.1655099391937256 4.880611419677734 226 226 226
-0.2710106670856476 1.386456847190857 4.877688884735107 118 118 118
-0.16379360854625702 1.574278712272644 4.567951679229736 51 51 51
-0.1559932976961136 1.396338701248169 4.576034069061279 55 55 55
-0.13319215178489685 1.5309163331985474 4.45126485824585 47 47 47
-0.1171133816242218 1.0723997354507446 4.9426679611206055 87 87 87
-0.03232652693986893 0.7743606567382812 4.9674859046936035 20 20 20
0.0063888500444591045 1.3370705842971802 4.756836414337158 118 118 118
