ply
format ascii 1.0
element vertex 127
property float x
property float y
property float z
property uchar red
property uchar green
property uchar blue
end_header
-4.5109405517578125 -1.7067352533340454 9.674179077148438 78 78 78
-4.558423042297363 -2.3295881748199463 9.813522338867188 16 16 16
-4.451782703399658 -1.9126688241958618 9.715523719787598 19 19 19
-4.449551582336426 -2.1168179512023926 9.874800682067871 19 19 19
-4.475010395050049 -2.4177169799804688 10.131684303283691 68 68 68
-4.433231830596924 -2.246720552444458 10.115625381469727 118 118 118
-4.4455766677856445 -2.0883562564849854 10.15601634979248 75 75 75
-4.4365997314453125 -1.9189229011535645 10.156682014465332 120 120 120
-4.411219120025635 -2.4434196949005127 10.361974716186523 36 36 36
-4.437868118286133 -2.178758144378662 10.49284553527832 38 38 38
-4.36956262588501 -2.7950119972229004 10.520431518554688 137 137 137
-4.36956262588501 -2.7950119972229004 10.520431518554688 137 137 137
-4.361820220947266 -3.0450427532196045 10.668787956237793 133 133 133
-4.434864044189453 -2.3344645500183105 11.017951965332031 181 181 181
-4.426554203033447 -2.4782214164733887 11.080113410949707 28 28 28
-4.431923866271973 0.7528960704803467 11.182101249694824 43 43 43
-4.319429874420166 0.9981201887130737 10.920073509216309 13 13 13
-4.335387229919434 -1.93375563621521 11.13851261138916 92 92 92
-4.3150315284729 0.8673118352890015 11.213186264038086 49 49 49
-4.283231735229492 -1.0538315773010254 11.24006175994873 69 69 69
-4.326003074645996 0.7547003626823425 11.387951850891113 41 41 41
-4.28039026260376 -0.7129107117652893 11.287875175476074 61 61 61
-4.2500901222229 -0.1294121891260147 11.355359077453613 45 45 45
-4.2297797203063965 0.2030089795589447 11.37434196472168 50 50 50
-4.195423126220703 0.5455259680747986 11.380743980407715 25 25 25
-4.189300537109375 0.2323068231344223 11.409876823425293 39 39 39
-4.155318260192871 0.20730237662792206 11.49068832397461 91 91 91
-3.9456849098205566 -2.801597833633423 12.150042533874512 25 25 25
-4.043359756469727 -2.2213008403778076 13.200486183166504 23 23 23
-3.9469072818756104 -2.446347951889038 12.937946319580078 22 22 22
-3.9514198303222656 -1.9333446025848389 13.022040367126465 25 25 25
-3.9522857666015625 -1.7009435892105103 13.07465648651123 26 26 26
-3.960815191268921 -1.4911887645721436 13.134703636169434 26 26 26
-3.9442672729492188 0.5874363780021667 13.131380081176758 92 92 92
-3.94173264503479 -1.2214525938034058 13.137516021728516 25 25 25
-3.9056031703948975 -2.416038990020752 13.080537796020508 100 100 100
-3.9056031703948975 -2.416038990020752 13.080537796020508 100 100 100
-3.9585938453674316 -1.007948637008667 13.261122703552246 31 31 31
-3.9390130043029785 -0.7258096933364868 13.235020637512207 29 29 29
-3.9390130043029785 -0.7258096933364868 13.235020637512207 29 29 29
-3.8856914043426514 0.4361485540866852 13.357405662536621 29 29 29
-3.4968717098236084 -0.35272422432899475 12.149063110351562 66 66 66
-3.8332812786102295 -2.0970585346221924 13.487183570861816 170 170 170
-3.7852752208709717 -2.2874691486358643 13.701050758361816 196 196 196
-3.787527322769165 -1.2896145582199097 13.88290023803711 28 28 28
-3.785160779953003 -2.7954819202423096 13.908393859863281 24 24 24
-3.735172986984253 -2.377105474472046 13.857275009155273 118 118 118
-3.5884809494018555 -1.1601629257202148 14.939387321472168 28 28 28
-3.5485236644744873 -0.3598799407482147 14.945221900939941 30 30 30
-3.4814612865448 -2.7566874027252197 15.607498168945312 33 33 33
-3.452507734298706 -3.1351516246795654 15.948705673217773 138 138 138
-3.452507734298706 -3.1351516246795654 15.948705673217773 138 138 138
-3.442436456680298 -3.088412046432495 16.253801345825195 77 77 77
-3.369035005569458 -1.901164174079895 16.183788299560547 98 98 98
-2.7026662826538086 -3.880679130554199 13.002806663513184 59 59 59
-2.7553107738494873 -3.433478593826294 13.817066192626953 251 251 251
-3.132760763168335 -2.5779407024383545 15.977415084838867 31 31 31
-3.2496497631073 -1.978867769241333 16.89273452758789 191 191 191
-3.2298076152801514 -1.7673406600952148 16.877685546875 117 117 117
-3.235013484954834 -2.925830364227295 16.941577911376953 34 34 34
-2.6970713138580322 -3.326741933822632 14.45181655883789 112 112 112
-2.904362678527832 -2.7849392890930176 15.947861671447754 43 43 43
-2.904362678527832 -2.7849392890930176 15.947861671447754 43 43 43
-3.107774019241333 -1.3440327644348145 17.087966918945312 133 133 133
-3.0414516925811768 -1.4733645915985107 16.86764907836914 47 47 47
-2.9545629024505615 -1.657780408859253 16.930160522460938 145 145 145
-2.9545629024505615 -1.657780408859253 16.930160522460938 145 145 145
-3.0101382732391357 -2.190119981765747 17.265180587768555 57 57 57
-2.6784398555755615 -3.0693883895874023 15.45101547241211 149 149 149
-2.84421443939209 -1.6212570667266846 16.961854934692383 27 27 27
-2.910280227661133 -2.388803243637085 17.482982635498047 19 19 19
-2.910280227661133 -2.388803243637085 17.482982635498047 19 19 19
-2.703221082687378 -2.885638952255249 16.268892288208008 172 172 172
-2.6875953674316406 -0.7321785688400269 16.81979751586914 95 95 95
-2.6868367195129395 -1.6223359107971191 16.96693229675293 30 30 30
-2.530670642852783 -0.8993353247642517 16.523801803588867 153 153 153
-2.522048234939575 -1.1892280578613281 16.53266716003418 55 55 55
-2.573061227798462 -1.662172794342041 16.891462326049805 158 158 158
-2.4821557998657227 -1.1782453060150146 16.347272872924805 52 52 52
-2.478931427001953 -1.0629326105117798 16.624366760253906 116 116 116
-1.6546729803085327 0.06825581192970276 11.434616088867188 168 168 168
-1.6241445541381836 0.14502084255218506 11.259852409362793 21 21 21
-2.4107766151428223 -1.493526816368103 16.71053695678711 19 19 19
-2.387247085571289 -1.2924450635910034 16.61171531677246 19 19 19
-2.280573844909668 -0.9993215799331665 16.36970329284668 56 56 56
-2.2163898944854736 -1.325394630432129 16.691082000732422 17 17 17
-2.0498046875 -1.1498026847839355 16.593473434448242 21 21 21
-1.9075292348861694 -0.5861973762512207 15.511747360229492 130 130 130
-1.2966200113296509 0.06015385314822197 11.103760719299316 135 135 135
-1.1381162405014038 1.593791127204895 10.915440559387207 95 95 95
-1.109423041343689 -0.009854319505393505 11.17404842376709 4 4 4
-1.109423041343689 -0.009854319505393505 11.17404842376709 4 4 4
-1.063344955444336 1.686874508857727 10.983186721801758 19 19 19
-0.7018422484397888 1.790107011795044 10.901342391967773 16 16 16
-0.38936829566955566 3.877459764480591 7.028048038482666 122 122 122
-0.2855474352836609 4.089221954345703 6.648542404174805 48 48 48
-0.2822569012641907 4.113297939300537 6.612941265106201 44 44 44
0.06857354193925858 -0.9126796126365662 7.76170015335083 21 21 21
0.4306762218475342 -0.5854927897453308 5.362721920013428 118 118 118
0.49510887265205383 0.9247339963912964 5.587349891662598 120 120 120
0.572108268737793 -1.597097635269165 5.272984504699707 96 96 96
0.6463350653648376 -2.174206495285034 5.238211154937744 110 110 110
0.6820068359375 -1.4358652830123901 5.307823181152344 51 51 51
0.673357367515564 -2.515204429626465 5.1844611167907715 33 33 33
0.673357367515564 -2.515204429626465 5.1844611167907715 33 33 33
0.713939905166626 -1.19539475440979 5.326171875 64 64 64
0.7345502972602844 -0.5699504613876343 5.398446083068848 49 49 49
0.7326342463493347 -0.9519922137260437 5.3712544441223145 38 38 38
0.7364041209220886 -1.2386020421981812 5.3436665534973145 145 145 145
0.7388117909431458 -1.2700251340866089 5.347486972808838 32 32 32
0.7808402180671692 -0.004277542233467102 5.438368797302246 127 127 127
0.7474092245101929 -2.9172768592834473 5.114339828491211 54 54 54
0.8031200766563416 -0.030092556029558182 5.488576889038086 31 31 31
0.8222079277038574 0.27851104736328125 5.486743927001953 37 37 37
0.7902578115463257 -1.82065749168396 5.223586082458496 153 153 153
0.8450356721878052 0.8887717723846436 5.578967571258545 42 42 42
0.774986207485199 -2.8519153594970703 5.102184772491455 156 156 156
0.9035897254943848 3.0080454349517822 5.870354175567627 31 31 31
0.7797315120697021 -2.941128969192505 5.057801246643066 206 206 206
0.8589311242103577 0.6075295209884644 5.501481533050537 131 131 131
0.933078944683075 3.559922933578491 5.861706733703613 29 29 29
0.933078944683075 3.559922933578491 5.861706733703613 29 29 29
0.89491868019104 1.3418413400650024 5.587112903594971 120 120 120
0.9149917364120483 2.011265277862549 5.6715898513793945 111 111 111
0.9031874537467957 -2.8659262657165527 5.043970584869385 54 54 54
0.9530846476554871 -2.7605772018432617 5.071126461029053 162 162 162
0.985977053642273 -2.581692695617676 5.073975086212158 100 100 100
