ply
format ascii 1.0
element vertex 70
property float x
property float y
property float z
property uchar red
property uchar green
property uchar blue
end_header
-2.2829058170318604 -1.2594053745269775 4.644260406494141 26 26 26
-2.2482306957244873 -1.046735405921936 4.6770806312561035 120 120 120
-1.8441082239151 -1.9075573682785034 3.913304567337036 37 37 37
-2.3356547355651855 -0.1718047559261322 4.960022926330566 25 25 25
-2.353414297103882 0.4268018901348114 5.013148307800293 99 99 99
-2.215186357498169 -1.0182416439056396 4.752000331878662 131 131 131
-2.08459734916687 -1.647539734840393 4.496277332305908 126 126 126
-1.985398769378662 -1.7212696075439453 4.287837982177734 40 40 40
-1.985398769378662 -1.7212696075439453 4.287837982177734 40 40 40
-2.1470255851745605 -1.3595958948135376 4.654067516326904 112 112 112
-2.295438051223755 0.4399159252643585 5.026017665863037 99 99 99
-2.251537561416626 -0.26883697509765625 4.938435077667236 98 98 98
-2.1755268573760986 -1.0753644704818726 4.784401893615723 126 126 126
-2.2578072547912598 0.7819624543190002 4.983928203582764 84 84 84
-2.1453981399536133 -1.0019598007202148 4.755304336547852 122 122 122
-2.243701457977295 0.4640568494796753 4.989686489105225 85 85 85
-1.1713742017745972 -1.6039522886276245 2.623896598815918 53 53 53
-2.065702438354492 -1.1298829317092896 4.77681827545166 73 73 73
-2.1322455406188965 -0.41302409768104553 5.012855052947998 51 51 51
-2.103710174560547 -0.6154646873474121 4.949700355529785 57 57 57
-2.1456058025360107 -0.21398529410362244 5.108992576599121 52 52 52
-1.853190541267395 -1.9478271007537842 4.419034004211426 51 51 51
-1.7378840446472168 -2.1116600036621094 4.174100875854492 117 117 117
-2.0669538974761963 -0.9423463344573975 4.967391490936279 46 46 46
-2.0669538974761963 -0.9423463344573975 4.967391490936279 46 46 46
-1.8756799697875977 -1.9282604455947876 4.513411521911621 147 147 147
-2.055257558822632 0.45023930072784424 4.988151550292969 49 49 49
-1.7962801456451416 -1.9273842573165894 4.368056774139404 177 177 177
-2.0602121353149414 0.37236443161964417 5.052539348602295 35 35 35
-1.773792028427124 -1.9111390113830566 4.388051509857178 58 58 58
-2.032205581665039 -0.5293458104133606 5.099909782409668 128 128 128
-1.7546802759170532 -1.900995135307312 4.426111698150635 57 57 57
-2.0160787105560303 -0.1269514262676239 5.12585973739624 120 120 120
-2.0059196949005127 0.009310847148299217 5.106932640075684 115 115 115
-1.984140396118164 0.7654433846473694 5.152042865753174 103 103 103
-2.0119428634643555 0.289111465215683 5.275661468505859 125 125 125
-6.8894267082214355 -4.205125331878662 18.285480499267578 139 139 139
-1.7350445985794067 -0.23272576928138733 5.443115234375 21 21 21
-1.6979830265045166 0.20633305609226227 5.378121852874756 30 30 30
-1.678279161453247 0.23376800119876862 5.376674175262451 214 214 214
-1.6593348979949951 0.2544132471084595 5.393538475036621 50 50 50
-1.6513789892196655 0.2046162486076355 5.378468036651611 57 57 57
-1.6721619367599487 -0.38712456822395325 5.451387405395508 130 130 130
-1.661075234413147 0.14208030700683594 5.452948570251465 124 124 124
-1.6389739513397217 0.2725509703159332 5.3998637199401855 115 115 115
-1.6356836557388306 0.44034773111343384 5.408130168914795 106 106 106
-1.6431949138641357 -0.06480084359645844 5.458071708679199 124 124 124
-1.6438504457473755 0.07364682853221893 5.464056968688965 123 123 123
-1.6311218738555908 -0.6301791667938232 5.424293518066406 63 63 63
-1.6370373964309692 -0.40052759647369385 5.4878106117248535 52 52 52
-1.6238288879394531 0.14287284016609192 5.470089435577393 57 57 57
-1.5922739505767822 -0.2258407175540924 5.432112693786621 146 146 146
-1.602002739906311 -0.005095432512462139 5.501319885253906 50 50 50
-1.5851367712020874 0.23342956602573395 5.485213756561279 48 48 48
-1.5505763292312622 -0.02510455623269081 5.465735912322998 131 131 131
-1.5074491500854492 -0.1358995884656906 5.469368934631348 37 37 37
-1.4887540340423584 -0.17710228264331818 5.4458112716674805 108 108 108
-1.4383560419082642 -0.06454010307788849 5.382619380950928 135 135 135
-1.4281708002090454 -0.11873838305473328 5.397241115570068 73 73 73
-1.4077842235565186 0.0354899987578392 5.317325115203857 121 121 121
-1.400221586227417 -0.013803120702505112 5.306327819824219 127 127 127
-1.4183584451675415 0.1370154619216919 5.447038650512695 108 108 108
-1.4039437770843506 -0.022996174171566963 5.436375617980957 28 28 28
-1.3904920816421509 -0.21844196319580078 5.3874335289001465 145 145 145
-1.3822544813156128 -0.15746954083442688 5.36229133605957 130 130 130
-1.398686408996582 -0.06921927630901337 5.526799201965332 30 30 30
-1.3528006076812744 -0.04774743318557739 5.421132564544678 35 35 35
-1.3518776893615723 0.00014732505951542407 5.4553914070129395 105 105 105
-1.324164867401123 -0.2169577032327652 5.364254951477051 150 150 150
-1.2954672574996948 -0.04414277896285057 5.425152778625488 111 111 111
