ply
format ascii 1.0
element vertex 298
property float x
property float y
property float z
property uchar red
property uchar green
property uchar blue
end_header
-1.3464455604553223 -1.839995265007019 4.0106024742126465 139 139 139
-1.0237761735916138 -1.5499379634857178 3.532006025314331 136 136 136
-1.4848392009735107 2.5537662506103516 5.513960838317871 87 87 87
-1.3036127090454102 -1.6667131185531616 4.9539337158203125 40 40 40
-1.2647072076797485 -1.645682692527771 4.886451721191406 44 44 44
-1.222148060798645 -1.6387913227081299 4.913454055786133 159 159 159
-1.202933669090271 -1.715861439704895 4.91394567489624 38 38 38
-1.045760154724121 -1.878377914428711 4.527316093444824 67 67 67
-1.0333871841430664 -2.338047742843628 4.47715425491333 104 104 104
-1.1086913347244263 -1.6948716640472412 4.903974533081055 157 157 157
-1.0902559757232666 -1.7568854093551636 4.889377593994141 40 40 40
-1.1115059852600098 0.16682688891887665 5.06729793548584 124 124 124
-1.047377347946167 -1.8511381149291992 4.831523418426514 24 24 24
-1.0303560495376587 -1.7860921621322632 4.899471759796143 108 108 108
-1.0805970430374146 2.5848522186279297 5.123529434204102 106 106 106
-1.0451923608779907 -0.4559761881828308 5.0541462898254395 21 21 21
-0.9844823479652405 -1.5382556915283203 4.912354946136475 84 84 84
-0.9845011234283447 -1.393797755241394 4.936244487762451 78 78 78
-1.0462726354599 1.1883500814437866 5.2655253410339355 117 117 117
-0.9521006941795349 -1.8972795009613037 4.834433078765869 25 25 25
-1.0540039539337158 2.0513529777526855 5.339944362640381 20 20 20
-1.0549226999282837 2.5087053775787354 5.360802173614502 29 29 29
-0.9705593585968018 -0.6658629775047302 4.967620372772217 65 65 65
-1.0256078243255615 2.5667927265167236 5.226531982421875 95 95 95
-0.9576740264892578 0.045113034546375275 5.0255208015441895 54 54 54
-0.9622108340263367 0.2351130247116089 5.056982517242432 89 89 89
-0.9597653746604919 0.7524279952049255 5.120319366455078 36 36 36
-0.9597653746604919 0.7524279952049255 5.120319366455078 36 36 36
-0.9823234677314758 1.718834638595581 5.28593111038208 39 39 39
-0.9640833139419556 1.4257029294967651 5.221264839172363 50 50 50
-0.8840295076370239 -1.9141826629638672 4.862907886505127 30 30 30
-0.8840295076370239 -1.9141826629638672 4.862907886505127 30 30 30
-0.8970285058021545 -0.4038448631763458 4.943781852722168 59 59 59
-0.8686150312423706 -2.41321063041687 4.805068492889404 37 37 37
-0.8541436791419983 -2.3612866401672363 4.7785868644714355 58 58 58
-0.8726849555969238 -0.5931590795516968 4.893768787384033 98 98 98
-0.8697863221168518 -0.8138885498046875 4.900406360626221 22 22 22
-0.8754755258560181 -0.44417840242385864 4.941783428192139 20 20 20
-0.863173246383667 -1.028004765510559 4.879679203033447 116 116 116
-0.863173246383667 -1.028004765510559 4.879679203033447 116 116 116
-0.8555789589881897 -1.6123970746994019 4.84896183013916 116 116 116
-0.8588226437568665 -0.9302260279655457 4.907143592834473 130 130 130
-0.8588226437568665 -0.9302260279655457 4.907143592834473 130 130 130
-0.8536807298660278 -0.7704131007194519 4.908580303192139 124 124 124
-0.8816635012626648 0.9945446848869324 5.1130475997924805 25 25 25
-0.827826738357544 -1.7864891290664673 4.801233291625977 133 133 133
-0.8569376468658447 -0.05237342417240143 4.981354713439941 130 130 130
-0.8633343577384949 0.8653989434242249 5.099083423614502 115 115 115
-0.8430857062339783 0.39919671416282654 5.011909484863281 149 149 149
-0.8462404608726501 0.2708147168159485 5.042928695678711 29 29 29
-0.8579946160316467 1.028745412826538 5.116464614868164 115 115 115
-0.9035882353782654 2.4707672595977783 5.538544654846191 44 44 44
-0.8176025152206421 0.3671664297580719 5.046258449554443 120 120 120
-0.8221983909606934 0.26613834500312805 5.106413841247559 11 11 11
-0.8263245224952698 1.0476863384246826 5.152385234832764 115 115 115
-0.8374163508415222 1.7540122270584106 5.220797538757324 94 94 94
-0.762027382850647 -2.4267196655273438 4.976634502410889 34 34 34
-0.7804909944534302 -0.33627569675445557 5.1124162673950195 83 83 83
-0.7804909944534302 -0.33627569675445557 5.1124162673950195 83 83 83
-0.8007637858390808 1.4646186828613281 5.259848117828369 106 106 106
-0.8007637858390808 1.4646186828613281 5.259848117828369 106 106 106
-0.7474240660667419 1.3387070894241333 5.384354591369629 36 36 36
-0.7474240660667419 1.3387070894241333 5.384354591369629 36 36 36
-0.7516459226608276 1.6988412141799927 5.428490161895752 23 23 23
-0.7516459226608276 1.6988412141799927 5.428490161895752 23 23 23
-0.7241836190223694 0.4304265081882477 5.270143985748291 26 26 26
-0.7407119274139404 1.5135204792022705 5.40344762802124 124 124 124
-0.6476319432258606 -0.5752659440040588 5.29552698135376 129 129 129
-0.622925877571106 -1.7123546600341797 5.271533489227295 130 130 130
-0.6331225633621216 1.1556965112686157 5.55659818649292 128 128 128
-0.5623315572738647 -2.4509639739990234 5.309425354003906 34 34 34
-0.577255368232727 -0.3099079728126526 5.477025032043457 35 35 35
-0.5640556812286377 1.3034356832504272 5.700704574584961 23 23 23
-0.5231583714485168 0.04290728271007538 5.630597114562988 112 112 112
-0.49333229660987854 -1.9775789976119995 5.529910564422607 36 36 36
-0.47966447472572327 -1.5956536531448364 5.545266628265381 46 46 46
-0.5019844174385071 0.28690245747566223 6.042552471160889 131 131 131
-0.4454665184020996 -2.1543452739715576 5.532879829406738 107 107 107
-0.4454665184020996 -2.1543452739715576 5.532879829406738 107 107 107
-0.4452989101409912 0.5988799929618835 5.718428611755371 138 138 138
-0.403451144695282 2.5627377033233643 5.163019180297852 20 20 20
-0.38394802808761597 -2.0983777046203613 5.546714782714844 116 116 116
-0.40489205718040466 0.5152115821838379 5.884211540222168 139 139 139
-0.39140787720680237 -1.991744875907898 5.69819450378418 35 35 35
-0.3859478235244751 -2.0117998123168945 5.63327693939209 35 35 35
-0.36320960521698 0.4053589701652527 5.909591197967529 179 179 179
-0.34760135412216187 -1.7964873313903809 5.764604568481445 35 35 35
-0.344402939081192 -1.8190577030181885 5.752455234527588 98 98 98
-0.3473755717277527 0.3983193039894104 5.907413005828857 183 183 183
-0.32574474811553955 -2.0277199745178223 5.53884744644165 118 118 118
-0.33900952339172363 0.3267161548137665 6.021641254425049 167 167 167
-0.3332836925983429 0.7624949216842651 5.976109981536865 111 111 111
-0.3332836925983429 0.7624949216842651 5.976109981536865 111 111 111
-0.30233898758888245 -2.026751756668091 5.8496599197387695 38 38 38
-0.30233898758888245 -2.026751756668091 5.8496599197387695 38 38 38
-0.28303593397140503 -2.1142849922180176 5.625077724456787 29 29 29
-0.28303593397140503 -2.1142849922180176 5.625077724456787 29 29 29
-0.24597690999507904 -1.8583382368087769 5.978341102600098 111 111 111
-0.2464524507522583 -2.0316147804260254 6.019480228424072 43 43 43
-0.24544063210487366 0.46664854884147644 6.126017093658447 61 61 61
-0.249959796667099 0.6549085378646851 6.279155731201172 88 88 88
-0.24132531881332397 0.3163706362247467 6.098992824554443 76 76 76
-0.19231194257736206 -1.7545040845870972 6.017055988311768 115 115 115
-0.18753691017627716 1.7833925485610962 6.406655788421631 26 26 26
-0.16766320168972015 -2.016613245010376 6.002569675445557 41 41 41
-0.11869198083877563 -2.1350457668304443 5.992337226867676 146 146 146
-0.11869198083877563 -2.1350457668304443 5.992337226867676 146 146 146
-0.1074238196015358 -2.0385518074035645 6.152763366699219 33 33 33
-0.09415866434574127 -1.6770706176757812 6.258500576019287 79 79 79
-0.09415866434574127 -1.6770706176757812 6.258500576019287 79 79 79
-0.08343426883220673 -2.300154685974121 6.08487606048584 47 47 47
-0.08092115819454193 -1.7524924278259277 6.189385414123535 38 38 38
-0.07208182662725449 -1.6982144117355347 6.281955242156982 40 40 40
-0.06641615182161331 -2.067279577255249 6.01521110534668 3 3 3
-0.018115762621164322 -1.4544583559036255 6.34416389465332 99 99 99
-0.003891676664352417 0.8654780387878418 6.374198913574219 82 82 82
0.12908817827701569 -2.049260139465332 6.060074806213379 87 87 87
0.18632666766643524 0.8662323951721191 6.277395725250244 94 94 94
0.24258217215538025 0.6077356934547424 6.151834487915039 130 130 130
0.25210219621658325 0.7501769661903381 6.05013370513916 67 67 67
0.4594791531562805 1.112857699394226 6.069307327270508 99 99 99
0.5878319144248962 0.6584694385528564 6.114954948425293 123 123 123
0.6134380102157593 1.1573854684829712 5.88710355758667 110 110 110
0.7249369621276855 0.7351054549217224 5.848441123962402 63 63 63
0.7533073425292969 0.6195428371429443 5.770685195922852 200 200 200
0.7591248750686646 0.6555690765380859 5.787936687469482 143 143 143
0.7591248750686646 0.6555690765380859 5.787936687469482 143 143 143
0.8425915837287903 1.0142509937286377 5.798677921295166 106 106 106
0.9587249159812927 0.3028026521205902 5.880361080169678 156 156 156
0.9537150859832764 1.422713279724121 5.705061912536621 39 39 39
0.9763280749320984 -1.6924716234207153 5.743926048278809 225 225 225
0.9192101955413818 -2.08678936958313 5.35133171081543 91 91 91
1.015467882156372 2.154975652694702 5.739932537078857 28 28 28
1.03689706325531 0.5851809978485107 5.773626327514648 113 113 113
1.011673092842102 -2.0259580612182617 5.424939155578613 107 107 107
1.0543231964111328 1.5495412349700928 5.646183013916016 117 117 117
1.1639785766601562 -0.32350268959999084 5.940607070922852 63 63 63
1.1369919776916504 2.0333142280578613 5.645059108734131 88 88 88
1.1460052728652954 2.2639894485473633 5.63812780380249 86 86 86
1.1212882995605469 0.5908664464950562 5.475340843200684 100 100 100
1.1490615606307983 1.2930902242660522 5.549238681793213 114 114 114
1.201744556427002 -0.5347268581390381 5.791980743408203 247 247 247
1.1934483051300049 -0.5378082990646362 5.737659454345703 248 248 248
1.1970325708389282 0.5102733373641968 5.729126930236816 153 153 153
1.2161204814910889 -0.8235053420066833 5.757712364196777 101 101 101
1.145715355873108 -2.2390339374542236 5.273573875427246 48 48 48
1.3310779333114624 0.4648047685623169 6.088100433349609 254 254 254
1.1908105611801147 -1.027540683746338 5.445375919342041 30 30 30
1.2899857759475708 -0.8649647235870361 5.809758186340332 41 41 41
1.289571762084961 1.5673844814300537 5.752871990203857 109 109 109
1.2589612007141113 1.2659084796905518 5.586637020111084 37 37 37
1.2602169513702393 1.7085813283920288 5.49464225769043 121 121 121
1.2602169513702393 1.7085813283920288 5.49464225769043 121 121 121
1.2763925790786743 2.0061194896698 5.498180389404297 74 74 74
1.2553281784057617 1.3393393754959106 5.3952836990356445 168 168 168
1.356168508529663 -0.8663654923439026 5.819766998291016 33 33 33
1.2766510248184204 1.2629035711288452 5.471529960632324 2 2 2
1.236952781677246 -1.956649661064148 5.259742736816406 27 27 27
1.3015228509902954 1.870803952217102 5.524295330047607 96 96 96
1.3072576522827148 1.55504310131073 5.498781204223633 123 123 123
1.3183695077896118 -1.839170217514038 5.500721454620361 141 141 141
1.3189812898635864 1.410740852355957 5.463673114776611 150 150 150
1.4299808740615845 0.38684383034706116 5.911468505859375 77 77 77
1.2730201482772827 -2.272111177444458 5.254770278930664 128 128 128
1.3270801305770874 1.3598116636276245 5.455963134765625 132 132 132
1.349271297454834 1.2452408075332642 5.40455961227417 48 48 48
1.6331175565719604 -0.34786778688430786 6.534931659698486 179 179 179
1.3449888229370117 0.6864907145500183 5.357021331787109 63 63 63
1.376678466796875 1.3334540128707886 5.445871353149414 112 112 112
1.3872604370117188 1.8110600709915161 5.474241733551025 39 39 39
1.428944706916809 -1.0865137577056885 5.6298418045043945 58 58 58
1.375551462173462 1.4280924797058105 5.410792827606201 82 82 82
1.4029223918914795 2.2994918823242188 5.464193344116211 72 72 72
1.4039689302444458 -1.8197201490402222 5.4253129959106445 68 68 68
1.3421276807785034 -2.1182608604431152 5.126175880432129 137 137 137
1.4859097003936768 -1.3959667682647705 5.638134956359863 67 67 67
1.4361340999603271 1.9657814502716064 5.4484734535217285 119 119 119
1.7972404956817627 -0.18874381482601166 6.769425392150879 43 43 43
1.7634780406951904 -0.021696576848626137 6.639993190765381 25 25 25
1.392494797706604 -2.1422109603881836 5.209434509277344 127 127 127
1.615454077720642 0.3440837562084198 5.944077968597412 135 135 135
1.8515406847000122 -0.40788257122039795 6.7982258796691895 224 224 224
1.4520528316497803 1.3002010583877563 5.323063373565674 132 132 132
1.461449384689331 1.718449354171753 5.355174541473389 108 108 108
1.7864514589309692 -0.7117875814437866 6.5131916999816895 27 27 27
1.9433344602584839 -0.21778465807437897 7.055971145629883 220 220 220
1.5002795457839966 2.4619874954223633 5.411680698394775 90 90 90
1.5002795457839966 2.4619874954223633 5.411680698394775 90 90 90
1.4770246744155884 1.4065771102905273 5.309668064117432 120 120 120
1.4860783815383911 1.3320430517196655 5.31470251083374 122 122 122
1.6031991243362427 0.4144347906112671 5.727646350860596 55 55 55
1.4913686513900757 1.9068440198898315 5.346536159515381 100 100 100
1.4266018867492676 -2.3607699871063232 5.003346920013428 112 112 112
2.049949884414673 -0.34261322021484375 7.1581549644470215 53 53 53
1.535568356513977 -1.7472692728042603 5.336581707000732 20 20 20
1.977853775024414 0.012517678551375866 6.8690505027771 94 94 94
1.5154690742492676 0.9092513918876648 5.179571628570557 83 83 83
1.9853850603103638 -0.07693859189748764 6.771038055419922 74 74 74
1.562220573425293 1.324512004852295 5.250148296356201 72 72 72
1.7138229608535767 0.3681613504886627 5.742948055267334 133 133 133
1.5799305438995361 1.6316875219345093 5.2661542892456055 42 42 42
2.1196448802948 0.07625018060207367 7.064591884613037 255 255 255
1.5590217113494873 1.07658851146698 5.181241035461426 21 21 21
1.7019213438034058 -0.7838159203529358 5.64970064163208 248 248 248
1.5841776132583618 1.1061502695083618 5.249296188354492 114 114 114
2.0202152729034424 -0.5626571178436279 6.688302040100098 40 40 40
1.6400541067123413 0.5869783163070679 5.412140846252441 33 33 33
1.5906223058700562 1.4374693632125854 5.241098403930664 12 12 12
1.5906223058700562 1.4374693632125854 5.241098403930664 12 12 12
1.6734617948532104 -1.3889026641845703 5.506653785705566 24 24 24
1.6123980283737183 1.989945411682129 5.2699713706970215 22 22 22
1.60755455493927 1.2569220066070557 5.249544620513916 39 39 39
2.1048991680145264 -0.7304098606109619 6.791436672210693 37 37 37
1.690683364868164 -1.3700135946273804 5.433453559875488 65 65 65
1.6162457466125488 1.2988110780715942 5.186026096343994 124 124 124
1.6437218189239502 1.76746666431427 5.181196689605713 109 109 109
1.6747357845306396 1.898167371749878 5.212017059326172 100 100 100
2.097280263900757 0.18091441690921783 6.471858501434326 153 153 153
1.7017658948898315 1.7821677923202515 5.20630407333374 117 117 117
2.191565752029419 -0.6422846913337708 6.641224384307861 37 37 37
1.7212238311767578 1.562103509902954 5.187827110290527 127 127 127
2.196603298187256 -0.6936607956886292 6.50299596786499 33 33 33
1.728789210319519 0.7273770570755005 5.093600749969482 61 61 61
1.769411325454712 1.9811432361602783 5.188113689422607 47 47 47
2.2125191688537598 -0.14902079105377197 6.462189674377441 59 59 59
2.259754180908203 0.165286585688591 6.598785400390625 255 255 255
2.326103925704956 0.2621001601219177 6.782835960388184 254 254 254
1.9112720489501953 0.4656122922897339 5.569935321807861 126 126 126
1.7249130010604858 -1.931167483329773 5.010478973388672 42 42 42
1.7776823043823242 2.0144519805908203 5.154726028442383 119 119 119
1.7830575704574585 1.949378490447998 5.164851188659668 25 25 25
1.7263782024383545 0.9485070705413818 5.000275611877441 89 89 89
1.7263782024383545 0.9485070705413818 5.000275611877441 89 89 89
1.806302547454834 2.003361701965332 5.2180585861206055 49 49 49
1.8930282592773438 -1.0762993097305298 5.4554548263549805 59 59 59
1.8320797681808472 -1.8116203546524048 5.167634010314941 86 86 86
1.8320797681808472 -1.8116203546524048 5.167634010314941 86 86 86
1.7931275367736816 1.1104214191436768 5.056966781616211 20 20 20
1.9079310894012451 -1.2703777551651 5.361350059509277 26 26 26
1.8565291166305542 2.4936726093292236 5.179473400115967 87 87 87
1.8242546319961548 1.6035418510437012 5.080362319946289 130 130 130
2.381545305252075 -0.7557793855667114 6.615112781524658 227 227 227
2.381545305252075 -0.7557793855667114 6.615112781524658 227 227 227
2.3231406211853027 0.03821129351854324 6.435560703277588 132 132 132
1.8364803791046143 1.5485684871673584 5.058801174163818 137 137 137
1.8454227447509766 1.7474693059921265 5.0601983070373535 123 123 123
1.8382420539855957 1.1932283639907837 5.030865669250488 105 105 105
2.360852003097534 -0.09878091514110565 6.455342769622803 164 164 164
2.340548276901245 0.1706875115633011 6.386951923370361 147 147 147
1.9571592807769775 -1.3809603452682495 5.33812952041626 32 32 32
2.359980583190918 -0.1745346337556839 6.426400184631348 61 61 61
1.7554086446762085 -2.3653922080993652 4.76316499710083 66 66 66
1.8559107780456543 1.2381826639175415 5.029916763305664 63 63 63
1.8788723945617676 2.298351764678955 5.083430290222168 102 102 102
2.6337428092956543 -0.8669451475143433 7.119457244873047 241 241 241
1.7957203388214111 -2.074481725692749 4.82537317276001 132 132 132
1.9027442932128906 2.248076915740967 5.130684852600098 101 101 101
1.9772285223007202 -1.3651750087738037 5.295750617980957 68 68 68
1.8969184160232544 2.1747281551361084 5.054656982421875 38 38 38
1.9042140245437622 2.0042481422424316 5.053126335144043 21 21 21
1.916774868965149 1.977273941040039 5.074026107788086 97 97 97
1.9169586896896362 2.1865217685699463 5.067561626434326 87 87 87
2.0344655513763428 -1.3501935005187988 5.373019695281982 31 31 31
2.5995121002197266 0.31892237067222595 6.772377967834473 127 127 127
1.9142272472381592 2.0712380409240723 4.9950666427612305 96 96 96
1.9306626319885254 2.004490375518799 5.0419793128967285 21 21 21
1.9358710050582886 1.9382623434066772 5.02709436416626 52 52 52
2.067068576812744 -1.3046488761901855 5.360286235809326 26 26 26
1.9164471626281738 1.3699064254760742 4.9520792961120605 130 130 130
2.5190775394439697 0.14645040035247803 6.469761848449707 255 255 255
2.5190775394439697 0.14645040035247803 6.469761848449707 255 255 255
2.384378433227539 0.05485064536333084 6.128562927246094 255 255 255
1.9355473518371582 1.4280630350112915 4.949084758758545 139 139 139
2.147716522216797 -0.8791223764419556 5.4417619705200195 68 68 68
2.6134226322174072 -0.6259369850158691 6.486492156982422 162 162 162
2.1425042152404785 0.42656442523002625 5.304835796356201 117 117 117
2.554063081741333 0.09652591496706009 6.296383857727051 132 132 132
2.0366382598876953 2.478828191757202 5.017500877380371 103 103 103
2.011547565460205 1.458204984664917 4.933742046356201 73 73 73
2.0246224403381348 1.7923471927642822 4.946081161499023 120 120 120
2.132765054702759 -1.4535969495773315 5.185949325561523 71 71 71
2.286639928817749 -0.28709644079208374 5.56902551651001 131 131 131
2.152669906616211 -1.3751301765441895 5.214803695678711 72 72 72
2.2211618423461914 -1.2369682788848877 5.325549125671387 39 39 39
2.052536725997925 2.2836225032806396 4.9187846183776855 71 71 71
2.184563398361206 -1.3472235202789307 5.222858905792236 35 35 35
2.056149959564209 1.93070650100708 4.912810802459717 51 51 51
2.056149959564209 1.93070650100708 4.912810802459717 51 51 51
2.056149959564209 1.93070650100708 4.912810802459717 51 51 51
2.333172559738159 -0.9969369173049927 5.560705661773682 65 65 65
2.062072277069092 1.9488167762756348 4.89862060546875 105 105 105
1.96929931640625 -2.008242607116699 4.659482479095459 36 36 36
2.30509352684021 -1.0040371417999268 5.468172073364258 43 43 43
2.061612367630005 1.6409802436828613 4.884243488311768 45 45 45
2.076716184616089 1.9736779928207397 4.917865753173828 102 102 102
2.0870003700256348 2.1712796688079834 4.94014310836792 88 88 88
2.2326390743255615 -1.2386295795440674 5.263177394866943 44 44 44
2.0647778511047363 1.2987031936645508 4.822596549987793 26 26 26
