ply
format ascii 1.0
element vertex 118
property float x
property float y
property float z
property uchar red
property uchar green
property uchar blue
end_header
-19.607009887695312 -16.64568328857422 44.343353271484375 99 99 99
-13.519537925720215 -3.6986217498779297 31.177343368530273 95 95 95
-13.899947166442871 -2.9388015270233154 32.067623138427734 89 89 89
-16.940685272216797 11.768314361572266 39.160884857177734 23 23 23
-12.201581954956055 1.7075552940368652 28.751649856567383 52 52 52
-11.959193229675293 1.6764771938323975 28.19882583618164 60 60 60
-13.812257766723633 -4.782093048095703 33.834991455078125 89 89 89
-15.686616897583008 8.91218376159668 39.34432601928711 109 109 109
-15.902787208557129 7.726296901702881 40.175384521484375 126 126 126
-14.576966285705566 2.2724757194519043 37.019073486328125 32 32 32
-16.22466468811035 -13.83788013458252 41.448978424072266 141 141 141
-16.454069137573242 -14.117165565490723 42.4388427734375 135 135 135
-16.454069137573242 -14.117165565490723 42.4388427734375 135 135 135
-13.479045867919922 1.6380912065505981 34.8503532409668 9 9 9
-14.091531753540039 6.811306953430176 36.947914123535156 115 115 115
-14.506529808044434 6.797219276428223 38.16014862060547 22 22 22
-15.085262298583984 -13.501421928405762 40.76095199584961 61 61 61
-15.085262298583984 -13.501421928405762 40.76095199584961 61 61 61
-13.994884490966797 -10.137543678283691 37.97084045410156 58 58 58
-13.994884490966797 -10.137543678283691 37.97084045410156 58 58 58
-15.721288681030273 7.508429527282715 43.00584030151367 36 36 36
-16.314443588256836 9.476765632629395 44.792381286621094 83 83 83
-9.116693496704102 -1.9363359212875366 25.396352767944336 147 147 147
-14.849958419799805 10.447296142578125 41.7224006652832 107 107 107
-13.266607284545898 2.30839204788208 37.31117248535156 27 27 27
-14.449660301208496 7.839292049407959 40.64586639404297 97 97 97
-14.744978904724121 3.5261900424957275 42.29259490966797 54 54 54
-14.714776992797852 8.47627067565918 42.2895393371582 163 163 163
-14.714776992797852 8.47627067565918 42.2895393371582 163 163 163
-14.941935539245605 12.63358211517334 43.52336883544922 26 26 26
-9.235846519470215 -3.477780818939209 27.169424057006836 31 31 31
-14.145674705505371 12.928604125976562 41.73536682128906 99 99 99
-10.196135520935059 0.7137665152549744 30.505168914794922 157 157 157
-7.9211907386779785 -1.442451000213623 23.853986740112305 232 232 232
-7.88969087600708 -1.0867114067077637 24.01410484313965 224 224 224
-7.837426662445068 -2.2136309146881104 23.863037109375 156 156 156
-7.837426662445068 -2.2136309146881104 23.863037109375 156 156 156
-8.523619651794434 -1.91841721534729 26.229393005371094 56 56 56
-8.523619651794434 -1.91841721534729 26.229393005371094 56 56 56
-13.212498664855957 13.85366439819336 40.726715087890625 108 108 108
-9.252124786376953 -3.00068736076355 28.53162384033203 68 68 68
-8.214746475219727 -0.1368892788887024 25.417320251464844 68 68 68
-13.014752388000488 10.286169052124023 41.18403625488281 96 96 96
-13.443466186523438 15.52692985534668 42.66441345214844 80 80 80
-13.443466186523438 15.52692985534668 42.66441345214844 80 80 80
-11.874948501586914 2.6375234127044678 37.81043243408203 107 107 107
-8.279240608215332 0.13536472618579865 26.614521026611328 68 68 68
-8.788103103637695 -4.015485763549805 28.455251693725586 37 37 37
-11.991988182067871 1.944174885749817 39.00556945800781 104 104 104
-13.539306640625 8.036484718322754 44.2430534362793 139 139 139
-14.45853328704834 7.047924518585205 48.186580657958984 22 22 22
-13.823412895202637 3.242185354232788 46.19468688964844 110 110 110
-13.089484214782715 7.671189308166504 44.67805480957031 34 34 34
-13.089484214782715 7.671189308166504 44.67805480957031 34 34 34
-7.5394768714904785 -0.511182427406311 26.20197296142578 131 131 131
-12.579564094543457 7.9276041984558105 43.81050491333008 137 137 137
-12.414730072021484 8.355474472045898 43.87789535522461 131 131 131
-11.660490989685059 7.193523406982422 41.73305892944336 98 98 98
-11.660490989685059 7.193523406982422 41.73305892944336 98 98 98
-11.890713691711426 7.6684465408325195 42.999324798583984 73 73 73
-12.225360870361328 7.1409196853637695 44.76005935668945 48 48 48
-7.713826656341553 -1.922194480895996 28.302295684814453 25 25 25
-11.736282348632812 11.889533042907715 43.14056396484375 94 94 94
-12.896722793579102 4.062834739685059 47.54845428466797 57 57 57
-7.418240547180176 -0.2621755599975586 27.416030883789062 254 254 254
-7.489506244659424 -1.2390391826629639 27.833858489990234 115 115 115
-11.482050895690918 10.903440475463867 42.674095153808594 111 111 111
-12.185206413269043 9.968341827392578 45.428199768066406 118 118 118
-12.163394927978516 9.039999008178711 45.393394470214844 122 122 122
-9.389311790466309 1.0956724882125854 35.18159866333008 75 75 75
-10.639342308044434 2.7663848400115967 40.01307678222656 110 110 110
-12.677014350891113 8.304905891418457 48.03928756713867 126 126 126
-7.632467746734619 -3.8168342113494873 28.913816452026367 247 247 247
-7.632467746734619 -3.8168342113494873 28.913816452026367 247 247 247
-7.86622953414917 -4.356404781341553 29.80600929260254 64 64 64
-12.492703437805176 5.903685092926025 47.519439697265625 73 73 73
-7.606811046600342 -0.7027907371520996 29.765926361083984 125 125 125
-11.318069458007812 -10.739694595336914 44.3250732421875 73 73 73
-12.560182571411133 7.278443813323975 49.294158935546875 15 15 15
-11.90217399597168 9.267683029174805 47.1441535949707 141 141 141
-7.016451835632324 -1.5556232929229736 27.9099178314209 51 51 51
-11.750784873962402 8.564895629882812 46.801971435546875 111 111 111
-11.233782768249512 16.040924072265625 44.76411056518555 53 53 53
-6.791223526000977 -0.28473660349845886 27.169679641723633 134 134 134
-6.791223526000977 -0.28473660349845886 27.169679641723633 134 134 134
-11.682415962219238 3.2017838954925537 47.12553405761719 115 115 115
-12.329754829406738 -18.48015594482422 49.74647521972656 116 116 116
-11.540033340454102 7.584705352783203 47.16396713256836 106 106 106
-11.271602630615234 10.119729042053223 46.35941696166992 127 127 127
-11.100339889526367 7.694019794464111 45.98011016845703 60 60 60
-10.457525253295898 10.93069076538086 43.62305450439453 118 118 118
-10.812692642211914 15.329721450805664 46.323974609375 56 56 56
-10.775347709655762 13.329090118408203 46.174659729003906 21 21 21
-11.025171279907227 15.449906349182129 47.24577713012695 45 45 45
-9.914666175842285 -11.051122665405273 43.006935119628906 35 35 35
-7.379913806915283 -1.0473432540893555 32.36236572265625 87 87 87
-10.422271728515625 13.254511833190918 45.86347198486328 21 21 21
-9.01746940612793 -3.7716400623321533 39.703826904296875 53 53 53
-7.93474006652832 -2.237875461578369 35.06995391845703 66 66 66
-10.683879852294922 8.93901538848877 47.23625946044922 124 124 124
-10.172301292419434 9.466364860534668 45.74088668823242 170 170 170
-8.633505821228027 1.1527419090270996 38.920745849609375 104 104 104
-10.538989067077637 13.178640365600586 47.50212478637695 52 52 52
-10.831277847290039 9.043703079223633 49.42692947387695 117 117 117
-9.220084190368652 2.7553844451904297 43.040199279785156 134 134 134
-10.520650863647461 8.741093635559082 49.662010192871094 25 25 25
-9.202279090881348 2.4527013301849365 44.029823303222656 57 57 57
-9.67521858215332 12.006376266479492 47.25791549682617 121 121 121
-9.626236915588379 8.774053573608398 47.436031341552734 125 125 125
-8.632364273071289 10.63713264465332 48.15703582763672 130 130 130
-7.306143760681152 -1.9995242357254028 42.85491180419922 255 255 255
-7.875875473022461 8.401223182678223 47.535675048828125 39 39 39
-4.210012912750244 -8.077536582946777 25.778226852416992 105 105 105
-7.725311756134033 10.552900314331055 49.04491424560547 48 48 48
-7.725311756134033 10.552900314331055 49.04491424560547 48 48 48
-7.745340347290039 12.279207229614258 49.35012435913086 40 40 40
-6.269857406616211 1.00509774684906 40.303890228271484 255 255 255
-7.29775857925415 2.756117582321167 48.935142517089844 67 67 67
