ply
format ascii 1.0
element vertex 82
property float x
property float y
property float z
property uchar red
property uchar green
property uchar blue
end_header
-1.2878600358963013 0.31539228558540344 2.7482476234436035 133 133 133
-1.2878600358963013 0.31539228558540344 2.7482476234436035 133 133 133
-1.2474919557571411 0.1434379518032074 2.821873903274536 168 168 168
-1.2110720872879028 0.27139919996261597 2.789844274520874 97 97 97
-1.2196481227874756 0.24414703249931335 2.8325226306915283 52 52 52
-1.1736739873886108 -0.9958519339561462 2.734281063079834 96 96 96
-1.1873410940170288 0.2715384066104889 2.8329501152038574 101 101 101
-1.144885540008545 0.9579668045043945 2.843876361846924 23 23 23
-1.1323617696762085 0.2515283524990082 2.868756055831909 33 33 33
-1.0996747016906738 0.5720453858375549 2.829714059829712 53 53 53
-1.087715744972229 -0.9041813015937805 2.840463399887085 125 125 125
-1.0786725282669067 -0.9015668034553528 2.8437352180480957 140 140 140
-1.0734827518463135 0.6123923063278198 2.846015214920044 116 116 116
-1.1671035289764404 -0.24363966286182404 3.144364595413208 0 0 0
-1.0315182209014893 0.5878851413726807 2.870032548904419 35 35 35
-1.0121233463287354 0.8129616975784302 2.881347179412842 115 115 115
-1.0054359436035156 0.5036815404891968 2.8858482837677 29 29 29
-0.9943747520446777 0.5234318971633911 2.8911373615264893 92 92 92
-0.9924302101135254 0.8839620351791382 2.891075372695923 92 92 92
-0.9850109219551086 0.664239227771759 2.884845733642578 140 140 140
-0.9842682480812073 0.4377802610397339 2.886228322982788 73 73 73
-0.9810948371887207 0.3153192400932312 2.885192394256592 59 59 59
-1.091663122177124 0.09586948901414871 3.214094877243042 113 113 113
-0.9286429286003113 -0.4817790687084198 2.762990951538086 28 28 28
-1.0639451742172241 0.011825645342469215 3.183915138244629 254 254 254
-1.0639451742172241 0.011825645342469215 3.183915138244629 254 254 254
-0.9595829844474792 0.6219347715377808 2.895397663116455 104 104 104
-0.9519149661064148 0.6738827228546143 2.8984837532043457 11 11 11
-0.9519149661064148 0.6738827228546143 2.8984837532043457 11 11 11
-0.8828246593475342 -0.49259650707244873 2.6928293704986572 61 61 61
-0.9349648952484131 1.0927844047546387 2.9266817569732666 102 102 102
-0.9048515558242798 -0.9865177869796753 2.8465163707733154 122 122 122
-1.0074282884597778 0.012333306483924389 3.2100989818573 88 88 88
-0.9122080206871033 0.6120101809501648 2.916200637817383 119 119 119
-0.9040879607200623 0.8155670762062073 2.9263834953308105 95 95 95
-0.9081003069877625 0.9446243047714233 2.9419426918029785 32 32 32
-0.8988613486289978 0.6267249584197998 2.9277994632720947 117 117 117
-0.8957997560501099 0.6633418202400208 2.923567056655884 113 113 113
-0.9621305465698242 -0.10059203207492828 3.2249398231506348 70 70 70
-0.9603840112686157 -0.1417130082845688 3.2347512245178223 121 121 121
-1.0573477745056152 -0.323239803314209 3.581345319747925 38 38 38
-0.851317822933197 0.6206419467926025 2.9384236335754395 65 65 65
-0.8499964475631714 0.5128738284111023 2.9431724548339844 87 87 87
-0.9254204034805298 -0.3512047827243805 3.227318048477173 102 102 102
-0.9254204034805298 -0.3512047827243805 3.227318048477173 102 102 102
-0.9179447293281555 -0.4319772720336914 3.202712297439575 2 2 2
-0.8959113955497742 -0.0922665074467659 3.125321388244629 51 51 51
-0.8340991735458374 0.5821723937988281 2.9474525451660156 35 35 35
-0.8571426868438721 0.16761687397956848 3.0502028465270996 80 80 80
-0.8285895586013794 -0.6319480538368225 2.967921733856201 24 24 24
-0.8246704936027527 0.9464515447616577 2.9718875885009766 24 24 24
-0.9072048664093018 0.03720613941550255 3.2716753482818604 145 145 145
-0.8088021874427795 0.5741701126098633 2.9519762992858887 38 38 38
-0.8099373579025269 0.6394221782684326 2.9614779949188232 128 128 128
-0.7978317737579346 0.8410907983779907 2.968130350112915 103 103 103
-0.7796740531921387 0.8958902359008789 2.9682505130767822 104 104 104
-0.7672356367111206 0.32260754704475403 2.9643781185150146 60 60 60
-0.7691738605499268 0.6667078137397766 2.982311487197876 121 121 121
-0.766213059425354 0.7287776470184326 2.974285364151001 113 113 113
-0.7539660930633545 0.5873681306838989 2.981030225753784 160 160 160
-0.6960335373878479 0.5497292876243591 2.992414712905884 116 116 116
-0.6979472637176514 0.7264664173126221 3.004395008087158 123 123 123
-0.6706350445747375 0.9949098825454712 3.0262444019317627 111 111 111
-0.6706350445747375 0.9949098825454712 3.0262444019317627 111 111 111
-0.6621418595314026 -0.8912848234176636 3.022238254547119 25 25 25
-0.651282787322998 -0.710358202457428 3.0297322273254395 41 41 41
-0.6471480131149292 0.6388285160064697 3.017500162124634 129 129 129
-0.6435970067977905 0.9882153272628784 3.0377871990203857 98 98 98
-0.6271356344223022 0.677757740020752 3.0241289138793945 58 58 58
-0.6157796382904053 0.23358260095119476 3.051999092102051 62 62 62
-0.6157796382904053 0.23358260095119476 3.051999092102051 62 62 62
-0.5926592946052551 0.8421077132225037 3.0514872074127197 119 119 119
-0.5601269602775574 0.9293673038482666 3.0659987926483154 109 109 109
-0.5613823533058167 0.2056467980146408 3.0834386348724365 137 137 137
-0.5011558532714844 1.1840728521347046 3.1149895191192627 110 110 110
-0.48409074544906616 0.6067407727241516 3.0983285903930664 38 38 38
-0.47829312086105347 0.7201486825942993 3.086411714553833 103 103 103
-0.47224026918411255 0.8934914469718933 3.101430892944336 102 102 102
-0.4605487883090973 0.7934644818305969 3.0951881408691406 95 95 95
-0.45540177822113037 0.7243351340293884 3.098952054977417 46 46 46
-0.45202043652534485 0.7231079936027527 3.0920374393463135 46 46 46
-0.435611754655838 0.7977384924888611 3.105658769607544 50 50 50
