ply
format ascii 1.0
element vertex 47
property float x
property float y
property float z
property uchar red
property uchar green
property uchar blue
end_header
-1.873896837234497 -0.7034494876861572 3.8597841262817383 38 38 38
-1.7937973737716675 0.22953321039676666 3.928009033203125 108 108 108
-1.7477335929870605 0.829677939414978 3.97987699508667 33 33 33
-1.6947975158691406 1.5642753839492798 4.025588035583496 20 20 20
-1.6947975158691406 1.5642753839492798 4.025588035583496 20 20 20
-1.7468303442001343 -0.033833589404821396 4.180696487426758 99 99 99
-1.527297019958496 0.13038785755634308 5.028145790100098 8 8 8
-0.7704482674598694 1.7572396993637085 4.309986591339111 60 60 60
-0.7704482674598694 1.7572396993637085 4.309986591339111 60 60 60
-1.1312408447265625 -0.737040638923645 6.683701038360596 67 67 67
-1.064632534980774 -1.2547838687896729 7.571834564208984 94 94 94
-1.0083582401275635 -0.9517087340354919 7.3242645263671875 93 93 93
-0.886415958404541 -0.801322340965271 7.130725860595703 91 91 91
-0.9627059698104858 -1.3306598663330078 8.00998306274414 19 19 19
-0.9224473237991333 -1.0207101106643677 7.790924549102783 20 20 20
-0.8908193111419678 -1.4747525453567505 8.793367385864258 135 135 135
-0.8265940546989441 -1.0288668870925903 8.328458786010742 128 128 128
-0.815261721611023 -1.1377135515213013 8.265069961547852 49 49 49
-0.7123863101005554 0.8122826218605042 7.6513447761535645 48 48 48
-0.7229858636856079 -1.3854788541793823 8.412267684936523 43 43 43
-0.708899736404419 -1.1738308668136597 8.449004173278809 44 44 44
-0.6990330219268799 0.8661739826202393 8.385468482971191 62 62 62
-0.6891816258430481 1.3511056900024414 8.332831382751465 74 74 74
-0.6357738971710205 1.0647536516189575 8.263813972473145 12 12 12
-0.6800669431686401 -1.748693585395813 9.109801292419434 139 139 139
-0.6800669431686401 -1.748693585395813 9.109801292419434 139 139 139
-0.6214357018470764 -1.2889655828475952 8.416219711303711 69 69 69
-0.6206330060958862 0.8958539962768555 8.377406120300293 14 14 14
-0.5929364562034607 1.4107544422149658 8.187704086303711 86 86 86
-0.606199324131012 0.8876031637191772 8.534989356994629 114 114 114
-0.5885465145111084 -1.4790565967559814 9.59972095489502 31 31 31
-0.5111157298088074 1.2036006450653076 8.383578300476074 13 13 13
-0.5281977653503418 -1.0502392053604126 9.594160079956055 98 98 98
-0.450290322303772 -0.0909217968583107 8.701408386230469 58 58 58
-0.47914808988571167 -0.34347474575042725 9.27249526977539 79 79 79
-0.48532551527023315 -0.9433977007865906 9.537979125976562 148 148 148
-0.48532551527023315 -0.9433977007865906 9.537979125976562 148 148 148
-0.4524495303630829 0.34360793232917786 8.916181564331055 44 44 44
-0.43723511695861816 0.5607696175575256 8.757221221923828 54 54 54
-0.40123409032821655 0.7288293838500977 8.20859146118164 38 38 38
-0.3752268850803375 0.9398253560066223 8.31974983215332 101 101 101
-0.3540192246437073 1.0228978395462036 8.031229972839355 22 22 22
-0.3485000729560852 0.28647273778915405 8.558719635009766 111 111 111
-0.3425542414188385 0.7075867056846619 8.520606994628906 83 83 83
0.1986076682806015 0.9950438141822815 10.586639404296875 94 94 94
0.292476624250412 0.008047578856348991 10.736002922058105 28 28 28
0.3159191608428955 0.9201383590698242 11.028947830200195 31 31 31
