ply
format ascii 1.0
element vertex 85
property float x
property float y
property float z
property uchar red
property uchar green
property uchar blue
end_header
-19.90804100036621 28.640962600708008 47.2537956237793 134 134 134
-16.915197372436523 26.63699722290039 43.654422760009766 51 51 51
-16.915197372436523 26.63699722290039 43.654422760009766 51 51 51
-9.378674507141113 -15.656710624694824 33.29433059692383 36 36 36
-9.378674507141113 -15.656710624694824 33.29433059692383 36 36 36
-11.406847953796387 -19.28989028930664 40.843990325927734 37 37 37
-11.406847953796387 -19.28989028930664 40.843990325927734 37 37 37
-12.797126770019531 -18.335195541381836 47.23401641845703 43 43 43
-8.081266403198242 5.034755229949951 32.65424346923828 116 116 116
-10.608545303344727 21.205522537231445 44.60107421875 119 119 119
-10.799696922302246 -22.72292709350586 45.94731140136719 35 35 35
-11.125909805297852 5.0376057624816895 47.74401092529297 56 56 56
-9.948811531066895 12.674448013305664 43.76974868774414 50 50 50
-10.411334037780762 2.9630751609802246 45.9256591796875 65 65 65
-9.701991081237793 23.30388832092285 42.9476432800293 71 71 71
-9.162633895874023 18.099994659423828 42.11627197265625 101 101 101
-9.162633895874023 18.099994659423828 42.11627197265625 101 101 101
-9.654446601867676 -20.313852310180664 44.27396011352539 129 129 129
-10.574170112609863 -1.7608180046081543 48.93444061279297 68 68 68
-9.209320068359375 -14.071990966796875 43.958866119384766 122 122 122
-9.298542976379395 -16.2694034576416 44.820411682128906 49 49 49
-9.3336820602417 -15.707586288452148 45.284156799316406 31 31 31
-9.450591087341309 -13.715435028076172 46.675716400146484 26 26 26
-9.252286911010742 -7.3115715980529785 45.84749221801758 119 119 119
-8.757095336914062 -15.171135902404785 44.31365966796875 124 124 124
-9.163639068603516 -2.7291436195373535 46.645328521728516 16 16 16
-8.131660461425781 -20.825435638427734 41.31241989135742 40 40 40
-8.73608684539795 5.129740238189697 44.65293884277344 70 70 70
-9.088583946228027 -0.5208246111869812 47.11935806274414 20 20 20
-8.642444610595703 3.9295270442962646 45.38198471069336 16 16 16
-8.642444610595703 3.9295270442962646 45.38198471069336 16 16 16
-8.685676574707031 1.5930960178375244 46.055267333984375 102 102 102
-8.046001434326172 8.523059844970703 42.87287902832031 16 16 16
-7.659463405609131 -11.925867080688477 40.93247604370117 122 122 122
-7.756199836730957 10.401293754577637 41.755489349365234 15 15 15
-7.301098823547363 13.333938598632812 40.09615707397461 19 19 19
-7.301098823547363 13.333938598632812 40.09615707397461 19 19 19
-8.137822151184082 5.4863691329956055 44.85467529296875 29 29 29
-8.137822151184082 5.4863691329956055 44.85467529296875 29 29 29
-7.477541923522949 15.756307601928711 41.86196517944336 90 90 90
-6.150046348571777 -19.11273193359375 34.863338470458984 115 115 115
-5.921526908874512 -16.400779724121094 34.0830192565918 114 114 114
-8.11032772064209 -1.3386222124099731 46.89316940307617 118 118 118
-6.053340911865234 -13.513664245605469 35.678409576416016 116 116 116
-6.202675819396973 -17.293048858642578 37.84950256347656 14 14 14
-6.06925106048584 -19.380117416381836 37.88106155395508 27 27 27
-6.5755205154418945 -12.507650375366211 41.76039505004883 27 27 27
-5.9649176597595215 -5.784448623657227 40.21916580200195 127 127 127
-6.232659816741943 -10.039229393005371 42.19021987915039 29 29 29
-5.798220634460449 -5.65198278427124 39.866092681884766 25 25 25
-5.852498531341553 -2.0770885944366455 41.25698471069336 21 21 21
-5.707042217254639 -8.234578132629395 40.31694793701172 94 94 94
-6.0090179443359375 -0.4954429864883423 42.717559814453125 18 18 18
-5.517613887786865 3.193167209625244 39.65372085571289 18 18 18
-5.140810966491699 12.415323257446289 37.15060043334961 57 57 57
-5.185149192810059 12.537069320678711 37.505287170410156 57 57 57
-5.266273021697998 4.882225513458252 38.18675994873047 16 16 16
-5.079255104064941 11.463435173034668 38.05372619628906 17 17 17
-4.521000862121582 16.422840118408203 34.504913330078125 14 14 14
-4.535106182098389 13.398860931396484 34.66232681274414 17 17 17
-4.535106182098389 13.398860931396484 34.66232681274414 17 17 17
-5.06315279006958 -19.332775115966797 39.12611770629883 13 13 13
-3.2948927879333496 -7.020140171051025 36.45711135864258 29 29 29
-3.1534202098846436 0.6144598126411438 35.05013656616211 77 77 77
-3.3622078895568848 1.308867335319519 38.10850143432617 85 85 85
-2.91011118888855 6.720588207244873 34.633506774902344 21 21 21
-2.959135055541992 4.687312602996826 35.844783782958984 17 17 17
-2.4636549949645996 16.437328338623047 30.392518997192383 19 19 19
-2.7338356971740723 9.13591194152832 33.959632873535156 13 13 13
-2.8492345809936523 -9.194799423217773 35.87570571899414 27 27 27
-2.8492345809936523 -9.194799423217773 35.87570571899414 27 27 27
-2.5330941677093506 4.6288862228393555 34.616477966308594 21 21 21
-2.2632687091827393 14.034384727478027 31.437360763549805 19 19 19
-2.640813112258911 -12.87420654296875 44.38610076904297 98 98 98
-1.136626124382019 -4.619832992553711 31.559192657470703 105 105 105
-1.0697076320648193 -0.3611595332622528 32.215824127197266 100 100 100
-1.0209362506866455 2.850151300430298 32.62816619873047 85 85 85
-0.9322226643562317 -6.465309143066406 30.81147575378418 28 28 28
-0.9142454862594604 -0.232692152261734 32.513511657714844 18 18 18
-0.8949849009513855 -4.701819896697998 31.74880599975586 19 19 19
-0.8116711378097534 4.399002552032471 31.270055770874023 16 16 16
-0.8214949369430542 2.9320595264434814 32.164703369140625 15 15 15
-0.6055947542190552 -3.3143551349639893 31.368202209472656 26 26 26
-0.5286567807197571 13.27549934387207 28.561447143554688 107 107 107
-0.511687695980072 2.949028491973877 31.51150894165039 20 20 20
