ply
format ascii 1.0
element vertex 51
property float x
property float y
property float z
property uchar red
property uchar green
property uchar blue
end_header
-4.939864158630371 -1.830694317817688 10.179570198059082 38 38 38
-3.6723060607910156 3.3367421627044678 7.899245262145996 22 22 22
-3.2254958152770996 3.936211585998535 6.97937536239624 90 90 90
-3.9978787899017334 0.5241633653640747 8.778066635131836 108 108 108
-4.333816051483154 -0.7283794283866882 9.572712898254395 26 26 26
-3.4690544605255127 3.2088286876678467 8.248910903930664 20 20 20
-3.4690544605255127 3.2088286876678467 8.248910903930664 20 20 20
-3.237340211868286 2.8054065704345703 8.877728462219238 84 84 84
-1.7501070499420166 -1.572285771369934 14.091373443603516 91 91 91
-1.4938207864761353 -2.086639881134033 12.490345001220703 19 19 19
-1.157126545906067 -1.9167886972427368 11.423310279846191 135 135 135
-1.3279320001602173 -1.656538963317871 13.40430736541748 128 128 128
-1.3169772624969482 1.4942383766174316 14.064017295837402 48 48 48
-1.291537880897522 0.9930311441421509 14.526633262634277 99 99 99
-1.1640971899032593 -2.2282352447509766 13.551671028137207 43 43 43
-1.2447913885116577 -2.069941520690918 14.857098579406738 44 44 44
-1.248819351196289 2.4766077995300293 15.24795913696289 74 74 74
-0.9574283361434937 -2.447678327560425 12.789955139160156 139 139 139
-1.0801066160202026 -2.2583205699920654 14.71186637878418 69 69 69
-1.188062310218811 1.7149027585983276 15.926583290100098 14 14 14
-1.079681634902954 2.5725324153900146 14.927131652832031 86 86 86
-1.148846983909607 1.6690518856048584 15.962485313415527 114 114 114
-1.0355809926986694 -1.3092114925384521 14.731717109680176 236 236 236
-0.956749439239502 2.233766794204712 15.5165433883667 13 13 13
-0.8510286211967468 -1.6861894130706787 15.423818588256836 98 98 98
-0.8596593141555786 -2.475262403488159 15.908960342407227 32 32 32
-0.8307554125785828 -0.9706007242202759 15.577651023864746 87 87 87
-0.8416500687599182 -0.16406944394111633 16.10149383544922 58 58 58
-0.8513490557670593 -0.6077576875686646 16.442459106445312 79 79 79
-0.8182369470596313 -1.5901596546173096 16.095470428466797 148 148 148
-0.8182369470596313 -1.5901596546173096 16.095470428466797 148 148 148
-0.872143030166626 0.6651030778884888 17.24290657043457 44 44 44
-0.823551595211029 1.0622438192367554 16.430421829223633 54 54 54
-0.7534091472625732 1.3368350267410278 14.98139762878418 38 38 38
-0.7050939798355103 1.7405527830123901 15.334400177001953 101 101 101
-0.6524285674095154 1.310017466545105 15.855572700500488 84 84 84
0.3395334780216217 1.8185211420059204 19.19283103942871 94 94 94
0.3925790786743164 -1.8361713886260986 17.32884979248047 23 23 23
0.5150766968727112 -1.0623873472213745 20.146379470825195 27 27 27
0.5152448415756226 -1.3637815713882446 19.968833923339844 28 28 28
0.5241702795028687 0.034426406025886536 20.014616012573242 28 28 28
0.5415529012680054 0.7389110326766968 20.4826717376709 33 33 33
0.5647185444831848 -0.37423744797706604 20.966875076293945 32 32 32
0.5494168996810913 1.6968445777893066 20.085927963256836 31 31 31
0.8515363335609436 -2.5840904712677 22.074623107910156 22 22 22
1.2252315282821655 -0.7394309639930725 22.20700454711914 24 24 24
1.3452742099761963 -0.9533677697181702 23.670852661132812 135 135 135
1.2882905006408691 -3.291851758956909 22.357942581176758 41 41 41
2.048971652984619 -0.9096490144729614 24.132957458496094 27 27 27
2.323791742324829 0.959234356880188 26.981199264526367 29 29 29
2.1763916015625 -0.44496458768844604 25.33085823059082 27 27 27
