ply
format ascii 1.0
element vertex 51
property float x
property float y
property float z
property uchar red
property uchar green
property uchar blue
end_header
-9.120559692382812 -1.1957972049713135 18.7482852935791 150 150 150
-8.929450988769531 -1.2617563009262085 18.57952117919922 29 29 29
-8.929450988769531 -1.2617563009262085 18.57952117919922 29 29 29
-8.915088653564453 -0.19164824485778809 18.613544464111328 86 86 86
-8.785609245300293 -1.3039170503616333 18.592844009399414 154 154 154
-8.506929397583008 -0.396023690700531 18.02919578552246 209 209 209
-4.952183246612549 -2.465531349182129 10.670089721679688 252 252 252
-1.582903504371643 1.737101674079895 3.470944404602051 105 105 105
-7.995232582092285 -0.20733872056007385 17.587032318115234 72 72 72
-7.768181800842285 -0.7847027778625488 17.318859100341797 61 61 61
-5.024358749389648 -1.5345429182052612 12.903763771057129 27 27 27
-2.2409324645996094 -1.4089967012405396 7.851931571960449 122 122 122
-1.7918236255645752 0.1987011581659317 6.591969966888428 57 57 57
-1.5360875129699707 1.1512514352798462 6.413801670074463 20 20 20
-1.5360875129699707 1.1512514352798462 6.413801670074463 20 20 20
-1.4267923831939697 1.193000316619873 6.462700843811035 72 72 72
-1.3189913034439087 1.1371846199035645 6.443377494812012 105 105 105
-1.2971744537353516 1.1932474374771118 6.375221252441406 18 18 18
0.013143813237547874 1.7191118001937866 3.5233607292175293 70 70 70
0.14622318744659424 1.7419003248214722 3.3380205631256104 71 71 71
0.15009450912475586 1.7599653005599976 3.274174213409424 65 65 65
0.21342632174491882 1.7837605476379395 3.159998655319214 65 65 65
0.31530138850212097 -1.138175368309021 3.637655258178711 100 100 100
0.5019997358322144 0.8287045955657959 3.1826767921447754 25 25 25
0.5002211928367615 1.7785271406173706 3.1665172576904297 72 72 72
0.489173024892807 -0.736203670501709 3.001398801803589 33 33 33
0.579615592956543 0.9712513089179993 3.06441330909729 23 23 23
0.5684093832969666 0.36732643842697144 2.9844577312469482 121 121 121
0.550628125667572 -0.9182580709457397 2.864478588104248 142 142 142
0.5591887831687927 -0.963908314704895 2.8410048484802246 38 38 38
0.7375711798667908 -0.5445427298545837 2.803283452987671 66 66 66
0.7369885444641113 -0.8526105284690857 2.7610182762145996 80 80 80
0.7782217264175415 0.37166231870651245 2.916879177093506 32 32 32
0.7953704595565796 0.7516895532608032 2.9515058994293213 100 100 100
0.8005430698394775 0.9100703001022339 2.972064971923828 102 102 102
0.7941704392433167 0.17165404558181763 2.8719561100006104 128 128 128
0.778465986251831 -1.1216917037963867 2.7366418838500977 54 54 54
0.8099805116653442 -1.0268993377685547 2.7604949474334717 169 169 169
0.7995553016662598 -1.1183322668075562 2.713791608810425 152 152 152
0.8452901244163513 -1.0941957235336304 2.7258102893829346 60 60 60
1.1353024244308472 0.3726951777935028 2.9694647789001465 57 57 57
1.149804711341858 0.42875567078590393 2.9385764598846436 52 52 52
1.1572061777114868 0.3442235589027405 2.932258129119873 78 78 78
1.1514090299606323 0.25310999155044556 2.9076037406921387 65 65 65
1.179517149925232 0.3699413239955902 2.9011316299438477 130 130 130
1.2064069509506226 0.07388313114643097 2.8514113426208496 130 130 130
1.1906400918960571 0.2426108568906784 2.800506591796875 136 136 136
1.1897882223129272 0.2055591493844986 2.767538547515869 77 77 77
1.2210432291030884 0.37438666820526123 2.8396639823913574 117 117 117
1.2210432291030884 0.37438666820526123 2.8396639823913574 117 117 117
1.2691651582717896 0.2637766897678375 2.746380567550659 113 113 113
