ply
format ascii 1.0
element vertex 51
property float x
property float y
property float z
property uchar red
property uchar green
property uchar blue
end_header
-1.1376333236694336 0.07936795800924301 2.376880645751953 92 92 92
-0.9852152466773987 0.6826674342155457 2.2789433002471924 23 23 23
-0.9348607659339905 0.15243370831012726 2.2490174770355225 111 111 111
-0.9335686564445496 0.1266910284757614 2.2758543491363525 56 56 56
-0.9008685946464539 -0.32446473836898804 2.248335599899292 243 243 243
-0.8966279625892639 0.5073656439781189 2.24841046333313 109 109 109
-0.902700662612915 0.10815734416246414 2.3348493576049805 9 9 9
-0.8399684429168701 0.4835425913333893 2.2432873249053955 63 63 63
-0.8931787014007568 -0.21465834975242615 2.3889269828796387 85 85 85
-0.8317050933837891 0.4274289608001709 2.2366456985473633 132 132 132
-0.8315955996513367 0.438573956489563 2.2385361194610596 128 128 128
-0.8112402558326721 -0.724706768989563 2.19132661819458 61 61 61
-0.8112402558326721 -0.724706768989563 2.19132661819458 61 61 61
-0.8216087818145752 0.3918399512767792 2.2487452030181885 36 36 36
-0.8974835872650146 -0.02573837712407112 2.5517802238464355 117 117 117
-0.7795625925064087 0.338371604681015 2.2236034870147705 86 86 86
-0.7733252048492432 0.18451960384845734 2.218334436416626 54 54 54
-0.7648542523384094 0.2566085159778595 2.2208447456359863 13 13 13
-0.8850245475769043 -0.22135047614574432 2.5785906314849854 33 33 33
-0.8790575861930847 -0.3260534703731537 2.5890204906463623 31 31 31
-0.7765318751335144 -0.35176175832748413 2.2928225994110107 210 210 210
-0.7765318751335144 -0.35176175832748413 2.2928225994110107 210 210 210
-0.7568243741989136 0.3227173388004303 2.234668493270874 74 74 74
-0.8541312217712402 -0.23806975781917572 2.6034436225891113 156 156 156
-0.8541312217712402 -0.23806975781917572 2.6034436225891113 156 156 156
-0.8527003526687622 -0.1888645440340042 2.6284563541412354 56 56 56
-0.8527003526687622 -0.1888645440340042 2.6284563541412354 56 56 56
-0.710777997970581 0.561231791973114 2.2509796619415283 96 96 96
-0.8231474161148071 -0.321606308221817 2.632983922958374 176 176 176
-0.8143652677536011 -0.2712750732898712 2.607111692428589 23 23 23
-0.6968408226966858 0.6530570387840271 2.2560982704162598 5 5 5
-0.6944904327392578 -0.3706691563129425 2.244178533554077 33 33 33
-0.7687808275222778 -0.3464587926864624 2.4914517402648926 37 37 37
-0.6782799363136292 0.25643086433410645 2.2229440212249756 40 40 40
-0.6528255343437195 0.3832326829433441 2.2322909832000732 34 34 34
-0.6476033329963684 0.2483057975769043 2.223154306411743 67 67 67
-0.6402673721313477 0.40345141291618347 2.2310428619384766 137 137 137
-0.6392657160758972 0.25798168778419495 2.222813129425049 41 41 41
-0.7249186635017395 -0.377049058675766 2.5887484550476074 124 124 124
-0.6238749623298645 0.38450369238853455 2.2331976890563965 98 98 98
-0.6238749623298645 0.38450369238853455 2.2331976890563965 98 98 98
-0.6156213879585266 0.398383229970932 2.2309823036193848 73 73 73
-0.6028572916984558 0.1901148110628128 2.2225749492645264 57 57 57
-0.6986218690872192 -0.11437992751598358 2.5991764068603516 115 115 115
-0.6986218690872192 -0.11437992751598358 2.5991764068603516 115 115 115
-0.5834282040596008 0.2753041386604309 2.217072010040283 73 73 73
-0.611296534538269 -0.347259521484375 2.333273410797119 34 34 34
-0.565678060054779 0.5142819285392761 2.2379744052886963 61 61 61
-0.561750054359436 0.4390917718410492 2.2324185371398926 141 141 141
-0.4237424433231354 -0.22294273972511292 1.6777876615524292 43 43 43
-0.5572288632392883 0.4077499806880951 2.2267415523529053 111 111 111
