ply
format ascii 1.0
element vertex 95
property float x
property float y
property float z
property uchar red
property uchar green
property uchar blue
end_header
-1.2872053384780884 -0.46061503887176514 2.6925745010375977 25 25 25
-1.261612057685852 -0.11418430507183075 2.7400760650634766 23 23 23
-1.2536126375198364 0.059925567358732224 2.766737222671509 44 44 44
-1.2632924318313599 0.42132845520973206 2.798227071762085 121 121 121
-1.281706690788269 1.343965768814087 2.925342321395874 115 115 115
-1.1624184846878052 -0.9773881435394287 2.6791555881500244 116 116 116
-1.1325252056121826 -0.462988942861557 2.7289769649505615 104 104 104
-1.207008719444275 1.1843584775924683 2.9344711303710938 122 122 122
-1.192846417427063 1.4948625564575195 2.9868104457855225 17 17 17
-1.088422179222107 -0.6387230753898621 2.7290003299713135 112 112 112
-1.1165460348129272 0.066492460668087 2.81040358543396 134 134 134
-1.1112892627716064 0.05064612999558449 2.7992563247680664 54 54 54
-1.0775529146194458 -0.6290345191955566 2.7448697090148926 30 30 30
-1.0542476177215576 -0.4322921931743622 2.7782747745513916 106 106 106
-1.061069369316101 0.03779972717165947 2.837137222290039 25 25 25
-1.0570571422576904 1.3289066553115845 2.99631667137146 93 93 93
-1.0430630445480347 0.8930653929710388 2.9663355350494385 109 109 109
-0.9533109664916992 -0.47212305665016174 2.8041417598724365 81 81 81
-0.8694560527801514 -0.6047807335853577 2.8066885471343994 93 93 93
-0.8609182834625244 -0.8207663893699646 2.8034939765930176 23 23 23
-0.8466032147407532 -0.47417527437210083 2.8502113819122314 29 29 29
-0.8196935057640076 -0.1379048228263855 2.8914666175842285 20 20 20
-0.7745363116264343 -1.3096493482589722 2.7528083324432373 119 119 119
-0.8217337131500244 0.5613080859184265 2.9710183143615723 126 126 126
-0.8031301498413086 -0.1563262790441513 2.9056899547576904 108 108 108
-0.8065124154090881 0.6802598834037781 3.0209999084472656 19 19 19
-0.8090676665306091 1.6369707584381104 3.1333584785461426 91 91 91
-0.7462064027786255 0.08697725087404251 2.950187921524048 84 84 84
-0.7462064027786255 0.08697725087404251 2.950187921524048 84 84 84
-0.6753784418106079 -0.652385950088501 2.8851494789123535 35 35 35
-0.6547717452049255 -0.6525372862815857 2.887212038040161 51 51 51
-0.6547717452049255 -0.6525372862815857 2.887212038040161 51 51 51
-0.6660625338554382 0.5696907043457031 3.026221990585327 52 52 52
-0.6388728618621826 -0.3407653570175171 2.9330546855926514 106 106 106
-0.6528857350349426 0.5114521980285645 3.04343843460083 23 23 23
-0.6208778023719788 -0.3419395685195923 2.94509220123291 19 19 19
-0.6208778023719788 -0.3419395685195923 2.94509220123291 19 19 19
-0.6164667010307312 -0.3270171284675598 2.947014570236206 135 135 135
-0.6288232803344727 0.7190592288970947 3.0851259231567383 96 96 96
-0.6097649931907654 0.3303926885128021 3.0325634479522705 143 143 143
-0.5916649103164673 -0.1200232282280922 2.973137855529785 133 133 133
-0.5903183221817017 -0.11935882270336151 2.970747470855713 133 133 133
-0.5510752201080322 -1.4763320684432983 2.809769868850708 132 132 132
-0.5886098146438599 0.7018817663192749 3.0702896118164062 67 67 67
-0.556323230266571 0.5880211591720581 3.084768295288086 32 32 32
-0.49635329842567444 -1.5427032709121704 2.8437020778656006 94 94 94
-0.5314443707466125 0.7848998308181763 3.1204864978790283 101 101 101
-0.47657570242881775 -1.7242770195007324 2.822950839996338 106 106 106
-0.5157738924026489 0.6259371638298035 3.0994338989257812 59 59 59
-0.5233928561210632 0.9411430358886719 3.1491081714630127 107 107 107
-0.46807417273521423 -1.6750917434692383 2.847775459289551 107 107 107
-0.5122915506362915 0.8697928190231323 3.1463582515716553 79 79 79
-0.499288946390152 0.3102198541164398 3.074050188064575 62 62 62
-0.4502154588699341 -1.4905411005020142 2.8508448600769043 94 94 94
-0.46793052554130554 -0.32103675603866577 2.996502161026001 43 43 43
-0.48226407170295715 0.44692420959472656 3.1060471534729004 45 45 45
-0.421852171421051 -1.2301298379898071 2.8914029598236084 36 36 36
-0.4340071976184845 -0.3319913446903229 2.998873233795166 25 25 25
-0.4208560883998871 -0.9109348058700562 2.933011054992676 40 40 40
-0.42696622014045715 -0.33543792366981506 3.0029749870300293 20 20 20
-0.41829824447631836 -0.30850887298583984 3.020941734313965 109 109 109
-0.3950461149215698 -1.641297459602356 2.8627936840057373 124 124 124
-0.3966641128063202 -0.6748660206794739 2.9762001037597656 20 20 20
-0.37726813554763794 -1.5864510536193848 2.8684144020080566 41 41 41
-0.39120054244995117 0.4205869436264038 3.1115660667419434 89 89 89
-0.3782264292240143 -0.16634756326675415 3.047884225845337 22 22 22
-0.3863758146762848 0.6584216952323914 3.160588502883911 15 15 15
-0.34011855721473694 -1.5609492063522339 2.8883044719696045 28 28 28
-0.33066874742507935 -0.8466615080833435 2.9749391078948975 59 59 59
-0.3616834878921509 1.4309839010238647 3.266371965408325 14 14 14
-0.31153401732444763 -0.16287580132484436 3.0583927631378174 31 31 31
-0.31153401732444763 -0.16287580132484436 3.0583927631378174 31 31 31
-0.28708043694496155 -1.5659701824188232 2.9168648719787598 81 81 81
-0.27992600202560425 -1.0190942287445068 2.9718148708343506 24 24 24
-0.27992600202560425 -1.0190942287445068 2.9718148708343506 24 24 24
-0.28507566452026367 -0.164096400141716 3.0803515911102295 29 29 29
-0.26076769828796387 -0.675335705280304 3.0242021083831787 53 53 53
-0.2668737471103668 0.39070791006088257 3.1481759548187256 63 63 63
-0.24148552119731903 -1.0013266801834106 2.984292507171631 93 93 93
-0.25049927830696106 0.36672714352607727 3.164957284927368 150 150 150
-0.20781254768371582 0.3376709520816803 3.1573028564453125 135 135 135
-0.1966344267129898 -1.0419710874557495 2.9971609115600586 99 99 99
-0.20522171258926392 0.37038013339042664 3.1744017601013184 52 52 52
-0.18490836024284363 -1.6799994707107544 2.9144346714019775 71 71 71
-0.1802922785282135 -0.8468427658081055 3.023169755935669 27 27 27
-0.1768445074558258 -1.3512017726898193 2.981616973876953 78 78 78
-0.18379776179790497 0.4811829626560211 3.1917741298675537 23 23 23
-0.17053112387657166 -1.1829850673675537 2.9870760440826416 24 24 24
-0.17169417440891266 -0.692395031452179 3.062413215637207 21 21 21
-0.17169417440891266 -0.692395031452179 3.062413215637207 21 21 21
-0.15496470034122467 0.48866066336631775 3.2221014499664307 20 20 20
-0.14844472706317902 -0.34922584891319275 3.100949764251709 23 23 23
-0.1481381058692932 0.3558880388736725 3.1947431564331055 47 47 47
-0.14180758595466614 0.00128025165759027 3.1371212005615234 78 78 78
-0.08600274473428726 -0.17828547954559326 3.143451690673828 17 17 17
