ply
format ascii 1.0
element vertex 46
property float x
property float y
property float z
property uchar red
property uchar green
property uchar blue
end_header
-1.2585608959197998 -0.19579018652439117 2.604762077331543 20 20 20
-1.2552822828292847 0.09893151372671127 2.614013195037842 81 81 81
-1.248775839805603 -0.2131662517786026 2.6025443077087402 69 69 69
-1.2424238920211792 0.11252710223197937 2.6239352226257324 14 14 14
-1.2248218059539795 -0.6646326780319214 2.593489646911621 20 20 20
-1.2233967781066895 -0.1930326521396637 2.6144964694976807 30 30 30
-1.2274212837219238 0.28538861870765686 2.638706922531128 113 113 113
-1.2379565238952637 1.0387521982192993 2.670405864715576 92 92 92
-1.2204169034957886 0.43077847361564636 2.6601722240448 19 19 19
-1.0405523777008057 -0.17005406320095062 2.677629232406616 18 18 18
-1.0421302318572998 -0.03701343759894371 2.68243670463562 13 13 13
-1.027889609336853 -0.3549928665161133 2.6757724285125732 14 14 14
-1.0318639278411865 0.2707393169403076 2.6967451572418213 13 13 13
-0.8489407896995544 0.614121675491333 2.779843330383301 8 8 8
-0.8321241140365601 -0.27809083461761475 2.738598585128784 79 79 79
-0.8364596962928772 0.11781217157840729 2.7557199001312256 12 12 12
-0.8318125605583191 -0.025439569726586342 2.7542178630828857 11 11 11
-0.8261643052101135 -0.1935901641845703 2.746800184249878 16 16 16
-0.8197209239006042 -0.2088295817375183 2.7452375888824463 12 12 12
-0.8163599967956543 -0.3225287199020386 2.744135618209839 16 16 16
-0.6766494512557983 -0.4376407563686371 2.7783315181732178 91 91 91
-0.6588464379310608 0.7609626650810242 2.859246253967285 11 11 11
-0.6398888826370239 -0.16465657949447632 2.797802209854126 80 80 80
-0.6149875521659851 -0.34964823722839355 2.809786558151245 13 13 13
-0.6158726811408997 0.2812778949737549 2.83437442779541 9 9 9
-0.5876621603965759 -1.0122120380401611 2.7911128997802734 15 15 15
-0.5206612944602966 0.17545869946479797 2.8494722843170166 71 71 71
-0.45737600326538086 0.6257054805755615 2.9139211177825928 63 63 63
-0.4276977777481079 0.1172187477350235 2.8760271072387695 60 60 60
-0.4283376932144165 0.9222248792648315 2.9251551628112793 10 10 10
-0.41075998544692993 0.13066476583480835 2.8830084800720215 11 11 11
-0.41035109758377075 0.32500842213630676 2.8964316844940186 12 12 12
-0.39240187406539917 -0.5102227330207825 2.864882469177246 14 14 14
-0.3973391354084015 0.3126085102558136 2.9017858505249023 97 97 97
-0.3925756514072418 -0.1822919100522995 2.8741679191589355 14 14 14
-0.3703165352344513 -0.8373157382011414 2.8523001670837402 11 11 11
-0.33288243412971497 -0.5148452520370483 2.865328550338745 59 59 59
-0.19892357289791107 -0.17072312533855438 2.9323246479034424 18 18 18
-0.19679945707321167 -0.022356845438480377 2.9367547035217285 8 8 8
-0.18998068571090698 0.14233200252056122 2.9484665393829346 10 10 10
-0.14365831017494202 -0.01417072769254446 2.9530704021453857 14 14 14
-0.13923463225364685 1.854291558265686 3.0439419746398926 10 10 10
-0.13923463225364685 1.854291558265686 3.0439419746398926 10 10 10
0.005098853725939989 0.12589481472969055 2.9940242767333984 52 52 52
0.04246063902974129 -0.5004727840423584 2.975682258605957 9 9 9
0.07275994122028351 -0.6278984546661377 2.975475788116455 53 53 53
