ply
format ascii 1.0
element vertex 178
property float x
property float y
property float z
property uchar red
property uchar green
property uchar blue
end_header
-2.594813346862793 0.6301678419113159 5.536751747131348 133 133 133
-2.594813346862793 0.6301678419113159 5.536751747131348 133 133 133
-2.4972338676452637 0.9629016518592834 5.560418128967285 94 94 94
-2.4033093452453613 0.5433499217033386 5.733268737792969 101 101 101
-2.3403682708740234 1.5286000967025757 5.6455302238464355 30 30 30
-2.486687421798706 -0.04226008057594299 6.087662696838379 48 48 48
-2.2908475399017334 2.013221263885498 5.620026588439941 76 76 76
-2.333909511566162 0.5161455273628235 5.792453289031982 36 36 36
-2.2742319107055664 1.183240294456482 5.6503777503967285 19 19 19
-2.227724313735962 2.287357807159424 5.63463020324707 78 78 78
-2.2285988330841064 1.2694814205169678 5.6667799949646 118 118 118
-2.2781107425689697 0.4579835832118988 5.823446750640869 84 84 84
-2.1974031925201416 1.1370189189910889 5.651515960693359 53 53 53
-2.203312397003174 1.2287166118621826 5.671319007873535 67 67 67
-2.196779251098633 0.5540865659713745 5.682994842529297 101 101 101
-2.2150468826293945 -1.7787625789642334 5.771684169769287 20 20 20
-2.1431026458740234 1.2177780866622925 5.679568767547607 116 116 116
-2.23657488822937 -0.902471661567688 5.965155124664307 79 79 79
-2.1361312866210938 -2.016646385192871 5.726973533630371 135 135 135
-2.1280360221862793 -2.214599132537842 5.716436386108398 132 132 132
-1.6284586191177368 2.6345884799957275 4.4304118156433105 66 66 66
-1.77456796169281 2.5301547050476074 4.830511569976807 48 48 48
-2.156827926635742 0.511581301689148 5.876255035400391 24 24 24
-2.3675525188446045 -0.04667150229215622 6.467755317687988 46 46 46
-2.38960337638855 -0.7140747904777527 6.549664497375488 34 34 34
-2.051847457885742 1.1627146005630493 5.705663681030273 35 35 35
-2.441579818725586 -1.1976128816604614 6.810301303863525 21 21 21
-2.036210298538208 -2.2082865238189697 5.74172830581665 131 131 131
-2.3549201488494873 -0.3419540822505951 6.6639204025268555 52 52 52
-2.105376958847046 -1.4926058053970337 5.979805946350098 57 57 57
-2.0131850242614746 1.6162283420562744 5.730620384216309 115 115 115
-2.0155584812164307 -2.188702344894409 5.741486072540283 133 133 133
-1.9881945848464966 1.9005990028381348 5.743959426879883 83 83 83
-1.9881945848464966 1.9005990028381348 5.743959426879883 83 83 83
-1.9790260791778564 1.0369669198989868 5.751710891723633 92 92 92
-1.9631251096725464 1.7474526166915894 5.717851161956787 92 92 92
-2.3398053646087646 -0.666693925857544 6.83711051940918 38 38 38
-1.9602959156036377 1.319959282875061 5.740621566772461 140 140 140
-1.9604008197784424 0.6251301169395447 5.764063835144043 59 59 59
-2.291168212890625 0.19828684628009796 6.745259761810303 113 113 113
-1.9411284923553467 0.8218995332717896 5.777714729309082 21 21 21
-1.788196086883545 -0.970067024230957 5.3517022132873535 24 24 24
-2.2300844192504883 0.03102176822721958 6.675933837890625 254 254 254
-2.1845734119415283 -0.7943022847175598 6.585968971252441 31 31 31
-1.9051637649536133 1.3501033782958984 5.8020172119140625 11 11 11
-1.8537912368774414 2.166023015975952 5.761530876159668 105 105 105
-2.1439783573150635 0.12330351024866104 6.665476322174072 253 253 253
-1.846530795097351 2.158325433731079 5.779154300689697 102 102 102
-1.9086360931396484 -1.2167823314666748 6.175106525421143 31 31 31
-1.7911301851272583 1.6184523105621338 5.7997918128967285 95 95 95
-1.7932945489883423 1.8671971559524536 5.8099799156188965 32 32 32
-1.7880961894989014 1.2449194192886353 5.823740482330322 117 117 117
-1.762747883796692 1.7959171533584595 5.8125104904174805 92 92 92
-2.000498056411743 -0.29544055461883545 6.739016532897949 121 121 121
-1.7312005758285522 1.2163773775100708 5.836038589477539 128 128 128
-1.7125571966171265 1.311574935913086 5.813899993896484 130 130 130
-1.9809743165969849 -0.05463653430342674 6.728241920471191 240 240 240
-1.7052596807479858 1.3001028299331665 5.8052520751953125 122 122 122
-1.6901419162750244 1.2340041399002075 5.834860324859619 65 65 65
-1.6911070346832275 1.005088210105896 5.842772006988525 129 129 129
-1.9287947416305542 -0.7368499636650085 6.726327419281006 102 102 102
-1.9476689100265503 -0.19360405206680298 6.7964887619018555 51 51 51
-1.9476689100265503 -0.19360405206680298 6.7964887619018555 51 51 51
-1.6647465229034424 1.1596966981887817 5.880497455596924 35 35 35
-1.6647465229034424 1.1596966981887817 5.880497455596924 35 35 35
-1.6284068822860718 1.2106986045837402 5.861084461212158 126 126 126
-1.8958909511566162 0.07630643248558044 6.836746692657471 145 145 145
-1.6099287271499634 1.144067406654358 5.877047061920166 38 38 38
-1.6114367246627808 1.2716065645217896 5.890730381011963 128 128 128
-1.5869951248168945 1.648210883140564 5.865532398223877 106 106 106
-1.570971131324768 1.657712697982788 5.84637975692749 103 103 103
-1.5619014501571655 1.2004284858703613 5.875278472900391 72 72 72
-1.5395506620407104 1.7750049829483032 5.865545272827148 104 104 104
-1.5886504650115967 -0.8814354538917542 6.0932159423828125 26 26 26
-1.5284682512283325 0.6403084993362427 5.9045257568359375 60 60 60
-1.5457494258880615 0.5512282848358154 5.990275859832764 109 109 109
-1.5273832082748413 1.3272382020950317 5.926209926605225 121 121 121
-1.5141862630844116 1.4409018754959106 5.8788299560546875 113 113 113
-1.5206512212753296 -2.196629524230957 5.928401947021484 133 133 133
-1.5100386142730713 -2.600968837738037 5.915501117706299 125 125 125
-1.5129857063293457 1.4100781679153442 5.926405429840088 124 124 124
-1.4467222690582275 -0.8346866369247437 5.769878387451172 35 35 35
-1.4543571472167969 1.9795531034469604 5.8906941413879395 38 38 38
-1.4442235231399536 2.295499324798584 5.943045139312744 58 58 58
-1.3129826784133911 -0.7905203104019165 5.465200424194336 40 40 40
-1.375823736190796 1.4363423585891724 5.926467418670654 123 123 123
-1.375823736190796 1.4363423585891724 5.926467418670654 123 123 123
-1.522871732711792 -0.2705824375152588 6.56596565246582 46 46 46
-1.413981318473816 0.5587568879127502 6.217442512512207 129 129 129
-1.330047369003296 -2.0706357955932617 5.962487697601318 111 111 111
-1.3527634143829346 -1.82649827003479 6.175820350646973 25 25 25
-1.298133373260498 1.8690189123153687 5.953916549682617 27 27 27
-1.278104305267334 1.2192214727401733 5.951164722442627 156 156 156
-1.3300421237945557 -1.456734538078308 6.198182106018066 40 40 40
-1.2831401824951172 1.2688981294631958 5.985533237457275 129 129 129
-1.2353708744049072 1.2277147769927979 5.969967365264893 92 92 92
-1.2498544454574585 -1.8540489673614502 6.184168338775635 83 83 83
-1.2340071201324463 0.4723054766654968 6.1199445724487305 62 62 62
-1.1826438903808594 1.4387599229812622 5.960897445678711 127 127 127
-1.1826438903808594 1.4387599229812622 5.960897445678711 127 127 127
-1.170295000076294 1.6686794757843018 6.031257629394531 119 119 119
-1.1270008087158203 1.8090033531188965 6.039965629577637 52 52 52
-1.1188054084777832 -2.0885133743286133 6.04386043548584 113 113 113
-1.0988144874572754 1.8285592794418335 6.018486022949219 109 109 109
-1.1317769289016724 -1.6802748441696167 6.305330753326416 95 95 95
-1.0605037212371826 1.2444814443588257 6.075160980224609 136 136 136
-1.1026337146759033 -1.7466105222702026 6.373499870300293 235 235 235
-1.0574560165405273 0.5040892958641052 6.21226692199707 64 64 64
-1.0731838941574097 0.2909676432609558 6.361670970916748 209 209 209
-1.0160850286483765 0.5443668365478516 6.092898368835449 124 124 124
-0.9688753485679626 1.1797062158584595 6.070829391479492 20 20 20
-0.9688753485679626 1.1797062158584595 6.070829391479492 20 20 20
-0.9706710577011108 0.7973356246948242 6.11435604095459 49 49 49
-0.9532732367515564 1.1999303102493286 6.105355262756348 38 38 38
-0.9386386871337891 1.4239948987960815 6.069879055023193 103 103 103
-0.9287216663360596 0.5387260913848877 6.041331768035889 127 127 127
-0.9056327939033508 1.5669883489608765 6.093527317047119 95 95 95
-0.8943578004837036 1.5787404775619507 6.043972015380859 118 118 118
-0.8971731066703796 1.4335026741027832 6.109792232513428 46 46 46
-0.8971731066703796 1.4335026741027832 6.109792232513428 46 46 46
-0.8877162337303162 1.4278465509414673 6.080572605133057 46 46 46
-0.8877162337303162 1.4278465509414673 6.080572605133057 46 46 46
-0.86409991979599 0.5813712477684021 6.082261085510254 56 56 56
-0.8964567184448242 -1.5359594821929932 6.385811805725098 219 219 219
-0.8153060078620911 1.275141716003418 6.142958641052246 119 119 119
-0.7390410304069519 1.1545103788375854 6.11859130859375 36 36 36
-0.7114705443382263 1.6014831066131592 6.097335338592529 56 56 56
-0.7143511772155762 1.2987229824066162 6.126292705535889 61 61 61
-0.6980614066123962 1.2575979232788086 6.162959098815918 96 96 96
-0.6980614066123962 1.2575979232788086 6.162959098815918 96 96 96
-0.672941267490387 -2.1770715713500977 6.172504901885986 94 94 94
-0.6414262056350708 1.2502676248550415 6.1109395027160645 95 95 95
-0.6245481967926025 0.741619348526001 6.155375957489014 56 56 56
-0.5215946435928345 1.0013220310211182 6.168844699859619 20 20 20
-0.49670326709747314 -2.0425784587860107 6.206516742706299 106 106 106
-0.4662967920303345 1.2784498929977417 6.1526970863342285 82 82 82
-0.4662967920303345 1.2784498929977417 6.1526970863342285 82 82 82
-0.4604811370372772 0.7262013554573059 6.1978254318237305 170 170 170
-0.4241839051246643 0.8322725892066956 6.212611675262451 112 112 112
-0.4133989214897156 1.3054335117340088 6.234224319458008 108 108 108
-0.4029289186000824 1.7844417095184326 6.174673080444336 122 122 122
-0.387084037065506 0.5360125303268433 6.156630516052246 124 124 124
-0.3949751555919647 -1.6504679918289185 6.57620096206665 234 234 234
-0.2956586480140686 1.8381065130233765 5.889087200164795 114 114 114
-0.2845519483089447 0.793452799320221 6.23298454284668 26 26 26
-0.27964112162590027 0.8348472714424133 6.283935070037842 116 116 116
-0.2494330108165741 1.8622119426727295 5.759603023529053 115 115 115
-0.2494330108165741 1.8622119426727295 5.759603023529053 115 115 115
-0.21384045481681824 2.0804505348205566 5.78101921081543 14 14 14
-0.1806005984544754 1.9130817651748657 5.796632766723633 34 34 34
-0.18539799749851227 1.3738272190093994 6.2375264167785645 87 87 87
-0.13299958407878876 0.6440529823303223 6.265110015869141 94 94 94
-0.11291318386793137 -1.8498799800872803 6.312410831451416 41 41 41
-0.0946502611041069 1.8916224241256714 5.779502868652344 27 27 27
-0.06543958187103271 1.75325608253479 6.095657825469971 120 120 120
-0.0008846564451232553 2.361936092376709 5.9878458976745605 110 110 110
0.08029644191265106 2.3295366764068604 5.969901084899902 75 75 75
0.428052693605423 2.541821002960205 5.267373085021973 21 21 21
0.4334714710712433 1.5660580396652222 5.236566066741943 19 19 19
0.47559964656829834 -0.9982547163963318 5.152504920959473 24 24 24
0.5151285529136658 -0.8156699538230896 5.193572044372559 21 21 21
0.5151285529136658 -0.8156699538230896 5.193572044372559 21 21 21
0.6035724878311157 1.1946070194244385 5.267004013061523 6 6 6
0.6242126822471619 1.0232106447219849 5.263772487640381 28 28 28
0.6920874714851379 2.57643723487854 5.217862129211426 98 98 98
0.7545050978660583 -1.6954973936080933 5.152424335479736 134 134 134
1.2037385702133179 0.6030701398849487 3.0793042182922363 17 17 17
1.2147701978683472 0.39581605792045593 3.0486903190612793 118 118 118
1.2142988443374634 -0.21608708798885345 3.037487268447876 22 22 22
1.2164427042007446 -0.4738547205924988 3.0394866466522217 106 106 106
1.2551065683364868 -1.3537909984588623 2.974407434463501 25 25 25
1.2685350179672241 -1.1232779026031494 2.8784217834472656 109 109 109
1.2875502109527588 0.4992891550064087 2.8194773197174072 17 17 17
1.2875502109527588 0.4992891550064087 2.8194773197174072 17 17 17
1.3008804321289062 0.42001786828041077 2.8157520294189453 25 25 25
1.2981468439102173 -0.23412247002124786 2.783325433731079 87 87 87
1.3085107803344727 -0.6724683046340942 2.765402317047119 92 92 92
1.3085107803344727 -0.6724683046340942 2.765402317047119 92 92 92
