ply
format ascii 1.0
element vertex 52
property float x
property float y
property float z
property uchar red
property uchar green
property uchar blue
end_header
-1.9589951038360596 1.9386687278747559 4.016644477844238 47 47 47
-5.622801780700684 -2.2233033180236816 11.693279266357422 96 96 96
-5.622801780700684 -2.2233033180236816 11.693279266357422 96 96 96
-5.705597877502441 -2.2805938720703125 11.97697639465332 25 25 25
-5.566117286682129 0.502639651298523 11.856965065002441 29 29 29
-7.618569374084473 -3.229658842086792 17.901397705078125 36 36 36
-8.137114524841309 -3.318199872970581 20.265125274658203 59 59 59
-9.43874454498291 -1.8228636980056763 24.051374435424805 129 129 129
-9.353591918945312 -2.0322511196136475 23.94487762451172 39 39 39
-3.033113956451416 -2.8792059421539307 7.809237480163574 253 253 253
-3.033113956451416 -2.8792059421539307 7.809237480163574 253 253 253
-7.874481201171875 -3.6160340309143066 20.389631271362305 40 40 40
-9.18959903717041 -2.293485641479492 23.918874740600586 144 144 144
-9.18959903717041 -2.293485641479492 23.918874740600586 144 144 144
-10.1741943359375 -3.677844285964966 26.737834930419922 21 21 21
-4.773993968963623 -3.2372844219207764 12.736004829406738 251 251 251
-3.9882216453552246 -2.757556200027466 10.860655784606934 250 250 250
-8.560613632202148 -0.8929775953292847 23.408519744873047 90 90 90
-8.695629119873047 -2.2271063327789307 23.78167724609375 30 30 30
-6.004348278045654 -3.4844090938568115 16.43684196472168 250 250 250
-8.512960433959961 -2.285522937774658 23.723587036132812 157 157 157
-8.135435104370117 -1.1306859254837036 22.77825164794922 212 212 212
-8.257880210876465 -1.4125896692276 23.33112907409668 107 107 107
-7.860165119171143 -1.9597883224487305 22.619218826293945 20 20 20
-8.311233520507812 -3.5882744789123535 24.431922912597656 25 25 25
-7.738299369812012 -1.7471338510513306 23.066686630249023 31 31 31
-5.882900238037109 -0.626837432384491 18.77130699157715 130 130 130
-1.4589532613754272 1.1675763130187988 7.439785003662109 20 20 20
-1.3055490255355835 1.205039381980896 7.429117202758789 70 70 70
-0.18058818578720093 2.0195345878601074 3.319781541824341 70 70 70
-0.016017014160752296 1.9663722515106201 3.5541207790374756 107 107 107
0.5647479295730591 -1.304222583770752 2.6020236015319824 28 28 28
0.5647479295730591 -1.304222583770752 2.6020236015319824 28 28 28
0.5735780000686646 -1.1486012935638428 2.6375787258148193 42 42 42
0.6627588272094727 1.0848064422607422 2.9982662200927734 27 27 27
0.6048380732536316 -1.1461936235427856 2.6392030715942383 43 43 43
0.6048380732536316 -1.1461936235427856 2.6392030715942383 43 43 43
0.6737616658210754 -0.45511847734451294 2.7727761268615723 35 35 35
0.6772178411483765 -0.6765021085739136 2.748692750930786 58 58 58
0.6967342495918274 -0.2876265048980713 2.800438642501831 68 68 68
0.6616111397743225 -1.2783203125 2.648283004760742 99 99 99
0.6964170336723328 -0.4586147964000702 2.782407760620117 42 42 42
0.7352240681648254 0.38088205456733704 2.919334650039673 23 23 23
0.6994516849517822 -0.6016114354133606 2.770745277404785 30 30 30
0.7179532051086426 -0.2966066598892212 2.807194948196411 103 103 103
0.7486261129379272 0.24836033582687378 2.8727352619171143 125 125 125
0.7131675481796265 -0.8851593732833862 2.732178211212158 44 44 44
0.7934584617614746 -1.3046393394470215 2.6213672161102295 58 58 58
1.0412448644638062 -0.15011215209960938 2.875518321990967 85 85 85
1.2086306810379028 0.46816685795783997 2.841837167739868 119 119 119
1.2489756345748901 0.3153251111507416 2.7149174213409424 33 33 33
1.2539631128311157 0.25630226731300354 2.6861064434051514 32 32 32
