ply
format ascii 1.0
element vertex 111
property float x
property float y
property float z
property uchar red
property uchar green
property uchar blue
end_header
-1.782212734222412 0.6770384311676025 3.7172634601593018 92 92 92
-1.8018454313278198 0.18253079056739807 3.764350652694702 51 51 51
-1.7682024240493774 0.3729773163795471 3.7288131713867188 133 133 133
-1.7682024240493774 0.3729773163795471 3.7288131713867188 133 133 133
-1.7769674062728882 -1.1663148403167725 3.866117477416992 204 204 204
-1.685664176940918 -1.422513484954834 3.821934461593628 97 97 97
-1.617877721786499 0.3150336444377899 3.818899631500244 121 121 121
-1.5791785717010498 -0.48342621326446533 3.8943991661071777 251 251 251
-1.5322858095169067 0.8018340468406677 3.821361541748047 121 121 121
-1.5150326490402222 0.7172418236732483 3.810676097869873 39 39 39
-1.5150326490402222 0.7172418236732483 3.810676097869873 39 39 39
-1.5181325674057007 0.33028289675712585 3.8373758792877197 102 102 102
-1.5440471172332764 0.23365093767642975 3.911661148071289 46 46 46
-1.5393564701080322 0.26830804347991943 3.9185895919799805 94 94 94
-1.4772089719772339 0.7697053551673889 3.825546979904175 114 114 114
-1.507438063621521 -1.4024149179458618 3.904569625854492 132 132 132
-1.5205516815185547 -0.26493605971336365 4.0823187828063965 228 228 228
-1.4255255460739136 0.7402979731559753 3.862238883972168 33 33 33
-1.4287190437316895 0.29760846495628357 3.9033455848693848 17 17 17
-1.3866568803787231 1.0307362079620361 3.848987579345703 109 109 109
-1.3866568803787231 1.0307362079620361 3.848987579345703 109 109 109
-1.488055944442749 -0.2701331675052643 4.132960319519043 68 68 68
-1.3847872018814087 0.7468680143356323 3.8508520126342773 24 24 24
-1.4823802709579468 -0.3209230601787567 4.129248142242432 10 10 10
-1.3727834224700928 0.8031445145606995 3.833207845687866 56 56 56
-1.4661425352096558 -0.07906053960323334 4.118384838104248 46 46 46
-1.3761451244354248 0.6572604775428772 3.8914382457733154 98 98 98
-1.465484380722046 -0.4834190011024475 4.143125057220459 31 31 31
-1.3966381549835205 -1.4163682460784912 3.9510955810546875 116 116 116
-1.3642206192016602 1.1258808374404907 3.863671064376831 94 94 94
-1.444595456123352 -0.30168870091438293 4.109617233276367 241 241 241
-1.3585387468338013 0.8399386405944824 3.867391347885132 134 134 134
-1.366074562072754 0.38193798065185547 3.9000632762908936 55 55 55
-1.353263020515442 0.8070080876350403 3.8671834468841553 133 133 133
-1.3430849313735962 0.7412483096122742 3.8876307010650635 55 55 55
-1.3391519784927368 0.802530825138092 3.8825292587280273 63 63 63
-1.3792424201965332 -0.5729621648788452 4.018014907836914 186 186 186
-1.4154789447784424 -0.253202885389328 4.1635541915893555 55 55 55
-1.3943310976028442 -0.3794783055782318 4.113873481750488 47 47 47
-1.304993987083435 0.8506985306739807 3.8676958084106445 38 38 38
-1.2929351329803467 1.0776195526123047 3.862091541290283 16 16 16
-1.2929351329803467 1.0776195526123047 3.862091541290283 16 16 16
-1.4088748693466187 -0.18774105608463287 4.235602855682373 254 254 254
-1.4088748693466187 -0.18774105608463287 4.235602855682373 254 254 254
-1.3621885776519775 0.14724786579608917 4.158140659332275 155 155 155
-1.347074031829834 0.07607581466436386 4.147629737854004 85 85 85
-1.327818512916565 -0.02979516051709652 4.130364418029785 254 254 254
-1.327818512916565 -0.02979516051709652 4.130364418029785 254 254 254
-1.2451543807983398 1.0391031503677368 3.903228998184204 91 91 91
-1.3179057836532593 -0.471813440322876 4.142343044281006 213 213 213
-1.2453252077102661 1.206128478050232 3.9139113426208496 25 25 25
-1.2412242889404297 0.7927574515342712 3.9166316986083984 121 121 121
-1.2767181396484375 0.18613970279693604 4.036065101623535 67 67 67
-1.238396406173706 0.3303448557853699 3.931558609008789 107 107 107
-1.2317687273025513 1.1659939289093018 3.9350430965423584 90 90 90
-1.1776955127716064 0.7731354832649231 3.94173526763916 129 129 129
-1.1522152423858643 0.7368519902229309 3.933950901031494 33 33 33
-1.1412631273269653 0.7765681147575378 3.955312490463257 122 122 122
-1.2028400897979736 -0.23099465668201447 4.210416793823242 44 44 44
-1.1979658603668213 0.009667551144957542 4.201279163360596 254 254 254
-1.1979658603668213 0.009667551144957542 4.201279163360596 254 254 254
-1.1223630905151367 0.7276738286018372 3.9445624351501465 25 25 25
-1.1518642902374268 0.18239447474479675 4.057957649230957 74 74 74
-1.146386981010437 0.33903688192367554 4.041962623596191 110 110 110
-1.1195998191833496 0.8132598400115967 3.9487924575805664 131 131 131
-1.1385843753814697 -1.7985278367996216 4.085729122161865 83 83 83
-1.1723990440368652 -0.5002548098564148 4.232650279998779 6 6 6
-1.1178903579711914 0.20553410053253174 4.068620681762695 159 159 159
-1.0783478021621704 1.1485979557037354 3.9419426918029785 94 94 94
-1.1411123275756836 -0.3003363609313965 4.210925102233887 30 30 30
-1.1016982793807983 -1.5525420904159546 4.062824726104736 133 133 133
-1.0442570447921753 0.1680200845003128 3.8555822372436523 76 76 76
-1.076465129852295 0.3979858160018921 3.987030506134033 60 60 60
-1.067419171333313 1.0707913637161255 3.9489858150482178 115 115 115
-1.0649863481521606 0.931803286075592 3.9644861221313477 121 121 121
-1.1308177709579468 -0.5445196628570557 4.219145774841309 43 43 43
-1.0620778799057007 0.8464496731758118 3.9673972129821777 124 124 124
-1.1239460706710815 -0.2848407030105591 4.219693183898926 39 39 39
-1.1142418384552002 0.005386308766901493 4.210712432861328 139 139 139
-1.0492489337921143 0.5558996796607971 3.9938364028930664 104 104 104
-1.0492489337921143 0.5558996796607971 3.9938364028930664 104 104 104
-1.1109119653701782 -0.4876745939254761 4.228732109069824 30 30 30
-0.9503672122955322 0.15591411292552948 3.67909836769104 80 80 80
-1.063880205154419 0.04831445589661598 4.164398193359375 227 227 227
-1.063880205154419 0.04831445589661598 4.164398193359375 227 227 227
-1.0184483528137207 0.5731819272041321 3.9906857013702393 33 33 33
-1.0217849016189575 0.6525700092315674 4.00870418548584 19 19 19
-1.009291410446167 0.8497766256332397 3.9938113689422607 140 140 140
-1.0157520771026611 0.2798500955104828 4.090104103088379 63 63 63
-0.9970029592514038 0.33064210414886475 4.03303337097168 108 108 108
-0.972832977771759 0.9318204522132874 3.999281883239746 132 132 132
-0.9555312991142273 1.054730772972107 3.956780433654785 117 117 117
-0.9506380558013916 1.0551849603652954 3.9832396507263184 115 115 115
-0.9042271375656128 0.788072407245636 4.001501560211182 121 121 121
-0.8997372984886169 0.81475830078125 4.004770755767822 126 126 126
-0.8902866840362549 0.8553367853164673 4.017162322998047 137 137 137
-0.8812235593795776 0.21615803241729736 4.070527076721191 254 254 254
-0.8517157435417175 0.27827757596969604 4.0637335777282715 63 63 63
-0.8188512921333313 1.0791265964508057 4.02089786529541 118 118 118
-0.793323278427124 1.1767455339431763 4.043832778930664 52 52 52
-0.793323278427124 1.1767455339431763 4.043832778930664 52 52 52
-0.7839388847351074 1.4043039083480835 4.039355754852295 80 80 80
-0.7790806889533997 1.1980372667312622 4.041778564453125 109 109 109
-0.7456780672073364 0.8057788014411926 4.061196804046631 148 148 148
-0.7253173589706421 0.30271807312965393 4.108739852905273 65 65 65
-0.7159903049468994 0.7679328918457031 4.056596755981445 15 15 15
-0.6765177249908447 0.7790034413337708 4.0979413986206055 23 23 23
-0.6714152693748474 0.9282993674278259 4.077317714691162 103 103 103
-0.6426885724067688 1.021211862564087 4.070130825042725 137 137 137
-0.6355173587799072 0.9329029321670532 4.079404830932617 48 48 48
-0.614836573600769 1.033865213394165 4.098026752471924 91 91 91
