ply
format ascii 1.0
element vertex 173
property float x
property float y
property float z
property uchar red
property uchar green
property uchar blue
end_header
-1.6746461391448975 0.08460776507854462 3.4497928619384766 143 143 143
-1.608533501625061 -0.7289673686027527 3.3158082962036133 33 33 33
-1.6900262832641602 0.4858068525791168 3.4862334728240967 56 56 56
-1.5991767644882202 -0.5605500340461731 3.341259479522705 28 28 28
-1.665000319480896 0.477623850107193 3.4995968341827393 21 21 21
-1.6037404537200928 0.2747318744659424 3.4773881435394287 62 62 62
-1.5737942457199097 -0.14515246450901031 3.4185802936553955 23 23 23
-1.4804737567901611 -1.3507859706878662 3.235865354537964 110 110 110
-1.4526923894882202 -1.7839974164962769 3.1870644092559814 99 99 99
-1.565035343170166 0.07272588461637497 3.454456329345703 44 44 44
-1.5834604501724243 0.5288822054862976 3.507411479949951 121 121 121
-1.546469807624817 -0.13680338859558105 3.4450719356536865 35 35 35
-1.3748574256896973 -1.6240426301956177 3.2305119037628174 80 80 80
-1.3620930910110474 -1.8087575435638428 3.2101943492889404 24 24 24
-1.412312626838684 -0.7403430938720703 3.3672869205474854 123 123 123
-1.3398782014846802 -2.011340379714966 3.1954524517059326 96 96 96
-1.3629167079925537 -1.6158124208450317 3.256150484085083 17 17 17
-1.3431247472763062 -1.8017141819000244 3.228684902191162 92 92 92
-1.3277121782302856 -1.813058853149414 3.2147045135498047 20 20 20
-1.383864164352417 -0.7863284349441528 3.3537213802337646 115 115 115
-1.531401515007019 1.6820327043533325 3.721259117126465 18 18 18
-1.5153887271881104 1.4786231517791748 3.6840929985046387 122 122 122
-1.5306339263916016 1.705746054649353 3.721806287765503 17 17 17
-1.5306339263916016 1.705746054649353 3.721806287765503 17 17 17
-1.3201489448547363 -2.0452704429626465 3.2106435298919678 21 21 21
-1.3201489448547363 -2.0452704429626465 3.2106435298919678 21 21 21
-1.347632646560669 -1.2015622854232788 3.3070881366729736 92 92 92
-1.4106236696243286 -0.14429880678653717 3.4798166751861572 50 50 50
-1.330980896949768 -1.344482183456421 3.293900489807129 18 18 18
-1.5026382207870483 1.8779296875 3.762232780456543 17 17 17
-1.4031063318252563 0.08216044306755066 3.5319998264312744 134 134 134
-1.3278014659881592 -0.7746145129203796 3.382185697555542 30 30 30
-1.4485126733779907 1.6805195808410645 3.7459726333618164 94 94 94
-1.3271273374557495 -0.435711532831192 3.4488301277160645 23 23 23
-1.3233569860458374 0.04629066213965416 3.538581609725952 25 25 25
-1.2582820653915405 -1.1794090270996094 3.3655807971954346 120 120 120
-1.3174307346343994 0.04916992038488388 3.5377297401428223 14 14 14
-1.3099641799926758 -0.15112854540348053 3.5183191299438477 52 52 52
-1.2380690574645996 0.012724856846034527 3.539673089981079 131 131 131
-1.2380690574645996 0.012724856846034527 3.539673089981079 131 131 131
-1.3429722785949707 2.0711164474487305 3.8499553203582764 12 12 12
-1.1172796487808228 -2.0060274600982666 3.2613539695739746 87 87 87
-1.1090086698532104 -1.8255022764205933 3.278597593307495 27 27 27
-1.2385600805282593 1.1065160036087036 3.7017934322357178 56 56 56
-1.083198070526123 -2.0338022708892822 3.2610678672790527 26 26 26
-1.0981616973876953 -1.5661799907684326 3.3154923915863037 113 113 113
-1.2302803993225098 1.455886960029602 3.7729222774505615 16 16 16
-1.2398874759674072 1.8592723608016968 3.831317663192749 18 18 18
-1.0869120359420776 -1.1783301830291748 3.3941843509674072 59 59 59
-1.0657013654708862 -0.7387217879295349 3.4390852451324463 93 93 93
-1.0283386707305908 -1.5806738138198853 3.336873769760132 106 106 106
-1.0548707246780396 -1.0045467615127563 3.434589147567749 23 23 23
-1.0465539693832397 -1.0396859645843506 3.435828924179077 29 29 29
-1.0319873094558716 -1.02234947681427 3.446720838546753 111 111 111
-1.0429598093032837 -0.6930526494979858 3.486097812652588 55 55 55
-1.0429598093032837 -0.6930526494979858 3.486097812652588 55 55 55
-1.0418814420700073 -0.5832459926605225 3.507528305053711 29 29 29
-0.9787663817405701 -1.8283878564834595 3.3197226524353027 37 37 37
-1.0163531303405762 0.2559587359428406 3.655975818634033 155 155 155
-1.0053563117980957 0.039794594049453735 3.6246132850646973 61 61 61
-1.0178362131118774 0.6931284666061401 3.6798455715179443 126 126 126
-0.918219268321991 -1.8464168310165405 3.3244071006774902 101 101 101
-0.9804615378379822 -0.3750609755516052 3.559432029724121 54 54 54
-0.9082719087600708 -1.8295332193374634 3.3362298011779785 27 27 27
-1.0018020868301392 0.8430755138397217 3.7528512477874756 19 19 19
-0.9547291398048401 -0.3797576427459717 3.5848379135131836 57 57 57
-0.9963474273681641 1.0714402198791504 3.744074583053589 57 57 57
-0.9227456450462341 0.10781576484441757 3.648102045059204 84 84 84
-0.8181037902832031 -2.0244505405426025 3.3381292819976807 79 79 79
-0.8017359375953674 -1.834234356880188 3.3697941303253174 34 34 34
-0.7930089235305786 -1.80687415599823 3.3697378635406494 83 83 83
-0.8279039859771729 -0.7996349334716797 3.5366954803466797 35 35 35
-0.8279039859771729 -0.7996349334716797 3.5366954803466797 35 35 35
-0.7952101826667786 -0.8214697241783142 3.5409092903137207 121 121 121
-0.8294357061386108 0.7074142694473267 3.768836259841919 52 52 52
-0.8086999654769897 0.026648545637726784 3.6983447074890137 53 53 53
-0.795084536075592 -0.007784365676343441 3.6649789810180664 134 134 134
-0.7896575331687927 -0.15253010392189026 3.649543046951294 131 131 131
-0.8078606724739075 0.6318442225456238 3.7661595344543457 23 23 23
-0.7729709148406982 -0.5762508511543274 3.603879690170288 32 32 32
-0.7729709148406982 -0.5762508511543274 3.603879690170288 32 32 32
-0.7361354827880859 -1.5830117464065552 3.434293746948242 59 59 59
-0.7107467651367188 -2.1466100215911865 3.3491415977478027 140 140 140
-0.777775764465332 0.8896288871765137 3.8160500526428223 96 96 96
-0.729177713394165 -0.5623934268951416 3.5784213542938232 115 115 115
-0.7295748591423035 -0.391938716173172 3.6299643516540527 34 34 34
-0.7233511209487915 -0.3713947534561157 3.641308069229126 140 140 140
-0.7435173988342285 0.8082552552223206 3.810411214828491 73 73 73
-0.7062689661979675 -0.3912901282310486 3.631296396255493 32 32 32
-0.6531862020492554 -1.5938044786453247 3.4531140327453613 96 96 96
-0.6423469185829163 -1.7927416563034058 3.429185152053833 77 77 77
-0.6598674058914185 -0.600159764289856 3.6196465492248535 58 58 58
-0.6873119473457336 0.7257853746414185 3.8114330768585205 32 32 32
-0.6088206171989441 -2.0996601581573486 3.395885944366455 107 107 107
-0.696888267993927 1.5977917909622192 3.9290554523468018 16 16 16
-0.6327542662620544 -0.8136084675788879 3.6097519397735596 48 48 48
-0.6327542662620544 -0.8136084675788879 3.6097519397735596 48 48 48
-0.6062799096107483 -1.8452104330062866 3.4585301876068115 33 33 33
-0.5985494256019592 -1.8601549863815308 3.4290659427642822 94 94 94
-0.5954228043556213 -1.7938921451568604 3.434253215789795 104 104 104
-0.6578224897384644 0.9712347984313965 3.8626155853271484 101 101 101
-0.574079692363739 -2.0780367851257324 3.401250123977661 106 106 106
-0.6379238367080688 0.7725865840911865 3.8340139389038086 59 59 59
-0.6472722291946411 1.163962960243225 3.8944618701934814 107 107 107
-0.6189306378364563 0.21956926584243774 3.7618296146392822 27 27 27
-0.5646251440048218 -2.0277061462402344 3.4406793117523193 107 107 107
-0.564053475856781 -1.8384467363357544 3.4571051597595215 41 41 41
-0.6348406076431274 1.0764212608337402 3.899040937423706 79 79 79
-0.6154851913452148 0.38445043563842773 3.789055109024048 62 62 62
-0.5464388728141785 -2.059143304824829 3.427344560623169 30 30 30
-0.5452219843864441 -1.8050302267074585 3.4523491859436035 94 94 94
-0.5493303537368774 -1.0198920965194702 3.575930118560791 55 55 55
-0.5987527370452881 1.0226572751998901 3.9101881980895996 22 22 22
-0.5110144019126892 -2.028423309326172 3.4450833797454834 28 28 28
-0.5038976669311523 -1.8816721439361572 3.465960741043091 27 27 27
-0.5022744536399841 -1.1227022409439087 3.5921237468719482 76 76 76
-0.5138387084007263 -0.3772549033164978 3.7097485065460205 109 109 109
-0.47641274333000183 -1.9807642698287964 3.453620195388794 124 124 124
-0.48491886258125305 -0.8248102068901062 3.638117790222168 20 20 20
-0.5018369555473328 0.19558589160442352 3.8004066944122314 71 71 71
-0.49067258834838867 -0.2159757912158966 3.7164525985717773 103 103 103
-0.4564724266529083 -1.9187595844268799 3.469942331314087 41 41 41
-0.483243465423584 0.5189366340637207 3.8437628746032715 89 89 89
-0.48051244020462036 0.5819103717803955 3.8540167808532715 95 95 95
-0.4295290410518646 -1.3238595724105835 3.5671253204345703 96 96 96
-0.4102611541748047 -1.8815442323684692 3.4827122688293457 28 28 28
-0.43849700689315796 0.9704049825668335 3.938133716583252 93 93 93
-0.38071542978286743 -1.7779345512390137 3.5122501850128174 100 100 100
-0.42300090193748474 1.2966320514678955 3.986279249191284 30 30 30
-0.3836439549922943 -0.19931691884994507 3.7651824951171875 31 31 31
-0.3836439549922943 -0.19931691884994507 3.7651824951171875 31 31 31
-0.34200143814086914 -1.2435024976730347 3.628995895385742 24 24 24
-0.34200143814086914 -1.2435024976730347 3.628995895385742 24 24 24
-0.3294316530227661 -1.9130682945251465 3.5070784091949463 29 29 29
-0.3503602147102356 -0.20032155513763428 3.7844865322113037 29 29 29
-0.3197789788246155 -2.0193190574645996 3.488781690597534 81 81 81
-0.3194137513637543 -0.8273011445999146 3.704437017440796 53 53 53
-0.3295343816280365 0.4812679588794708 3.888390064239502 63 63 63
-0.3116961419582367 -0.20107890665531158 3.790869951248169 31 31 31
-0.29337388277053833 -1.2161613702774048 3.625096082687378 93 93 93
-0.3073180913925171 0.4466644525527954 3.885530710220337 150 150 150
-0.27615445852279663 -0.83045494556427 3.7057342529296875 52 52 52
-0.28024062514305115 -0.14836253225803375 3.7795119285583496 103 103 103
-0.25494375824928284 0.41302183270454407 3.8749818801879883 135 135 135
-0.2535862326622009 0.4562320411205292 3.923797130584717 52 52 52
-0.22248892486095428 -2.021977186203003 3.5073928833007812 71 71 71
-0.22248892486095428 -2.021977186203003 3.5073928833007812 71 71 71
-0.2410157322883606 0.1551697999238968 3.8604085445404053 129 129 129
-0.22309735417366028 -1.6582615375518799 3.595585584640503 22 22 22
-0.21806307137012482 -1.86611008644104 3.543644905090332 78 78 78
-0.2186998575925827 -1.244854211807251 3.6518094539642334 26 26 26
-0.21917761862277985 -1.031131625175476 3.6776349544525146 27 27 27
-0.2138662487268448 -1.6309382915496826 3.60154128074646 78 78 78
-0.2188892364501953 -0.870769739151001 3.7096738815307617 42 42 42
-0.22818805277347565 0.5163006782531738 3.918494701385498 41 41 41
-0.2072647362947464 -1.4344379901885986 3.6256699562072754 24 24 24
-0.20974299311637878 -0.844745934009552 3.7392051219940186 21 21 21
-0.21676158905029297 0.44593313336372375 3.9117274284362793 47 47 47
-0.17942065000534058 -1.3477818965911865 3.644041061401367 87 87 87
-0.18245552480220795 -0.8398820161819458 3.7503345012664795 23 23 23
-0.19072850048542023 0.6009166240692139 3.9664554595947266 20 20 20
-0.17000319063663483 -0.40669572353363037 3.7931880950927734 74 74 74
-0.12952135503292084 -1.2185500860214233 3.675934076309204 73 73 73
0.4546971023082733 0.7512489557266235 2.518242835998535 2 2 2
0.4581727087497711 0.7760810852050781 2.5210623741149902 19 19 19
0.45479148626327515 0.6056362986564636 2.4925904273986816 22 22 22
0.4320194721221924 -0.49113717675209045 2.3002381324768066 254 254 254
0.4446623623371124 -0.42053651809692383 2.31911301612854 98 98 98
0.4446623623371124 -0.42053651809692383 2.31911301612854 98 98 98
0.4383983314037323 -0.6515090465545654 2.279277801513672 224 224 224
0.4408243000507355 -0.6438811421394348 2.2773449420928955 66 66 66
0.4431625306606293 -0.6601144671440125 2.2621400356292725 212 212 212
0.5747395157814026 0.7710744738578796 2.5938961505889893 79 79 79
