ply
format ascii 1.0
element vertex 66
property float x
property float y
property float z
property uchar red
property uchar green
property uchar blue
end_header
-1.0157543420791626 -1.0339343547821045 3.0138332843780518 43 43 43
-0.9733654856681824 -0.9048855304718018 3.029139757156372 48 48 48
-0.965576171875 -0.681601881980896 3.116098403930664 38 38 38
-0.965576171875 -0.681601881980896 3.116098403930664 38 38 38
-0.9602280259132385 -0.919305682182312 3.104036331176758 47 47 47
-0.9425354599952698 -0.5554702877998352 3.1133205890655518 30 30 30
-0.9380338788032532 1.1989784240722656 3.2314555644989014 24 24 24
-0.9142083525657654 -0.32648077607154846 3.1889307498931885 48 48 48
-0.8975628018379211 -0.9747622609138489 3.2234320640563965 122 122 122
-0.8730047941207886 -1.010968565940857 3.2150633335113525 123 123 123
-0.8598109483718872 -0.32845866680145264 3.2938435077667236 40 40 40
-0.8442497849464417 -1.0060746669769287 3.2394702434539795 24 24 24
-0.8556399941444397 -0.0982072576880455 3.3095462322235107 31 31 31
-0.7705803513526917 -0.5267897248268127 3.4557642936706543 107 107 107
-0.7627002596855164 -1.080284833908081 3.4417707920074463 87 87 87
-0.7252371907234192 -0.6583623290061951 3.7357752323150635 21 21 21
-0.6796175241470337 1.2980802059173584 3.659801483154297 20 20 20
-0.6541708111763 -0.6763303279876709 3.823556661605835 120 120 120
-0.6475211381912231 -0.6130222082138062 3.8082199096679688 29 29 29
-0.6442636847496033 -0.8276077508926392 3.9044859409332275 58 58 58
-0.5413685441017151 -0.9734697341918945 3.762282133102417 81 81 81
-0.5122774839401245 -0.8074296116828918 3.770102024078369 36 36 36
-0.5272698998451233 1.421844244003296 3.9315028190612793 18 18 18
-0.47173938155174255 1.5278518199920654 4.015679359436035 21 21 21
-0.42734330892562866 0.2158120721578598 4.013918876647949 25 25 25
-0.40311741828918457 1.5228179693222046 4.127175807952881 20 20 20
-0.3468019664287567 1.4078831672668457 4.253224849700928 28 28 28
1.0034273862838745 -0.8315476179122925 5.709065914154053 89 89 89
1.0914103984832764 -0.5414146780967712 5.757833957672119 93 93 93
1.1038693189620972 -0.8255861401557922 5.607045650482178 16 16 16
1.182171106338501 -0.6789376735687256 6.018613815307617 20 20 20
1.2073767185211182 -0.5423175096511841 5.924149513244629 112 112 112
1.2210196256637573 -0.8497679829597473 5.909463882446289 22 22 22
1.2462470531463623 -0.854345440864563 5.751595973968506 195 195 195
1.311458945274353 -0.6372767090797424 6.051997661590576 132 132 132
1.288498044013977 -0.7082023024559021 5.928457736968994 106 106 106
1.2671581506729126 -0.8021872043609619 5.467874526977539 39 39 39
1.363169550895691 -0.7103844285011292 5.865199565887451 42 42 42
1.8805010318756104 1.2545251846313477 8.069424629211426 17 17 17
1.926194667816162 1.0840504169464111 8.15600872039795 48 48 48
1.889954924583435 1.593066692352295 7.94056510925293 94 94 94
2.0122923851013184 1.0966198444366455 8.38563060760498 123 123 123
1.3672564029693604 -0.9768779873847961 5.610056400299072 142 142 142
1.3672564029693604 -0.9768779873847961 5.610056400299072 142 142 142
1.2944977283477783 -0.723742663860321 5.306889533996582 86 86 86
1.2944977283477783 -0.723742663860321 5.306889533996582 86 86 86
2.041005849838257 1.403961420059204 8.16723346710205 20 20 20
1.313354730606079 -0.9891742467880249 5.203287124633789 138 138 138
2.05600905418396 1.2779752016067505 8.098155975341797 20 20 20
1.4377998113632202 -0.7659754157066345 5.584466934204102 31 31 31
2.0128695964813232 0.08246447890996933 7.668649673461914 61 61 61
2.164226531982422 0.9599929451942444 8.217268943786621 43 43 43
2.186617136001587 0.741705596446991 8.313830375671387 53 53 53
2.2265372276306152 0.5352573394775391 8.469498634338379 47 47 47
1.894193172454834 -0.31564146280288696 7.2073516845703125 101 101 101
2.100423812866211 -0.12968981266021729 7.970888614654541 84 84 84
1.8005154132843018 -0.5511386394500732 6.766143321990967 148 148 148
2.241671323776245 0.6319274306297302 8.401472091674805 85 85 85
2.2084097862243652 0.7582933902740479 8.257074356079102 38 38 38
2.1362252235412598 1.2504799365997314 7.976590633392334 28 28 28
2.2702274322509766 0.4877379834651947 8.313940048217773 104 104 104
2.0458385944366455 -0.09604224562644958 7.490279197692871 133 133 133
3.600217580795288 1.3444722890853882 10.61520767211914 89 89 89
3.904527187347412 1.2927513122558594 11.133893013000488 32 32 32
3.6172399520874023 0.27339088916778564 10.341068267822266 30 30 30
3.6172399520874023 0.27339088916778564 10.341068267822266 30 30 30
