ply
format ascii 1.0
element vertex 52
property float x
property float y
property float z
property uchar red
property uchar green
property uchar blue
end_header
-0.6001603603363037 -0.7755504250526428 3.2305891513824463 47 47 47
-0.4240826368331909 -0.27705898880958557 3.0099425315856934 110 110 110
-0.3288595676422119 -0.4427889287471771 2.962925434112549 32 32 32
-0.19943451881408691 0.005531317554414272 2.8962814807891846 106 106 106
-0.19275003671646118 -0.8044542670249939 2.8687753677368164 134 134 134
-0.1705688238143921 -0.4278043210506439 2.8640871047973633 148 148 148
-0.1705688238143921 -0.4278043210506439 2.8640871047973633 148 148 148
-0.1669723242521286 -0.8626703023910522 2.8511710166931152 45 45 45
-0.1652856022119522 -0.8462687730789185 2.8442981243133545 127 127 127
-0.163091242313385 -0.9111865162849426 2.8409717082977295 126 126 126
-0.12144030630588531 -0.0661105066537857 2.8985533714294434 56 56 56
-0.12019232660531998 -0.3676716387271881 2.9031362533569336 78 78 78
-0.11945803463459015 -0.4607919454574585 2.8910107612609863 78 78 78
-0.11942347884178162 -0.5631868839263916 2.8920304775238037 79 79 79
-0.11660492420196533 -0.1762164831161499 2.9089293479919434 61 61 61
-0.09753816574811935 -0.5058150291442871 2.911003589630127 64 64 64
-0.09197881072759628 -0.6298649311065674 2.9124300479888916 85 85 85
-0.08656329661607742 -0.45030125975608826 2.923513650894165 26 26 26
-0.06178681179881096 -0.9870144724845886 2.8937647342681885 57 57 57
-0.06453093886375427 1.0218226909637451 3.003730297088623 100 100 100
-0.061795420944690704 1.3959819078445435 3.019090414047241 57 57 57
-0.05604013428092003 -0.12327363342046738 2.9382388591766357 135 135 135
-0.05694762244820595 0.5696753859519958 2.976898670196533 112 112 112
-0.05370977893471718 -0.9604924917221069 2.905097484588623 156 156 156
-0.05081582069396973 0.6256738901138306 2.9726781845092773 105 105 105
-0.051655255258083344 0.6929779648780823 2.973297595977783 107 107 107
-0.04316484555602074 -0.9122563004493713 2.9260191917419434 216 216 216
-0.026479598134756088 -0.9836189150810242 2.913290500640869 68 68 68
-0.008179116062819958 -0.9707620739936829 2.915466785430908 60 60 60
0.17382848262786865 0.412090927362442 3.084761619567871 115 115 115
0.17382848262786865 0.412090927362442 3.084761619567871 115 115 115
0.18066556751728058 -0.03283506631851196 3.055643081665039 132 132 132
0.18080949783325195 -0.033028557896614075 3.0539324283599854 132 132 132
0.1887388974428177 -0.05543854832649231 3.031479597091675 86 86 86
0.1961452066898346 0.24494953453540802 3.0484609603881836 58 58 58
0.19935274124145508 0.38320392370224 3.0568034648895264 55 55 55
0.20245875418186188 -0.04102974757552147 3.0387704372406006 50 50 50
0.20301803946495056 -0.15891361236572266 3.032268524169922 16 16 16
0.21234911680221558 0.050658728927373886 3.0225369930267334 155 155 155
0.21246668696403503 0.08801963925361633 3.0332911014556885 39 39 39
0.21418412029743195 0.29390326142311096 3.0408504009246826 50 50 50
0.23526959121227264 0.1574925035238266 3.022325038909912 129 129 129
0.23892062902450562 0.1773388385772705 3.0259311199188232 145 145 145
0.2461826503276825 0.24448856711387634 3.037945508956909 125 125 125
0.25548186898231506 0.09836847335100174 3.012810230255127 39 39 39
0.25898727774620056 0.17452989518642426 3.0180904865264893 118 118 118
0.28463006019592285 0.10885801911354065 2.9860973358154297 76 76 76
0.2949736416339874 0.2561129927635193 3.037498712539673 53 53 53
0.2948054075241089 0.24776698648929596 3.0092568397521973 128 128 128
0.3265610337257385 0.14934313297271729 2.998290538787842 35 35 35
0.3410399854183197 0.13675563037395477 2.991000175476074 109 109 109
0.3410399854183197 0.13675563037395477 2.991000175476074 109 109 109
