ply
format ascii 1.0
element vertex 91
property float x
property float y
property float z
property uchar red
property uchar green
property uchar blue
end_header
-1.5068283081054688 0.10862479358911514 3.2125296592712402 109 109 109
-1.532078742980957 0.2841293215751648 3.294605016708374 137 137 137
-1.532078742980957 0.2841293215751648 3.294605016708374 137 137 137
-1.360558271408081 0.22354301810264587 3.276243209838867 111 111 111
-1.3746323585510254 0.18949657678604126 3.3564400672912598 56 56 56
-1.333142638206482 0.7568148970603943 3.3485214710235596 109 109 109
-1.2170733213424683 -1.3270231485366821 3.0964508056640625 122 122 122
-1.288400411605835 0.6119226813316345 3.295759439468384 60 60 60
-1.3507518768310547 -0.5238791704177856 3.471628427505493 182 182 182
-1.3507518768310547 -0.5238791704177856 3.471628427505493 182 182 182
-1.2773393392562866 -1.0901944637298584 3.283857822418213 135 135 135
-1.3068265914916992 -0.019056176766753197 3.3829262256622314 108 108 108
-1.310401439666748 -0.5803141593933105 3.3809351921081543 26 26 26
-1.3044570684432983 -0.5682570338249207 3.3945016860961914 72 72 72
-1.278724193572998 0.21054919064044952 3.3419129848480225 29 29 29
-1.2542521953582764 0.6059494614601135 3.291736602783203 115 115 115
-1.2400736808776855 0.41713839769363403 3.262143135070801 17 17 17
-1.2564363479614258 0.5892985463142395 3.312516927719116 22 22 22
-1.2441099882125854 0.7170848846435547 3.324385166168213 63 63 63
-1.2736644744873047 -0.5571136474609375 3.422285795211792 34 34 34
-1.299849271774292 -0.5310292840003967 3.5036001205444336 191 191 191
-1.2160542011260986 -1.0824804306030273 3.2760889530181885 61 61 61
-1.2160542011260986 -1.0824804306030273 3.2760889530181885 61 61 61
-1.2075724601745605 0.5776665210723877 3.3104753494262695 36 36 36
-1.3944777250289917 -0.29817700386047363 3.8827567100524902 147 147 147
-1.1673780679702759 0.5783276557922363 3.2700295448303223 22 22 22
-1.1863360404968262 0.8338775634765625 3.3385441303253174 107 107 107
-1.1505087614059448 0.6209056377410889 3.233362913131714 97 97 97
-1.1699811220169067 0.9155499935150146 3.36047101020813 94 94 94
-1.1059951782226562 0.2663690447807312 3.1811459064483643 54 54 54
-1.1456049680709839 0.6590760946273804 3.2952075004577637 163 163 163
-1.3729666471481323 -0.34739670157432556 3.992645740509033 33 33 33
-1.2749053239822388 -0.47488895058631897 3.757138252258301 31 31 31
-1.236505150794983 0.08515908569097519 3.7040042877197266 157 157 157
-1.4226030111312866 -0.25761568546295166 4.284445762634277 232 232 232
-1.0433143377304077 0.22400914132595062 3.1910502910614014 107 107 107
-1.1210166215896606 -0.5445564985275269 3.4320642948150635 114 114 114
-1.4964591264724731 -0.33549895882606506 4.605284214019775 56 56 56
-1.4964591264724731 -0.33549895882606506 4.605284214019775 56 56 56
-1.102340817451477 1.1560394763946533 3.4028923511505127 108 108 108
-1.1651796102523804 -0.3750096261501312 3.5956943035125732 68 68 68
-1.0523427724838257 0.8303301930427551 3.330925703048706 96 96 96
-1.2633745670318604 -0.4244808852672577 4.040665149688721 23 23 23
-1.036820888519287 0.9319698214530945 3.3453166484832764 92 92 92
-0.977915346622467 0.37847432494163513 3.1681833267211914 92 92 92
-1.155479073524475 -0.5246995687484741 3.744415283203125 37 37 37
-0.9669890999794006 0.36578062176704407 3.1694815158843994 40 40 40
-0.9365341067314148 -1.129114031791687 3.127899169921875 40 40 40
-0.9714509844779968 0.5997587442398071 3.248457670211792 65 65 65
-1.0297361612319946 -0.5725160837173462 3.4942879676818848 45 45 45
-0.9445165991783142 0.5536776185035706 3.227715015411377 34 34 34
-1.0069293975830078 -0.5733320713043213 3.4778683185577393 35 35 35
-0.9309006333351135 0.5855007171630859 3.2392051219940186 137 137 137
-0.9064633250236511 0.3668602406978607 3.155364990234375 41 41 41
-1.1127123832702637 -0.027716748416423798 3.891784191131592 152 152 152
-0.8590856194496155 -1.34675931930542 3.0172677040100098 146 146 146
-1.1112127304077148 -0.49182817339897156 3.9242305755615234 36 36 36
-1.0382909774780273 -0.5395780205726624 3.712162494659424 124 124 124
-0.8359357714653015 -1.3911200761795044 2.997864007949829 126 126 126
-0.9007489085197449 0.5551130771636963 3.2241241931915283 98 98 98
-1.0623260736465454 -0.34654533863067627 3.807464838027954 142 142 142
-0.8895498514175415 0.574191689491272 3.2187697887420654 73 73 73
-0.8893839716911316 0.6465377807617188 3.2390263080596924 123 123 123
-0.8813543319702148 0.5154440402984619 3.227912664413452 48 48 48
-0.9042128324508667 0.9132833480834961 3.320350170135498 94 94 94
-0.8484237194061279 0.26755574345588684 3.127913475036621 57 57 57
-0.8742789626121521 0.7152577042579651 3.2631020545959473 118 118 118
-0.8658695220947266 0.6948316097259521 3.2671194076538086 131 131 131
-0.9732148051261902 -0.48274582624435425 3.689814329147339 247 247 247
-0.9732148051261902 -0.48274582624435425 3.689814329147339 247 247 247
-1.0080713033676147 -0.5571658611297607 3.834768056869507 64 64 64
-0.8306246995925903 0.39111271500587463 3.1487481594085693 73 73 73
-1.6610925197601318 -0.15354208648204803 6.480712890625 125 125 125
-0.8093327879905701 0.4691314101219177 3.179435968399048 15 15 15
-0.8191871047019958 0.6371134519577026 3.2423627376556396 141 141 141
-0.8057548999786377 0.5870677828788757 3.2094719409942627 111 111 111
-0.7854108214378357 0.5159609913825989 3.2071735858917236 106 106 106
-0.7919558882713318 0.7121641039848328 3.260812997817993 127 127 127
-0.7854732871055603 0.8202792406082153 3.2794723510742188 118 118 118
-0.8282215595245361 -0.5757611989974976 3.4791457653045654 61 61 61
-0.6950868368148804 -0.30535781383514404 2.9474008083343506 218 218 218
-0.8305867314338684 -0.26343247294425964 3.53642201423645 254 254 254
-0.7314438223838806 0.2117345780134201 3.1181142330169678 114 114 114
-0.7755658626556396 1.1014220714569092 3.3308212757110596 56 56 56
-0.7427146434783936 -0.30532199144363403 3.275442361831665 53 53 53
-0.8174423575401306 -0.23114058375358582 3.6141626834869385 66 66 66
-0.7231118679046631 0.605164110660553 3.1981382369995117 124 124 124
-0.802534282207489 -0.28025513887405396 3.6044042110443115 176 176 176
-0.7348338961601257 0.0974663645029068 3.3088181018829346 104 104 104
-0.6655672788619995 0.8272574543952942 3.2543792724609375 121 121 121
-0.6225432753562927 0.559954047203064 3.170860767364502 21 21 21
