ply
format ascii 1.0
element vertex 60
property float x
property float y
property float z
property uchar red
property uchar green
property uchar blue
end_header
-0.7174665927886963 -0.570595920085907 1.599825143814087 97 97 97
-0.7106238007545471 -0.5798956155776978 1.605094075202942 57 57 57
-0.7117494344711304 0.19004443287849426 1.6397286653518677 115 115 115
-0.6382930278778076 -0.5831239223480225 1.6436609029769897 103 103 103
-0.6158315539360046 0.45300111174583435 1.7095956802368164 106 106 106
-0.6210100650787354 0.7094637155532837 1.7265273332595825 83 83 83
-0.6109843254089355 0.3916517496109009 1.7125532627105713 120 120 120
-0.6758706569671631 0.02296038344502449 1.9580541849136353 254 254 254
-0.5864701867103577 0.3747534155845642 1.7208629846572876 110 110 110
-0.5700300335884094 0.4291955232620239 1.7491737604141235 71 71 71
-0.646598219871521 0.022086219862103462 1.9869060516357422 107 107 107
-0.5570129752159119 0.3708055019378662 1.7424002885818481 39 39 39
-0.5519790649414062 0.4963427484035492 1.7497292757034302 110 110 110
-0.5467731952667236 0.3911239802837372 1.7452768087387085 153 153 153
-0.5331047773361206 -0.6232194304466248 1.7052899599075317 136 136 136
-0.5369600057601929 0.40533819794654846 1.7545487880706787 136 136 136
-0.5369600057601929 0.40533819794654846 1.7545487880706787 136 136 136
-0.6108908653259277 0.03859345614910126 1.9998326301574707 254 254 254
-0.516686201095581 0.41109806299209595 1.764227271080017 3 3 3
-0.512383759021759 0.6674361824989319 1.7810254096984863 89 89 89
-0.5784385800361633 0.03736630082130432 2.0227296352386475 143 143 143
-0.4911065101623535 0.4950945973396301 1.784903645515442 94 94 94
-0.48787200450897217 0.3800105154514313 1.7840721607208252 120 120 120
-0.4761486053466797 -0.508838415145874 1.7754449844360352 18 18 18
-0.4717804491519928 0.37104281783103943 1.7913577556610107 131 131 131
-0.4469526708126068 -0.49865683913230896 1.747493028640747 18 18 18
-0.48064854741096497 -0.5636825561523438 1.9111580848693848 72 72 72
-0.45160937309265137 0.35264942049980164 1.8028476238250732 32 32 32
-0.44306811690330505 0.36962342262268066 1.8079051971435547 164 164 164
-0.44261571764945984 0.2533484995365143 1.8103773593902588 40 40 40
-0.43638336658477783 0.38628634810447693 1.8113638162612915 133 133 133
-0.42295634746551514 0.5421231985092163 1.824625015258789 101 101 101
-0.42080479860305786 0.33053624629974365 1.8198577165603638 51 51 51
-0.4127085208892822 0.19665446877479553 1.8166866302490234 59 59 59
-0.3954596519470215 0.31012478470802307 1.8412957191467285 16 16 16
-0.37530308961868286 0.3319236636161804 1.844290018081665 98 98 98
-0.37383440136909485 0.43638521432876587 1.847133755683899 130 130 130
-0.3705519139766693 0.34377816319465637 1.8466671705245972 46 46 46
-0.36816978454589844 0.49406924843788147 1.8478602170944214 131 131 131
-0.3442687392234802 -0.585549533367157 1.793864369392395 122 122 122
-0.3493559658527374 0.45139291882514954 1.8629094362258911 108 108 108
-0.34578660130500793 0.3823125958442688 1.8598549365997314 125 125 125
-0.3358076810836792 0.3722854256629944 1.8682996034622192 101 101 101
-0.3178253471851349 0.43429166078567505 1.881769061088562 126 126 126
-0.31609874963760376 0.5021210312843323 1.8840018510818481 109 109 109
-0.3041391372680664 0.5441358685493469 1.8930987119674683 53 53 53
-0.2961574196815491 -0.5998442769050598 1.8472501039505005 138 138 138
-0.29876598715782166 0.5543122291564941 1.8967652320861816 104 104 104
-0.2958870828151703 0.14227940142154694 1.934737205505371 113 113 113
-0.26926204562187195 0.3826441168785095 1.9036279916763306 141 141 141
-0.2556992173194885 0.3595535457134247 1.9167211055755615 13 13 13
-0.25336477160453796 0.42807453870773315 1.915122151374817 102 102 102
-0.24102023243904114 0.46943217515945435 1.9206929206848145 119 119 119
-0.24044674634933472 0.42941707372665405 1.9226231575012207 46 46 46
-0.24044674634933472 0.42941707372665405 1.9226231575012207 46 46 46
-0.2393357902765274 0.3607079088687897 1.9271998405456543 53 53 53
-0.2357407957315445 0.37304988503456116 1.9194828271865845 118 118 118
-0.2328174114227295 0.3400786221027374 1.9239931106567383 93 93 93
-0.20643986761569977 0.14730550348758698 1.9773951768875122 63 63 63
-0.1980333775281906 0.3458991050720215 1.9434099197387695 38 38 38
