ply
format ascii 1.0
comment Created by Open3D
element vertex 1314
property double x
property double y
property double z
property uchar red
property uchar green
property uchar blue
end_header
-0.617596 0.224138 2.27969 60 60 60
-0.280051 -0.161669 1.04299 35 35 35
-0.600608 0.316054 2.28243 104 104 104
-0.600608 0.316054 2.28243 104 104 104
-0.583046 0.32689 2.28348 33 33 33
-0.583046 0.32689 2.28348 33 33 33
-0.014789 -0.0187342 0.345896 224 224 224
0.0719321 -0.140097 0.805645 24 24 24
0.0730834 0.203127 0.790409 107 107 107
0.0728138 -0.261977 0.668497 46 46 46
0.072971 -0.26071 0.665429 46 46 46
0.073244 -0.258328 0.659773 44 44 44
0.0750761 -0.238467 0.614842 36 36 36
0.00528603 -0.011198 0.0203868 130 130 130
0.00523491 -0.011021 0.0199223 129 129 129
0.00550284 -0.00958774 0.0172495 116 116 116
0.00545673 -0.00944549 0.0168176 79 79 79
-0.717381 0.722298 2.65501 115 115 115
-0.709482 0.620579 2.64002 121 121 121
-0.704622 0.56196 2.63237 124 124 124
-0.700467 0.602451 2.64126 128 128 128
-0.695571 0.636939 2.64435 127 127 127
-0.642446 0.616362 2.64101 132 132 132
-0.642446 0.616362 2.64101 132 132 132
-0.595583 0.420387 2.61401 20 20 20
-0.586782 -0.803337 2.58203 25 25 25
-0.598751 -0.413047 2.64491 54 54 54
-0.599687 0.638323 2.64919 133 133 133
-0.592935 0.535919 2.63752 126 126 126
-0.583624 0.498686 2.62785 26 26 26
-0.573695 0.518432 2.62998 114 114 114
-0.562778 0.475002 2.63377 56 56 56
-0.493781 -0.902529 2.48957 183 183 183
-0.523118 0.77831 2.66871 52 52 52
-0.523118 0.77831 2.66871 52 52 52
-0.486425 0.521444 2.64446 148 148 148
-0.463163 -0.757356 2.61325 214 214 214
-0.449416 0.495759 2.65 24 24 24
-0.44555 0.325594 2.65113 44 44 44
-0.437345 0.501512 2.64648 23 23 23
-0.436745 0.604131 2.654 103 103 103
-0.422248 0.672111 2.67381 137 137 137
-0.414978 0.608814 2.66318 48 48 48
-0.414978 0.608814 2.66318 48 48 48
-0.423143 0.100305 2.72225 255 255 255
-0.334512 0.548636 2.65793 56 56 56
-0.323512 0.529103 2.66114 99 99 99
-0.323512 0.529103 2.66114 99 99 99
-0.299379 -0.931425 2.49881 94 94 94
-0.30571 0.530352 2.66159 98 98 98
-0.292045 0.301152 2.64137 56 56 56
-0.235861 0.36551 2.65294 58 58 58
-0.223963 0.31173 2.65228 131 131 131
-0.218116 0.294093 2.64919 187 187 187
-0.202015 0.342219 2.66356 132 132 132
-0.202015 0.342219 2.66356 132 132 132
-0.187455 0.255003 2.63958 96 96 96
-0.173246 0.883921 2.50253 53 53 53
-0.181987 0.435521 2.66751 33 33 33
-0.181987 0.435521 2.66751 33 33 33
-0.162169 -0.723254 2.70019 211 211 211
-0.133305 0.735271 2.67317 141 141 141
-0.0373479 0.643626 2.70166 99 99 99
-0.0240841 0.268644 2.65387 64 64 64
-0.023825 0.356494 2.66892 82 82 82
0.150591 -0.774351 1.95846 91 91 91
0.175486 -0.760867 1.96008 98 98 98
0.194458 -0.755293 1.96559 169 169 169
0.236509 -0.751702 1.93856 36 36 36
-12.7057 -4.9681 32.7046 182 182 182
-12.2803 -2.67325 34.185 147 147 147
-10.8209 -2.43189 31.4769 52 52 52
-9.21252 -3.44223 27.1133 31 31 31
-11.0844 -3.10293 33.7627 156 156 156
-11.0844 -3.10293 33.7627 156 156 156
-9.20631 -2.06334 28.3334 56 56 56
-9.20631 -2.06334 28.3334 56 56 56
-8.66731 -1.57667 27.7802 254 254 254
-8.99791 0.168237 28.9193 68 68 68
-9.42168 -0.667255 30.4945 254 254 254
-7.83678 -3.2106 25.3775 238 238 238
-8.71855 -1.19928 29.5699 254 254 254
-8.46646 -1.14401 28.9996 255 255 255
-8.46646 -1.14401 28.9996 255 255 255
-9.04606 -0.581453 31.4328 131 131 131
-9.60425 -1.532 33.4884 248 248 248
-9.27922 -0.225679 32.4539 152 152 152
-8.81265 -3.90467 31.0796 36 36 36
-9.22679 -0.306778 34.1003 254 254 254
-9.22679 -0.306778 34.1003 254 254 254
-8.82615 -1.45237 32.8033 115 115 115
-8.82615 -1.45237 32.8033 115 115 115
-4.86928 0.587794 18.2353 75 75 75
-7.99005 -1.73818 31.7953 51 51 51
-8.09485 -0.336154 32.3854 134 134 134
-8.09485 -0.336154 32.3854 134 134 134
-7.69698 1.71884 31.4662 60 60 60
-8.09435 -0.495969 34.8552 254 254 254
-7.06723 -2.47055 30.5968 61 61 61
-13.5195 -3.69862 31.1773 95 95 95
-13.8999 -2.9388 32.0676 89 89 89
-13.8123 -4.78209 33.835 89 89 89
-9.11669 -1.93634 25.3964 147 147 147
-9.23585 -3.47778 27.1694 31 31 31
-10.1961 0.713767 30.5052 157 157 157
-7.92119 -1.44245 23.854 232 232 232
-7.88969 -1.08671 24.0141 224 224 224
-7.83743 -2.21363 23.863 156 156 156
-7.83743 -2.21363 23.863 156 156 156
-8.52362 -1.91842 26.2294 56 56 56
-8.52362 -1.91842 26.2294 56 56 56
-9.25212 -3.00069 28.5316 68 68 68
-8.21475 -0.136889 25.4173 68 68 68
-8.27924 0.135365 26.6145 68 68 68
-8.7881 -4.01549 28.4553 37 37 37
-13.5393 8.03648 44.2431 139 139 139
-13.0895 7.67119 44.6781 34 34 34
-13.0895 7.67119 44.6781 34 34 34
-7.53948 -0.511182 26.202 131 131 131
-12.5796 7.9276 43.8105 137 137 137
-12.4147 8.35547 43.8779 131 131 131
-11.8907 7.66845 42.9993 73 73 73
-12.2254 7.14092 44.7601 48 48 48
-7.71383 -1.92219 28.3023 25 25 25
-7.41824 -0.262176 27.416 254 254 254
-7.48951 -1.23904 27.8339 115 115 115
-12.1852 9.96834 45.4282 118 118 118
-12.1634 9.04 45.3934 122 122 122
-7.63247 -3.81683 28.9138 247 247 247
-7.63247 -3.81683 28.9138 247 247 247
-7.86623 -4.3564 29.806 64 64 64
-7.60681 -0.702791 29.7659 125 125 125
-11.9022 9.26768 47.1442 141 141 141
-7.01645 -1.55562 27.9099 51 51 51
-11.7508 8.5649 46.802 111 111 111
-6.79122 -0.284737 27.1697 134 134 134
-6.79122 -0.284737 27.1697 134 134 134
-11.54 7.58471 47.164 106 106 106
-11.2716 10.1197 46.3594 127 127 127
-11.1003 7.69402 45.9801 60 60 60
-7.37991 -1.04734 32.3624 87 87 87
-10.6839 8.93902 47.2363 124 124 124
-10.1723 9.46636 45.7409 170 170 170
-3.30606 1.98583 6.74821 19 19 19
-1.27573 -0.824104 2.68595 103 103 103
-3.1344 0.574094 6.72967 137 137 137
-3.1344 0.574094 6.72967 137 137 137
-1.65016 -1.10495 3.61596 184 184 184
-2.89964 2.01348 6.72083 23 23 23
-2.67564 -0.892596 6.27304 93 93 93
-2.91979 0.40764 6.86579 52 52 52
-2.92596 0.409446 6.8828 60 60 60
-3.62153 -3.64786 8.64163 35 35 35
-2.79906 0.455244 6.71894 111 111 111
-2.67769 -0.892437 6.66206 251 251 251
-2.67769 -0.892437 6.66206 251 251 251
-2.68006 -0.969891 6.67374 243 243 243
-2.68006 -0.969891 6.67374 243 243 243
-2.65625 1.50605 6.66908 109 109 109
-2.63823 1.28169 6.67569 126 126 126
-2.69634 -1.1473 6.81569 67 67 67
-2.63385 1.18918 6.69011 26 26 26
-2.67864 0.415419 6.80056 32 32 32
-2.71101 -1.18867 6.88974 40 40 40
-2.61214 1.13739 6.65622 54 54 54
-2.61214 1.13739 6.65622 54 54 54
-3.21103 -2.7274 8.20382 141 141 141
-2.65206 0.363973 6.81009 114 114 114
-3.2602 -2.78674 8.40877 135 135 135
-2.67354 0.319593 6.91096 9 9 9
-2.55205 1.2309 6.68994 115 115 115
-2.50066 1.98155 6.7083 15 15 15
-2.50066 1.98155 6.7083 15 15 15
-2.48957 1.28103 6.69954 132 132 132
-2.50026 1.32025 6.73428 128 128 128
-2.9638 -2.64455 8.01093 61 61 61
-2.53851 -2.71902 6.87027 129 129 129
-2.40874 1.14851 6.59571 36 36 36
-2.51704 -0.538748 6.99362 147 147 147
-2.37058 1.17273 6.63525 22 22 22
-2.38671 1.67519 6.70902 107 107 107
-2.36819 1.27986 6.65303 97 97 97
-2.33394 1.01546 6.66576 86 86 86
-2.31137 1.80607 6.63384 94 94 94
-2.33986 0.558137 6.71481 54 54 54
-2.32702 1.33742 6.68731 163 163 163
-2.6538 -0.671409 7.70583 33 33 33
-2.45472 -0.424668 7.12663 49 49 49
-2.25772 1.24703 6.59999 67 67 67
-2.58554 -0.95511 7.60103 31 31 31
-2.27291 1.25011 6.71243 128 128 128
-2.37084 0.159053 7.10803 157 157 157
-2.37957 -1.15975 7.29423 114 114 114
-2.40311 -0.534705 7.37755 56 56 56
-2.15231 2.2564 6.64375 108 108 108
-2.33697 -1.20057 7.3133 33 33 33
-2.12601 1.67799 6.73096 96 96 96
-2.09396 1.93416 6.66848 15 15 15
-2.15401 0.478454 6.84866 107 107 107
-2.37415 -0.790551 7.57167 23 23 23
-2.39525 -0.429525 7.63944 254 254 254
-2.27451 0.0384269 7.30216 68 68 68
-2.04238 1.83513 6.59894 92 92 92
-2.06605 0.798103 6.69472 92 92 92
-2.07273 -2.50391 6.91253 40 40 40
-2.03336 0.476943 6.8046 110 110 110
-2.00926 1.24007 6.71687 65 65 65
-2.1925 -1.22164 7.45245 45 45 45
-1.94977 1.14159 6.65804 34 34 34
-2.06697 -2.37663 7.16549 78 78 78
-2.14175 -0.1411 7.40456 131 131 131
-1.93197 1.21665 6.72989 137 137 137
-2.21164 -0.0503158 7.708 152 152 152
-1.88218 1.91403 6.61326 22 22 22
-1.99658 0.376062 7.00963 75 75 75
-2.13713 -0.934944 7.51688 36 36 36
-1.88732 1.26806 6.67269 131 131 131
-1.87185 1.88493 6.64365 91 91 91
-1.9903 0.224916 7.1151 72 72 72
-2.11198 -0.516262 7.73332 25 25 25
-1.82903 1.10352 6.72643 99 99 99
-1.81442 1.83571 6.67301 94 94 94
-1.8316 0.577268 6.75945 57 57 57
-2.13718 -0.0695567 7.88291 254 254 254
-2.12157 -0.34466 7.86642 115 115 115
-2.12157 -0.34466 7.86642 115 115 115
-1.77785 1.45383 6.63567 118 118 118
-1.80517 1.34074 6.75289 122 122 122
-3.19086 -2.9834 11.9831 68 68 68
-1.77601 1.16391 6.74278 126 126 126
-2.09686 -1.02837 7.92124 247 247 247
-2.09686 -1.02837 7.92124 247 247 247
-1.77365 0.838333 6.74961 73 73 73
-2.12929 -0.19696 8.33203 125 125 125
-2.94825 -2.87553 11.5294 76 76 76
-1.70936 0.990175 6.71762 15 15 15
-1.63638 2.34389 6.48993 99 99 99
-1.67316 1.30278 6.6327 141 141 141
-2.12638 -0.452349 8.43778 51 51 51
-1.99285 -0.076957 7.94173 134 134 134
-1.69944 0.464496 6.86607 115 115 115
-1.70611 0.376745 6.97127 60 60 60
-1.62498 1.46127 6.69766 127 127 127
-1.58535 1.65803 6.63642 118 118 118
-1.90639 -0.593835 8.08714 254 254 254
-1.51905 2.15731 6.52808 56 56 56
-1.72772 -1.79275 7.52104 39 39 39
-1.87799 -0.943688 8.22089 168 168 168
-1.48386 1.88823 6.54997 21 21 21
-1.50545 1.26056 6.66899 124 124 124
-1.69393 -0.594598 7.62047 176 176 176
-1.48056 1.38122 6.68061 170 170 170
-1.58501 0.209096 7.15176 104 104 104
-1.45985 1.2211 6.67576 117 117 117
-1.55322 0.286323 7.19157 254 254 254
-1.43083 1.11022 6.66348 54 54 54
-1.4876 0.444185 6.95526 134 134 134
-1.40279 1.21315 6.65645 61 61 61
-1.49871 0.399752 7.17216 57 57 57
-1.3435 1.67145 6.58274 121 121 121
-1.23687 2.12338 6.4024 79 79 79
-1.37673 -1.19903 7.34081 129 129 129
-1.17476 1.45323 6.58686 130 130 130
-1.15814 1.24116 6.5798 141 141 141
-1.09443 1.41977 6.6259 106 106 106
-1.09718 1.17269 6.65523 39 39 39
-1.04655 1.62127 6.50182 49 49 49
-1.03164 1.5343 6.4792 79 79 79
-1.01933 1.83967 6.49078 141 141 141
-1.02344 1.40168 6.53295 48 48 48
-1.01472 1.6146 6.50947 40 40 40
-1.50683 0.108625 3.21253 109 109 109
-1.53208 0.284129 3.29461 137 137 137
-1.53208 0.284129 3.29461 137 137 137
-1.36056 0.223543 3.27624 111 111 111
-1.37463 0.189497 3.35644 56 56 56
-1.33314 0.756815 3.34852 109 109 109
-1.21707 -1.32702 3.09645 122 122 122
-1.2884 0.611923 3.29576 60 60 60
-1.35075 -0.523879 3.47163 182 182 182
-1.35075 -0.523879 3.47163 182 182 182
-1.27734 -1.09019 3.28386 135 135 135
-1.30683 -0.0190562 3.38293 108 108 108
-1.3104 -0.580314 3.38094 26 26 26
-1.30446 -0.568257 3.3945 72 72 72
-1.27872 0.210549 3.34191 29 29 29
-1.25425 0.605949 3.29174 115 115 115
-1.24007 0.417138 3.26214 17 17 17
-1.25644 0.589299 3.31252 22 22 22
-1.24411 0.717085 3.32439 63 63 63
-1.27366 -0.557114 3.42229 34 34 34
-1.29985 -0.531029 3.5036 191 191 191
-1.21605 -1.08248 3.27609 61 61 61
-1.21605 -1.08248 3.27609 61 61 61
-1.20757 0.577667 3.31048 36 36 36
-1.39448 -0.298177 3.88276 147 147 147
-1.16738 0.578328 3.27003 22 22 22
-1.18634 0.833878 3.33854 107 107 107
-1.15051 0.620906 3.23336 97 97 97
-1.16998 0.91555 3.36047 94 94 94
-1.106 0.266369 3.18115 54 54 54
-1.1456 0.659076 3.29521 163 163 163
-1.37297 -0.347397 3.99265 33 33 33
-1.27491 -0.474889 3.75714 31 31 31
-1.23651 0.0851591 3.704 157 157 157
-1.4226 -0.257616 4.28445 232 232 232
-1.04331 0.224009 3.19105 107 107 107
-1.12102 -0.544556 3.43206 114 114 114
-1.49646 -0.335499 4.60528 56 56 56
-1.49646 -0.335499 4.60528 56 56 56
-1.10234 1.15604 3.40289 108 108 108
-1.16518 -0.37501 3.59569 68 68 68
-1.05234 0.83033 3.33093 96 96 96
-1.26337 -0.424481 4.04067 23 23 23
-1.03682 0.93197 3.34532 92 92 92
-0.977915 0.378474 3.16818 92 92 92
-1.15548 -0.5247 3.74442 37 37 37
-0.966989 0.365781 3.16948 40 40 40
-0.936534 -1.12911 3.1279 40 40 40
-0.971451 0.599759 3.24846 65 65 65
-1.02974 -0.572516 3.49429 45 45 45
-0.944517 0.553678 3.22772 34 34 34
-1.00693 -0.573332 3.47787 35 35 35
-0.930901 0.585501 3.23921 137 137 137
-0.906463 0.36686 3.15536 41 41 41
-1.11271 -0.0277167 3.89178 152 152 152
-0.859086 -1.34676 3.01727 146 146 146
-1.11121 -0.491828 3.92423 36 36 36
-1.03829 -0.539578 3.71216 124 124 124
-0.835936 -1.39112 2.99786 126 126 126
-0.900749 0.555113 3.22412 98 98 98
-1.06233 -0.346545 3.80746 142 142 142
-0.88955 0.574192 3.21877 73 73 73
-0.889384 0.646538 3.23903 123 123 123
-0.881354 0.515444 3.22791 48 48 48
-0.904213 0.913283 3.32035 94 94 94
-0.848424 0.267556 3.12791 57 57 57
-0.874279 0.715258 3.2631 118 118 118
-0.86587 0.694832 3.26712 131 131 131
-0.973215 -0.482746 3.68981 247 247 247
-0.973215 -0.482746 3.68981 247 247 247
-1.00807 -0.557166 3.83477 64 64 64
-0.830625 0.391113 3.14875 73 73 73
-1.66109 -0.153542 6.48071 125 125 125
-0.809333 0.469131 3.17944 15 15 15
-0.819187 0.637113 3.24236 141 141 141
-0.805755 0.587068 3.20947 111 111 111
-0.785411 0.515961 3.20717 106 106 106
-0.791956 0.712164 3.26081 127 127 127
-0.785473 0.820279 3.27947 118 118 118
-0.828222 -0.575761 3.47915 61 61 61
-0.695087 -0.305358 2.9474 218 218 218
-0.830587 -0.263432 3.53642 254 254 254
-0.731444 0.211735 3.11811 114 114 114
-0.775566 1.10142 3.33082 56 56 56
-0.742715 -0.305322 3.27544 53 53 53
-0.817442 -0.231141 3.61416 66 66 66
-0.723112 0.605164 3.19814 124 124 124
-0.802534 -0.280255 3.6044 176 176 176
-0.734834 0.0974664 3.30882 104 104 104
-0.665567 0.827257 3.25438 121 121 121
-0.622543 0.559954 3.17086 21 21 21
-1.13763 0.079368 2.37688 92 92 92
-0.985215 0.682667 2.27894 23 23 23
-0.934861 0.152434 2.24902 111 111 111
-0.933569 0.126691 2.27585 56 56 56
-0.900869 -0.324465 2.24834 243 243 243
-0.896628 0.507366 2.24841 109 109 109
-0.902701 0.108157 2.33485 9 9 9
-0.839968 0.483543 2.24329 63 63 63
-0.893179 -0.214658 2.38893 85 85 85
-0.831705 0.427429 2.23665 132 132 132
-0.831596 0.438574 2.23854 128 128 128
-0.81124 -0.724707 2.19133 61 61 61
-0.81124 -0.724707 2.19133 61 61 61
-0.821609 0.39184 2.24875 36 36 36
-0.897484 -0.0257384 2.55178 117 117 117
-0.779563 0.338372 2.2236 86 86 86
-0.773325 0.18452 2.21833 54 54 54
-0.764854 0.256609 2.22084 13 13 13
-0.885025 -0.22135 2.57859 33 33 33
-0.879058 -0.326053 2.58902 31 31 31
-0.776532 -0.351762 2.29282 210 210 210
-0.776532 -0.351762 2.29282 210 210 210
-0.756824 0.322717 2.23467 74 74 74
-0.854131 -0.23807 2.60344 156 156 156
-0.854131 -0.23807 2.60344 156 156 156
-0.8527 -0.188865 2.62846 56 56 56
-0.8527 -0.188865 2.62846 56 56 56
-0.710778 0.561232 2.25098 96 96 96
-0.823147 -0.321606 2.63298 176 176 176
-0.814365 -0.271275 2.60711 23 23 23
-0.696841 0.653057 2.2561 5 5 5
-0.69449 -0.370669 2.24418 33 33 33
-0.768781 -0.346459 2.49145 37 37 37
-0.67828 0.256431 2.22294 40 40 40
-0.652826 0.383233 2.23229 34 34 34
-0.647603 0.248306 2.22315 67 67 67
-0.640267 0.403451 2.23104 137 137 137
-0.639266 0.257982 2.22281 41 41 41
-0.724919 -0.377049 2.58875 124 124 124
-0.623875 0.384504 2.2332 98 98 98
-0.623875 0.384504 2.2332 98 98 98
-0.615621 0.398383 2.23098 73 73 73
-0.602857 0.190115 2.22257 57 57 57
-0.698622 -0.11438 2.59918 115 115 115
-0.698622 -0.11438 2.59918 115 115 115
-0.583428 0.275304 2.21707 73 73 73
-0.611297 -0.34726 2.33327 34 34 34
-0.565678 0.514282 2.23797 61 61 61
-0.56175 0.439092 2.23242 141 141 141
-0.423742 -0.222943 1.67779 43 43 43
-0.557229 0.40775 2.22674 111 111 111
-0.438261 0.269383 1.56889 98 98 98
-0.421142 0.34408 1.5705 118 118 118
-0.419671 0.310652 1.56689 122 122 122
-0.413385 0.270185 1.56667 126 126 126
-0.412886 0.352992 1.56995 126 126 126
-0.395238 0.306514 1.56584 141 141 141
-0.371872 -0.55723 1.50138 116 116 116
-0.381068 0.342273 1.5671 127 127 127
-0.368741 0.524396 1.58 56 56 56
-0.35315 0.295413 1.56139 124 124 124
-0.348744 0.308775 1.56127 138 138 138
-0.341675 0.285538 1.55888 117 117 117
-0.335516 0.259751 1.55921 54 54 54
-0.331239 0.0883805 1.58484 57 57 57
-0.316472 0.288153 1.55928 125 125 125
-0.274455 0.29392 1.54936 141 141 141
-0.26456 0.299721 1.55583 138 138 138
-0.263702 0.431344 1.56017 59 59 59
-0.258653 0.334132 1.55406 106 106 106
-0.257937 0.275456 1.55676 39 39 39
-0.249745 0.3715 1.55719 79 79 79
-0.245077 0.335793 1.55586 48 48 48
-0.245077 0.335793 1.55586 48 48 48
-0.243708 0.286529 1.54833 162 162 162
-0.235219 0.0887448 1.5773 67 67 67
-0.235651 0.0398416 1.61296 255 255 255
-0.198573 0.300516 1.54535 57 57 57
-0.192342 0.288527 1.54504 99 99 99
-0.179978 0.290543 1.54651 97 97 97
-0.174579 0.157527 1.5386 54 54 54
-0.149122 0.264575 1.53958 21 21 21
-0.147433 0.105781 1.52727 143 143 143
-0.141027 0.193819 1.53497 71 71 71
-0.121395 0.179467 1.53414 116 116 116
-0.121395 0.179467 1.53414 116 116 116
-0.117607 0.128497 1.51832 93 93 93
-0.0921461 0.162767 1.52782 93 93 93
-0.026482 0.220674 1.52067 18 18 18
-13.9164 7.16717 29.0648 25 25 25
-13.9164 7.16717 29.0648 25 25 25
-13.9502 10.9336 29.3371 31 31 31
-13.9502 10.9336 29.3371 31 31 31
-13.8232 9.35464 29.8159 46 46 46
-14.4249 2.51939 31.7199 123 123 123
-13.7448 5.59156 30.3556 27 27 27
-13.9275 3.77274 30.8924 120 120 120
-13.9275 3.77274 30.8924 120 120 120
-13.7676 6.46395 30.8061 106 106 106
-13.0594 6.10563 29.3192 107 107 107
-13.7136 5.97148 31.0962 121 121 121
-12.9317 9.45377 29.6512 98 98 98
-12.671 7.74784 29.4308 104 104 104
-12.671 7.74784 29.4308 104 104 104
-12.8813 6.07708 30.6592 129 129 129
-12.1397 6.7882 28.9841 24 24 24
-12.028 8.54809 28.9237 24 24 24
-11.8963 7.46747 28.6452 19 19 19
-11.7024 8.38445 28.8476 131 131 131
-12.4148 -5.54811 30.9401 37 37 37
-12.7439 -9.64352 31.8302 40 40 40
-12.7439 -9.64352 31.8302 40 40 40
-12.1295 -10.2636 30.655 32 32 32
-12.0611 -10.209 30.4961 32 32 32
-11.6885 -10.3388 31.0982 36 36 36
-11.4328 -9.91525 30.7008 35 35 35
-11.1326 2.91812 30.1799 135 135 135
-10.6874 -9.5938 29.7307 34 34 34
-10.3084 1.84004 29.0926 175 175 175
-10.2923 1.77063 29.2158 182 182 182
-10.3504 -8.58244 29.6952 111 111 111
-10.3401 -9.21971 29.9606 102 102 102
-10.1035 -8.23709 29.7749 110 110 110
-9.63813 1.35984 28.7499 81 81 81
-10.0018 -9.98162 30.2261 144 144 144
-10.0018 -9.98162 30.2261 144 144 144
-9.63257 -6.68186 29.2999 107 107 107
-9.35666 -7.21887 28.5683 91 91 91
-8.82805 -0.698341 27.8678 115 115 115
-8.88281 1.48038 28.1875 106 106 106
-8.90874 1.61966 28.3719 148 148 148
-8.63858 -8.22399 29.5776 28 28 28
-7.91287 -7.21835 28.9272 51 51 51
-7.927 2.6378 30.6745 107 107 107
-5.89314 2.28253 28.1062 135 135 135
-4.97071 2.43876 28.6242 66 66 66
-4.95399 2.63425 28.8368 138 138 138
-5.3635 -10.2125 31.6663 96 96 96
-3.98891 2.1573 27.9418 94 94 94
-4.66322 -10.7324 32.871 103 103 103
-3.54648 6.71815 29.9314 113 113 113
-3.47722 5.81996 30.2196 126 126 126
-3.11658 -0.3412 28.6713 77 77 77
-3.10809 5.28112 29.3505 27 27 27
-3.10079 1.72346 29.6551 23 23 23
-3.04147 5.50615 29.6454 121 121 121
-2.9768 5.31334 29.4933 26 26 26
-2.82842 1.52263 28.4967 253 253 253
-2.82842 1.52263 28.4967 253 253 253
-3.17287 -12.3728 32.7027 124 124 124
-3.07066 -9.27284 31.834 130 130 130
-3.07066 -9.27284 31.834 130 130 130
-2.85775 6.83465 32.1674 93 93 93
-2.66023 5.38819 30.3133 42 42 42
-2.72925 -11.7057 33.1969 131 131 131
-2.41375 2.15423 29.4331 7 7 7
-2.62998 -9.32996 32.0796 61 61 61
-2.62998 -9.32996 32.0796 61 61 61
-2.43278 7.49601 29.964 107 107 107
-2.49382 6.06214 30.9345 64 64 64
-2.16247 -1.54526 27.3803 205 205 205
-2.5779 -11.4982 32.8932 133 133 133
-2.29698 8.79252 30.0609 81 81 81
-2.23291 6.20662 30.4953 183 183 183
-2.11312 2.79437 30.0122 57 57 57
-2.02102 4.01604 30.2482 35 35 35
-2.01309 5.92032 31.1362 108 108 108
-1.89004 -3.09887 29.8611 30 30 30
-1.94693 6.41216 31.0281 84 84 84
-1.79979 -0.281802 28.6992 50 50 50
-1.82174 7.04629 29.3911 60 60 60
-1.88994 8.12838 30.9418 3 3 3
-1.88994 8.12838 30.9418 3 3 3
-1.64777 1.05377 28.325 182 182 182
-1.79087 8.88156 31.0847 85 85 85
-1.79123 -5.32732 31.3667 22 22 22
-1.63805 10.0217 29.6874 72 72 72
-1.38073 -1.87481 26.6139 132 132 132
-1.38073 -1.87481 26.6139 132 132 132
-1.55068 9.59357 30.4036 75 75 75
-1.49229 -1.53096 29.2519 56 56 56
-1.49229 -1.53096 29.2519 56 56 56
-1.41468 7.71078 30.5796 101 101 101
-1.34414 5.88597 30.6919 121 121 121
-1.44386 -11.4887 32.9587 127 127 127
-1.21841 0.624432 29.7994 87 87 87
-1.22814 2.45702 30.1941 107 107 107
-1.04949 -0.28933 27.5408 254 254 254
-1.06821 -0.106807 28.4192 171 171 171
-0.91036 0.168988 29.0001 254 254 254
-0.968976 5.0411 32.6964 7 7 7
-0.83531 11.0754 30.5197 113 113 113
-0.796216 2.54533 30.8277 110 110 110
-0.698157 5.51215 30.6931 31 31 31
-0.654699 -0.603195 28.9924 254 254 254
-0.539716 -0.0245007 28.8842 129 129 129
-0.564157 5.85004 31.0275 126 126 126
-0.59082 4.24893 33.5104 40 40 40
-0.43263 6.06352 30.5667 113 113 113
-0.202175 8.61606 30.7202 100 100 100
-0.14471 5.24422 31.1035 46 46 46
-0.0992997 7.95866 30.4412 114 114 114
-0.0735539 0.219552 28.7478 254 254 254
-0.0345263 7.00028 30.7544 125 125 125
-0.00215473 8.89513 30.6506 104 104 104
0.00500769 0.203703 30.1379 254 254 254
0.195036 -3.11841 28.8246 36 36 36
0.303321 11.0494 30.1445 102 102 102
0.303321 11.0494 30.1445 102 102 102
0.332827 0.54953 29.4332 245 245 245
0.397044 5.12779 32.2643 20 20 20
0.394662 8.90213 30.4561 61 61 61
0.427858 6.52062 31.6352 140 140 140
0.452198 -1.06264 29.4288 26 26 26
0.452198 -1.06264 29.4288 26 26 26
0.485027 5.98575 31.0609 114 114 114
0.456288 0.203749 28.963 134 134 134
0.456288 0.203749 28.963 134 134 134
0.550641 -0.515241 28.8713 224 224 224
0.717322 1.60768 31.1569 112 112 112
0.765538 5.61899 31.5141 47 47 47
0.74928 7.6482 29.5261 117 117 117
0.775527 -2.13628 30.6389 50 50 50
0.790136 -1.08616 30.0453 253 253 253
0.957608 9.59564 30.5751 101 101 101
0.990379 10.0444 31.0991 96 96 96
0.975039 0.114962 29.6035 254 254 254
1.21112 6.3647 31.7384 133 133 133
1.24387 9.68118 31.1191 106 106 106
1.13784 -0.348221 28.1294 82 82 82
1.26732 8.9043 31.0155 50 50 50
1.26732 8.9043 31.0155 50 50 50
1.25145 -1.29782 30.0018 62 62 62
1.38721 9.36258 31.4106 25 25 25
1.37941 -0.833719 31.1531 155 155 155
1.44778 6.2478 32.0524 129 129 129
1.51967 -0.0215371 30.8511 253 253 253
1.783 6.03835 31.9161 27 27 27
1.79712 8.28759 31.2098 120 120 120
1.75851 11.1111 30.0511 103 103 103
2.14843 10.1454 31.1643 111 111 111
2.61939 7.49469 31.8549 134 134 134
2.65602 9.0925 32.2079 132 132 132
2.72665 6.18238 32.3929 12 12 12
2.70433 6.45081 31.5906 133 133 133
2.90451 6.03277 31.8411 20 20 20
3.03655 7.33068 31.8538 102 102 102
3.06873 7.66069 31.6859 127 127 127
3.08464 8.93276 31.4777 91 91 91
3.22768 8.19569 31.922 108 108 108
3.25316 8.09769 31.995 79 79 79
3.3416 7.50532 32.5059 43 43 43
3.3416 7.50532 32.5059 43 43 43
3.26437 7.26712 31.4363 46 46 46
3.24085 8.24574 31.1686 42 42 42
3.36217 7.40751 31.7245 51 51 51
3.49017 5.87351 32.1852 76 76 76
3.49017 5.87351 32.1852 76 76 76
3.53822 8.25403 32.3391 130 130 130
3.76178 6.56044 31.9363 122 122 122
4.17144 6.02182 31.9991 36 36 36
4.48325 6.69355 32.7396 100 100 100
4.48325 6.69355 32.7396 100 100 100
4.77075 6.83317 33.2094 97 97 97
-2.96433 1.50992 6.14019 28 28 28
-2.86096 0.276242 5.99163 91 91 91
-2.83207 0.270525 5.94059 93 93 93
-3.00101 2.34549 6.305 31 31 31
-3.00101 2.34549 6.305 31 31 31
-2.39717 2.97396 5.06378 135 135 135
-2.8074 -1.17323 5.95263 119 119 119
-2.97733 2.85187 6.31105 29 29 29
-2.77004 -0.664273 5.90321 108 108 108
-2.8972 2.91604 6.18339 91 91 91
-2.76529 -1.04554 5.90642 130 130 130
-2.79323 -0.879841 5.98136 125 125 125
-2.87399 1.93588 6.19101 46 46 46
-2.8229 -1.98951 6.16826 28 28 28
-2.72681 0.433016 5.9788 116 116 116
-2.70888 1.10554 5.98425 27 27 27
-2.71191 -0.0358899 6.00197 124 124 124
-2.71283 0.42137 6.06051 117 117 117
-2.68275 1.14275 5.99496 121 121 121
-2.71218 -0.37116 6.11526 103 103 103
-2.71218 -0.37116 6.11526 103 103 103
-2.6801 1.17147 6.07805 121 121 121
-2.68332 -0.507045 6.09294 32 32 32
-2.72325 -1.54417 6.20299 42 42 42
-2.72325 -1.54417 6.20299 42 42 42
-2.69473 -0.727451 6.1596 45 45 45
-2.69473 -0.727451 6.1596 45 45 45
-2.65977 1.62375 6.17357 104 104 104
-2.65977 1.62375 6.17357 104 104 104
-2.61552 1.46188 6.24312 24 24 24
-2.61477 1.85165 6.28091 24 24 24
-2.60297 1.62981 6.26412 19 19 19
-2.66522 -2.79697 6.55395 24 24 24
-2.61445 2.05259 6.42877 21 21 21
-2.5855 -0.342135 6.47946 39 39 39
-2.53785 1.24464 6.39522 129 129 129
-2.63158 -2.21809 6.65857 32 32 32
-2.60312 -2.43012 6.70826 105 105 105
-2.51473 -0.154759 6.62877 67 67 67
-2.52287 -2.35341 6.70675 114 114 114
-2.53418 -2.23622 6.75107 36 36 36
-2.54039 -2.19419 6.82596 35 35 35
-2.52373 0.669512 6.84155 135 135 135
-2.55089 -2.01393 6.94754 31 31 31
-2.46021 -2.28064 6.73082 118 118 118
-2.48137 0.563017 6.88091 138 138 138
-2.46666 -2.20416 6.86877 34 34 34
-2.46666 -2.20416 6.86877 34 34 34
-2.42312 -2.3508 6.7699 28 28 28
-2.42312 -2.3508 6.7699 28 28 28
-2.50033 -1.76706 7.00488 111 111 111
-2.38259 -2.37291 6.70461 97 97 97
-2.45414 0.44081 6.92391 175 175 175
-2.3977 -2.39858 6.79041 105 105 105
-2.44273 0.427868 6.9356 182 182 182
-2.42442 0.351841 6.93296 163 163 163
-2.42913 -2.00797 6.97475 111 111 111
-2.41379 0.821144 6.95896 106 106 106
-2.44255 -1.80374 7.05059 103 103 103
-2.46739 -2.22249 7.14813 32 32 32
-2.43098 -1.93476 7.15126 110 110 110
-2.44424 -1.9859 7.20918 110 110 110
-2.41285 -2.22321 7.14799 39 39 39
-2.40711 0.344963 7.17921 81 81 81
-2.393 1.10925 7.13016 84 84 84
-2.35057 0.676955 7.06464 102 102 102
-2.36466 -2.35392 7.15556 144 144 144
-2.36466 -2.35392 7.15556 144 144 144
-2.37043 -1.63582 7.21418 107 107 107
-2.38134 -1.99603 7.26661 30 30 30
-2.36211 -2.52631 7.24365 44 44 44
-2.33988 -1.90124 7.26533 42 42 42
-2.28864 -2.25767 7.12835 10 10 10
-2.32159 -1.81149 7.25395 36 36 36
-2.33472 0.390895 7.40673 106 106 106
-2.29282 0.419003 7.29887 148 148 148
-2.33561 -1.96069 7.46144 29 29 29
-2.34875 -1.30536 7.5204 103 103 103
-2.25428 0.928052 7.41502 46 46 46
-2.22492 0.931558 7.51323 90 90 90
-2.13645 -1.93245 7.79555 51 51 51
-1.91145 0.879319 7.2061 92 92 92
-1.9058 0.637156 7.37046 107 107 107
-1.74224 2.5757 7.32107 62 62 62
-1.61333 1.00888 7.16595 89 89 89
-1.51874 0.652405 7.34534 109 109 109
-1.42745 2.00998 7.19551 22 22 22
-1.21642 1.11614 6.8693 110 110 110
-1.19884 0.594054 6.91169 66 66 66
-1.17842 0.622679 6.84469 138 138 138
-1.17842 0.622679 6.84469 138 138 138
-1.27144 -1.95922 7.47605 133 133 133
-1.06599 -2.35758 6.89883 76 76 76
-1.03306 2.14916 7.07152 78 78 78
-0.97481 -2.25473 6.90795 103 103 103
-0.814271 1.53555 6.84676 113 113 113
-0.779807 1.3067 6.77978 126 126 126
-0.809199 -0.773696 7.17165 253 253 253
-0.736334 1.13988 6.58647 34 34 34
-0.805031 -1.27991 7.45955 37 37 37
-0.721634 0.400466 6.90267 23 23 23
-0.711315 0.45421 6.90281 93 93 93
-0.680576 1.22855 6.61786 121 121 121
-0.685572 -2.08062 7.14756 130 130 130
-0.536117 1.30529 6.13747 93 93 93
-0.58621 1.18989 6.65068 31 31 31
-0.564149 1.14301 6.43965 42 42 42
-0.580033 -2.08768 7.17692 61 61 61
-0.56128 1.70495 6.8232 107 107 107
-0.533594 1.2903 6.58777 64 64 64
-0.592798 -0.424121 7.49338 205 205 205
-0.595573 -0.646859 7.69946 124 124 124
-0.497921 0.474886 6.5779 33 33 33
-0.498495 1.47389 6.58543 119 119 119
-0.488797 1.34748 6.62503 183 183 183
-0.44221 0.58796 6.30619 57 57 57
-0.477303 -0.399448 7.21016 4 4 4
-0.418356 -2.60771 6.5609 111 111 111
-0.418771 1.22454 6.44762 108 108 108
-0.412012 1.3477 6.53314 84 84 84
-0.412012 1.3477 6.53314 84 84 84
-0.454697 -0.97643 7.32786 82 82 82
-0.412192 1.75275 6.67672 3 3 3
-0.412192 1.75275 6.67672 3 3 3
-0.436094 -0.281636 7.54492 114 114 114
-0.447547 -0.454078 8.78465 56 56 56
-0.313494 1.68421 6.68396 101 101 101
-0.280658 1.22594 6.39813 121 121 121
-0.521249 -1.02886 12.4764 38 38 38
-0.314624 0.175627 7.89385 87 87 87
-0.24804 0.500791 6.14315 107 107 107
-0.275648 1.89258 6.73234 99 99 99
-0.402428 -0.824254 9.99905 2 2 2
-0.305277 -0.278756 7.58687 253 253 253
-0.302153 -0.0811515 7.93601 254 254 254
-0.275058 -0.0242456 7.43274 171 171 171
-0.239772 0.307568 6.53596 65 65 65
-0.181161 0.959411 6.23554 7 7 7
-0.157238 0.509661 6.15826 110 110 110
-0.145378 1.13242 6.30517 31 31 31
-0.182279 -0.534765 8.50772 128 128 128
-0.137825 0.00126008 7.41774 129 129 129
-0.139527 -1.07749 7.78983 31 31 31
-0.117873 1.19897 6.36327 126 126 126
-0.119894 0.0691902 7.08017 149 149 149
-0.113679 -0.449613 7.31523 7 7 7
-0.0945196 1.27654 6.4293 113 113 113
-0.121541 -1.04564 10.2837 33 33 33
-0.0787606 1.72211 6.56858 102 102 102
-0.0545997 0.297486 6.36173 77 77 77
-0.0502916 0.472857 5.82373 110 110 110
-0.0490424 1.83527 6.5489 100 100 100
-0.0407083 -0.583765 8.81011 7 7 7
-0.0267115 1.68874 6.4654 114 114 114
-0.0215206 0.0638776 7.78749 254 254 254
-0.0113361 1.49191 6.53508 125 125 125
-0.00680899 1.3304 6.43379 125 125 125
-0.00419819 -0.194012 7.7729 90 90 90
-0.00419819 -0.194012 7.7729 90 90 90
0.0580191 -0.94092 8.76619 36 36 36
0.0594968 2.41421 6.58707 102 102 102
0.0766392 0.988275 6.21842 20 20 20
0.0775351 1.35683 6.35888 37 37 37
0.0775351 1.35683 6.35888 37 37 37
0.0786854 1.91166 6.52906 61 61 61
0.0925776 -0.181659 6.74235 161 161 161
0.137661 -0.325029 9.25414 26 26 26
0.110693 0.0517683 7.14049 134 134 134
0.131867 1.68446 6.4557 115 115 115
0.24164 -0.0170849 11.6772 254 254 254
0.15817 1.66877 6.44015 117 117 117
0.227484 1.88566 6.44425 90 90 90
0.226951 1.18953 6.13012 143 143 143
0.234 1.23829 6.17497 133 133 133
0.26086 -0.616493 6.65761 34 34 34
0.256412 2.02323 6.48573 106 106 106
0.258565 1.3178 6.27036 138 138 138
0.311389 -0.184723 7.03529 155 155 155
0.281369 1.55646 6.3456 130 130 130
0.23809 -0.299427 5.27821 125 125 125
0.277896 1.20583 6.18419 129 129 129
0.319087 -0.67341 6.67845 55 55 55
0.285975 0.328363 5.90495 255 255 255
0.297602 1.09091 6.07379 54 54 54
0.266926 -0.317611 5.15754 118 118 118
0.32341 0.419344 5.90675 58 58 58
0.359689 1.68065 6.314 120 120 120
0.303394 -0.141353 5.17998 88 88 88
0.403883 1.15029 6.04637 26 26 26
0.54881 -0.915417 6.68806 125 125 125
0.511034 1.46847 6.21925 134 134 134
0.518697 1.24117 6.07022 133 133 133
0.543442 0.329416 5.69907 59 59 59
0.589178 1.4779 6.1098 127 127 127
0.614542 1.54293 6.08792 79 79 79
0.612691 1.37718 5.96498 43 43 43
0.626333 1.40389 6.06077 46 46 46
0.636905 1.63137 6.15625 42 42 42
0.644461 1.23734 6.1131 132 132 132
0.662114 1.5489 6.06677 130 130 130
-1.24896 0.11612 2.61352 91 91 91
-1.25185 1.2077 2.66265 29 29 29
-1.23599 0.835615 2.66584 46 46 46
-1.19851 0.133496 2.63735 32 32 32
-1.1873 0.323223 2.63363 120 120 120
-1.18795 0.42351 2.63626 105 105 105
-1.18124 0.503235 2.63971 121 121 121
-1.18719 -0.169734 2.67568 103 103 103
-1.18719 -0.169734 2.67568 103 103 103
-1.17476 0.513149 2.66386 121 121 121
-1.1609 0.711745 2.6979 104 104 104
-1.1609 0.711745 2.6979 104 104 104
-1.15534 0.551441 2.74226 22 22 22
-1.15203 0.644519 2.75056 24 24 24
-1.14607 0.814245 2.75618 24 24 24
-1.12667 0.626029 2.82913 12 12 12
-1.12492 0.551484 2.8346 129 129 129
-1.13696 -0.962777 2.87826 32 32 32
-1.13565 -0.961886 2.87637 32 32 32
-1.09058 -1.02172 2.90231 114 114 114
-1.11556 -0.873281 2.97089 41 41 41
-1.09939 -0.973545 2.9303 36 36 36
-1.09273 0.287698 2.96012 135 135 135
-1.09576 -0.867591 2.98591 31 31 31
-1.06333 -0.989948 2.91211 118 118 118
-1.08643 0.242858 3.00915 138 138 138
-1.07848 -0.965827 3.00438 34 34 34
-1.07848 -0.965827 3.00438 34 34 34
-1.07701 -0.675208 3.02521 79 79 79
-1.07345 0.190776 3.02648 175 175 175
-1.06305 -0.879569 3.05243 111 111 111
-1.05806 0.357833 3.0481 106 106 106
-1.04967 -0.834684 3.08687 110 110 110
-1.0427 -0.96015 3.08812 39 39 39
-1.04477 0.146142 3.11241 81 81 81
-1.03756 -0.171564 3.10596 134 134 134
-1.04424 0.299066 3.13663 102 102 102
-1.02356 -1.01806 3.0959 144 144 144
-1.02356 -1.01806 3.0959 144 144 144
-1.01755 -1.05295 3.08322 132 132 132
-1.03035 -0.79107 3.14713 91 91 91
-1.02281 -1.09192 3.13385 44 44 44
-0.996546 -0.982032 3.10263 10 10 10
-1.01629 -0.791368 3.17283 36 36 36
-1.01264 -0.0800527 3.19611 115 115 115
-0.949244 -0.902736 3.2562 28 28 28
-0.854095 0.389738 3.21543 92 92 92
-0.832718 0.274335 3.21433 107 107 107
-0.847814 0.123194 3.34803 172 172 172
-0.640669 0.898705 3.22477 22 22 22
-0.620685 0.554612 3.20008 33 33 33
-0.597029 -1.02737 3.12417 99 99 99
-0.606435 0.143998 3.29414 171 171 171
-0.552597 0.269275 3.17375 66 66 66
-0.54643 0.286298 3.16882 138 138 138
-0.54643 0.286298 3.16882 138 138 138
-0.479044 -1.05113 3.07771 76 76 76
-0.494229 -0.836462 3.19104 198 198 198
-0.437777 -1.01 3.09337 103 103 103
-0.446059 0.550495 3.17649 82 82 82
-0.400817 1.0081 3.21962 35 35 35
-0.38047 0.712846 3.18716 113 113 113
-0.3742 -0.247198 3.1679 58 58 58
-0.330097 -0.530937 3.09122 37 37 37
-0.338199 0.568731 3.17555 27 27 27
-0.326429 0.58583 3.16356 121 121 121
-0.322457 0.570602 3.17814 26 26 26
-0.295105 -1.16431 3.06844 124 124 124
-0.310197 0.684049 3.17177 69 69 69
-0.304363 -0.91681 3.15428 130 130 130
-0.292044 -1.08289 3.06817 137 137 137
-0.28432 0.569114 3.19498 31 31 31
-0.280124 0.561358 3.17286 42 42 42
-0.25926 -0.919455 3.16558 61 61 61
-0.25926 -0.919455 3.16558 61 61 61
-0.261105 0.794018 3.18168 107 107 107
-0.256047 0.614184 3.1449 64 64 64
-0.265356 -0.193832 3.35666 205 205 205
-0.23931 0.707504 3.16586 119 119 119
-0.234677 0.643408 3.1708 183 183 183
-0.231383 -0.411993 3.22069 210 210 210
-0.221948 0.291383 3.14128 57 57 57
-0.224043 1.14682 3.19098 73 73 73
-0.223383 0.688874 3.1796 121 121 121
-0.223383 0.688874 3.1796 121 121 121
-0.211974 0.386946 3.13168 10 10 10
-0.226308 -0.124562 3.41909 10 10 10
-0.229355 0.0113349 3.45391 43 43 43
-0.20575 0.599743 3.16201 108 108 108
-0.200765 0.650498 3.1612 84 84 84
-0.196973 0.833918 3.1816 3 3 3
-0.178196 1.07546 3.18724 72 72 72
-0.178941 -0.182999 3.50415 56 56 56
-0.178941 -0.182999 3.50415 56 56 56
-0.148532 0.799243 3.17457 101 101 101
-0.138049 0.604515 3.15416 121 121 121
-0.148353 -0.286638 3.51365 38 38 38
-0.131267 0.893101 3.18068 99 99 99
-0.139748 -0.283161 3.45256 2 2 2
-0.133692 -0.0173492 3.50364 171 171 171
-0.0810631 0.755999 3.16513 27 27 27
-0.0724236 0.565168 3.14916 31 31 31
-0.0722934 0.0460925 3.44332 254 254 254
-0.0582423 0.591604 3.14302 126 126 126
-0.0549112 0.397916 3.13943 40 40 40
-0.0604518 0.0285304 3.40759 149 149 149
-0.0408126 -0.341884 3.37019 33 33 33
-0.0217674 0.654384 3.14942 118 118 118
-0.0220266 0.884083 3.15618 100 100 100
-0.0155055 -0.388779 3.22597 2 2 2
-0.014509 0.529468 3.14232 46 46 46
-0.0106904 0.82392 3.15431 114 114 114
-0.0047701 0.723159 3.17054 125 125 125
-0.000994421 0.556092 3.14571 97 97 97
-2.60197e-05 0.919371 3.1651 104 104 104
0.0047622 0.142131 3.24652 77 77 77
0.0224499 -0.354263 3.29118 36 36 36
0.0398735 0.50134 3.14973 20 20 20
0.0402145 0.67089 3.14331 37 37 37
0.042285 0.649103 3.14842 140 140 140
0.0536152 -0.230728 3.3488 44 44 44
0.0791524 0.814473 3.14454 117 117 117
0.113895 0.923309 3.15475 90 90 90
0.117022 0.49983 3.12597 17 17 17
0.119329 0.608182 3.13127 143 143 143
0.122111 0.628966 3.12969 133 133 133
0.128668 0.981543 3.14311 106 106 106
0.133279 0.66102 3.13987 138 138 138
0.144761 -0.189354 3.24486 125 125 125
0.148192 0.738114 3.14777 124 124 124
0.14822 0.576658 3.11723 139 139 139
0.151667 -0.279926 3.22246 27 27 27
0.152954 0.180272 3.25426 255 255 255
0.171114 -0.253787 3.22245 123 123 123
0.183294 0.835955 3.13773 120 120 120
0.219886 1.01755 3.13185 111 111 111
-0.746343 -0.494844 1.80622 24 24 24
-0.721414 -0.675893 1.86095 105 105 105
-0.721408 -0.6392 1.86439 127 127 127
-0.709649 -0.612935 1.90681 35 35 35
-0.709649 -0.612935 1.90681 35 35 35
-0.686821 -0.638591 1.88058 118 118 118
-0.698587 -0.62421 1.94516 34 34 34
-0.705018 0.131605 1.99247 175 175 175
-0.691469 -0.56911 1.98334 111 111 111
-0.683418 -0.5404 2.00757 110 110 110
-0.684078 0.101392 2.0426 81 81 81
-0.685426 0.150564 2.05196 57 57 57
-0.685097 0.200827 2.06255 102 102 102
-0.672507 -0.461377 2.04496 107 107 107
-0.658876 -0.701325 2.01684 44 44 44
-0.647184 -0.635396 2.0128 10 10 10
-0.663403 -0.0482498 2.09545 115 115 115
-0.614739 -0.58215 2.10696 28 28 28
-0.545873 0.182426 2.11177 107 107 107
-0.479751 0.301827 2.13524 89 89 89
-0.376237 0.347546 2.1312 110 110 110
-0.363328 0.194813 2.11746 138 138 138
-0.317289 -0.689574 2.02767 76 76 76
-0.298189 0.371893 2.13426 82 82 82
-0.254763 0.481025 2.1458 113 113 113
-0.221987 0.140677 2.14793 93 93 93
-0.21833 0.396378 2.13122 121 121 121
-0.207059 0.463006 2.13928 69 69 69
-0.199293 -0.149823 2.19561 84 84 84
-0.187162 0.379962 2.13764 42 42 42
-0.173001 -0.609603 2.1032 61 61 61
-0.173001 -0.609603 2.1032 61 61 61
-0.175605 0.53574 2.14679 107 107 107
-0.17125 0.416416 2.12437 64 64 64
-0.178723 -0.128032 2.25981 205 205 205
-0.14751 0.198933 2.11166 57 57 57
-0.141698 0.263176 2.11361 10 10 10
-0.14031 0.2822 2.1162 35 35 35
-0.150971 -0.126299 2.28049 4 4 4
-0.137047 0.405997 2.13132 108 108 108
-0.13438 0.439828 2.13377 84 84 84
-0.131967 0.565234 2.15341 3 3 3
-0.127076 -0.271304 2.15761 217 217 217
-0.117753 -0.159157 2.27391 132 132 132
-0.117753 -0.159157 2.27391 132 132 132
-0.117448 -0.120715 2.30284 56 56 56
-0.117448 -0.120715 2.30284 56 56 56
-0.0996116 0.542282 2.15123 101 101 101
-0.0914795 0.410906 2.13225 121 121 121
-0.0976749 -0.188529 2.31518 38 38 38
-0.0929611 -0.187605 2.29765 2 2 2
-0.0928855 -0.259085 2.29947 1 1 1
-0.0552478 -0.14581 2.27865 104 104 104
-0.0473013 0.383748 2.12868 31 31 31
-0.0375269 0.402262 2.12734 126 126 126
-0.0358226 0.270321 2.11734 40 40 40
-0.00241327 0.48962 2.14468 125 125 125
-0.000561787 0.443297 2.13693 125 125 125
-0.00178528 -0.0597268 2.26632 90 90 90
-0.00178528 -0.0597268 2.26632 90 90 90
0.0302179 0.441268 2.13357 140 140 140
0.0538527 0.380938 2.12544 47 47 47
-0.00167273 0.407494 1.79475 125 125 125
-0.00153289 0.368792 1.78897 125 125 125
0.0239594 0.654886 1.80826 31 31 31
0.0243295 0.365443 1.7824 140 140 140
0.0277969 0.343034 1.78218 114 114 114
0.0351684 0.141823 1.81236 53 53 53
0.0514138 -0.571913 1.70759 114 114 114
0.0599847 0.147582 1.7947 110 110 110
0.0640197 0.518652 1.77783 90 90 90
0.065522 0.281166 1.76428 17 17 17
0.065522 0.281166 1.76428 17 17 17
0.0674972 0.35374 1.76729 133 133 133
0.074573 -0.507509 1.76464 23 23 23
0.0796589 0.343232 1.7626 129 129 129
0.0828214 0.325101 1.7621 139 139 139
0.0862195 0.101886 1.81575 255 255 255
0.0871286 0.315528 1.76206 54 54 54
0.0916469 0.332505 1.76311 21 21 21
0.101669 0.467635 1.76196 120 120 120
0.119922 0.650467 1.77243 46 46 46
0.116845 -0.580049 1.7051 183 183 183
0.129803 0.651006 1.76957 45 45 45
0.144472 0.494448 1.75098 132 132 132
0.148822 0.354645 1.7375 133 133 133
0.154273 0.127356 1.78056 89 89 89
0.154337 0.381655 1.74505 13 13 13
0.160033 0.505652 1.74613 62 62 62
0.160048 0.361455 1.74123 133 133 133
0.172825 0.526402 1.74225 45 45 45
0.177205 0.44111 1.74244 79 79 79
0.178357 0.400239 1.7348 43 43 43
0.178357 0.400239 1.7348 43 43 43
0.180533 0.401513 1.73747 46 46 46
0.183382 0.404735 1.73003 51 51 51
0.18752 0.315137 1.72934 76 76 76
0.208528 0.0795174 1.79533 255 255 255
0.202919 0.353457 1.72304 122 122 122
0.211947 0.134442 1.75239 72 72 72
0.228251 0.363999 1.71604 58 58 58
0.237411 -0.427174 1.75778 240 240 240
0.234674 0.350729 1.71396 100 100 100
0.245594 0.35235 1.70981 97 97 97
0.243212 -0.598882 1.66716 99 99 99
0.253103 0.207116 1.70167 58 58 58
0.293791 0.189569 1.68708 89 89 89
0.296751 0.181844 1.68579 139 139 139
0.298766 0.202956 1.68607 145 145 145
0.305788 0.2633 1.68798 98 98 98
0.309673 0.177478 1.66768 101 101 101
0.322153 0.293952 1.68273 43 43 43
0.321294 0.582425 1.57411 14 14 14
0.374282 0.0888634 1.7322 100 100 100
0.410273 0.281812 1.65475 22 22 22
0.419661 0.244172 1.64496 85 85 85
-2.03126 -0.632416 5.13605 55 55 55
-2.01337 -0.731328 5.19502 32 32 32
-2.01337 -0.731328 5.19502 32 32 32
-2.01104 -0.642121 5.20991 32 32 32
-1.97063 -0.696781 5.28148 132 132 132
-1.97063 -0.696781 5.28148 132 132 132
-1.96396 -0.74211 5.28722 36 36 36
-1.96396 -0.74211 5.28722 36 36 36
-1.57102 -1.71739 4.23981 123 123 123
-1.9599 -0.673419 5.30768 32 32 32
-1.55072 -2.24333 4.38929 35 35 35
-1.45933 -1.72341 4.46571 33 33 33
-1.39894 -2.23706 4.61498 36 36 36
-1.39894 -2.23706 4.61498 36 36 36
-1.41305 -2.45767 4.68435 24 24 24
-1.41305 -2.45767 4.68435 24 24 24
-1.38667 -1.68424 4.61921 46 46 46
-1.67671 -1.67619 5.8007 29 29 29
-1.33905 -1.8022 4.77209 138 138 138
-1.32339 -2.25565 4.79292 35 35 35
-1.28832 -2.25747 4.83138 37 37 37
-1.23961 -2.27009 4.95014 34 34 34
-1.23961 -2.27009 4.95014 34 34 34
-1.16289 -1.78863 4.99689 127 127 127
-1.47045 2.66232 6.41838 91 91 91
-1.16095 -2.27902 5.08261 42 42 42
-1.31169 -1.60515 5.77883 42 42 42
-1.1378 -2.26704 5.10086 34 34 34
-1.21573 -1.63694 5.68727 35 35 35
-1.1314 -1.6271 5.70894 155 155 155
-1.0549 -1.76066 5.57799 27 27 27
-1.03068 -0.838063 5.7586 85 85 85
-1.0477 0.432719 5.93837 113 113 113
-0.989082 -1.83198 5.66709 24 24 24
-0.982245 -1.3262 5.6801 75 75 75
-0.966622 -1.80734 5.58842 24 24 24
-0.932691 -0.620374 5.66609 69 69 69
-0.932799 -0.260157 5.78344 55 55 55
-0.90503 -1.46314 5.6465 34 34 34
-0.90503 -1.46314 5.6465 34 34 34
-0.955088 2.62944 5.9512 52 52 52
-0.915041 0.0742521 5.80132 51 51 51
-0.859491 -1.26254 5.55941 30 30 30
-0.971422 2.1428 6.24456 23 23 23
-0.865065 -1.54457 5.61588 118 118 118
-0.850788 -1.72256 5.60393 135 135 135
-0.895082 0.781438 5.91064 38 38 38
-0.94507 2.59552 6.23132 28 28 28
-0.841664 -0.728913 5.70151 125 125 125
-0.882151 1.14091 5.97306 35 35 35
-0.899705 2.63872 6.07535 100 100 100
-0.893568 1.48809 6.10291 40 40 40
-0.821212 -1.03737 5.73666 125 125 125
-0.81925 -0.0198864 5.77692 132 132 132
-0.798426 -0.683431 5.78599 125 125 125
-0.816312 0.30694 5.91931 19 19 19
-0.818389 1.03438 5.9666 27 27 27
-0.791429 -0.324826 5.88782 114 114 114
-0.764741 -0.297314 5.91357 146 146 146
-0.760227 1.08347 5.9961 118 118 118
-0.81775 2.58935 6.48969 23 23 23
-0.734039 1.51976 6.15944 101 101 101
-0.734039 1.51976 6.15944 101 101 101
-0.685363 1.3815 6.24623 7 7 7
-0.685363 1.3815 6.24623 7 7 7
-0.65274 -0.536867 6.08377 134 134 134
-0.673177 1.74418 6.28113 25 25 25
-0.673177 1.74418 6.28113 25 25 25
-0.673448 1.54731 6.29289 20 20 20
-0.649463 -2.36452 6.12625 30 30 30
-0.590753 -1.93701 6.43841 30 30 30
-0.52179 -1.92384 6.48168 52 52 52
-0.52179 -1.92384 6.48168 52 52 52
-0.532999 0.346148 6.98865 144 144 144
-0.481129 -1.94523 6.46743 35 35 35
-0.472152 -2.02127 6.34782 118 118 118
-0.468913 -1.90758 6.53445 35 35 35
-0.445166 -1.77171 6.634 105 105 105
-0.438863 0.629709 6.59586 140 140 140
-0.411159 -1.95656 6.67784 39 39 39
-0.375553 -2.02721 6.39699 34 34 34
-0.375553 -2.02721 6.39699 34 34 34
-0.368694 -2.01091 6.5991 104 104 104
-0.376206 0.440351 6.7991 179 179 179
-0.359185 -1.93996 6.78368 42 42 42
-0.351043 -1.57512 6.69388 103 103 103
-0.343727 0.662083 6.79389 74 74 74
-0.341317 0.805092 6.92081 108 108 108
-0.299728 -1.7378 6.90354 124 124 124
-0.272394 0.352953 7.01642 79 79 79
-0.274035 0.499542 7.05377 64 64 64
-0.248125 -2.07542 6.86128 144 144 144
-0.248125 -2.07542 6.86128 144 144 144
-0.237086 -1.43531 6.93018 108 108 108
-0.220231 -2.20733 6.88037 46 46 46
-0.159317 2.54819 6.39515 126 126 126
-0.174163 -0.261442 7.14641 109 109 109
-0.171242 -0.118303 7.24944 119 119 119
-0.153097 -2.15554 6.96615 48 48 48
-0.157989 0.409957 7.32022 147 147 147
-0.146984 0.431379 7.19427 68 68 68
-0.145133 -1.13239 7.24806 108 108 108
-0.0304462 0.913718 7.38731 113 113 113
0.106645 -1.67794 7.30485 40 40 40
0.169115 2.46049 6.85134 18 18 18
0.224947 0.617324 7.02338 99 99 99
0.243824 0.759726 6.97527 67 67 67
0.368596 2.48764 7.14706 64 64 64
0.437903 1.0049 7.07097 102 102 102
0.539777 0.609958 7.14714 138 138 138
0.56613 0.638716 6.96354 102 102 102
0.737815 1.13128 6.84598 104 104 104
0.767847 0.62495 6.94582 119 119 119
0.786044 -1.7773 7.04273 119 119 119
0.786974 -2.01494 6.07331 92 92 92
0.949609 2.04681 6.95447 20 20 20
0.95894 1.45249 6.84526 115 115 115
0.952343 -0.589843 6.73537 82 82 82
0.850887 -1.89678 5.97491 102 102 102
1.00999 0.511403 6.97301 56 56 56
1.11716 2.03939 6.85542 24 24 24
1.1469 1.33638 6.72254 130 130 130
1.19167 0.529429 6.87097 29 29 29
1.28282 0.460964 7.1658 59 59 59
1.21604 1.28443 6.66699 109 109 109
1.12565 -1.75925 6.12238 138 138 138
1.12896 -1.72918 6.03094 134 134 134
1.26731 1.42966 6.707 135 135 135
1.33772 1.26908 6.77406 32 32 32
1.30393 1.2223 6.58114 37 37 37
1.23785 1.3689 6.1961 85 85 85
1.74724 -0.424211 8.65009 163 163 163
1.22767 -1.74646 6.06437 63 63 63
1.37278 1.7364 6.70804 110 110 110
1.19516 -2.01349 5.78452 136 136 136
1.3539 1.34258 6.5823 67 67 67
1.36874 1.26155 6.6473 54 54 54
1.46026 0.557399 7.01491 26 26 26
1.40869 1.40253 6.61255 158 158 158
1.42627 0.6665 6.63874 59 59 59
1.74361 -0.571387 8.05283 49 49 49
1.77186 -0.577992 8.18544 49 49 49
1.23538 -1.84854 5.73021 116 116 116
1.42703 1.15327 6.53571 78 78 78
1.27601 -2.31716 5.82487 113 113 113
1.78068 -0.809199 8.06199 50 50 50
1.44843 1.29753 6.51555 137 137 137
1.47771 1.42386 6.58387 82 82 82
1.759 0.347154 7.77285 158 158 158
1.48486 1.79019 6.55162 16 16 16
1.48486 1.79019 6.55162 16 16 16
1.51861 2.2846 6.52857 150 150 150
1.9194 -0.390316 8.21813 65 65 65
2.17309 -0.125422 9.06903 71 71 71
2.17309 -0.125422 9.06903 71 71 71
1.59184 1.7353 6.58073 104 104 104
1.58505 1.31207 6.4896 120 120 120
1.59105 1.39946 6.50977 123 123 123
2.08888 -0.0374817 8.49452 254 254 254
1.8496 0.20412 7.511 79 79 79
1.62714 -0.83993 6.63957 206 206 206
1.9736 0.02171 7.96834 253 253 253
1.9736 0.02171 7.96834 253 253 253
1.68795 1.31799 6.49732 63 63 63
1.68579 1.06458 6.47221 3 3 3
1.68798 1.07738 6.4556 113 113 113
1.7209 0.593713 6.56165 101 101 101
1.70493 1.22022 6.40271 44 44 44
1.99416 0.0309814 7.44669 124 124 124
1.49724 -1.81487 5.54394 41 41 41
1.75106 1.29128 6.45029 163 163 163
2.55284 -0.0562883 9.34364 104 104 104
2.32425 -0.065936 8.49269 97 97 97
1.76829 1.34953 6.41824 118 118 118
1.53637 -1.23526 5.52791 61 61 61
2.07383 -0.221617 7.34451 35 35 35
1.52234 -1.82602 5.41961 104 104 104
2.22755 -0.343807 7.82991 41 41 41
2.23194 0.103014 7.83411 255 255 255
1.82686 1.90215 6.42093 104 104 104
2.34017 -0.169248 8.15237 165 165 165
1.83977 1.76994 6.39385 109 109 109
1.8547 0.687153 6.40418 60 60 60
1.83942 1.52774 6.34098 122 122 122
2.2873 -0.834528 7.78648 195 195 195
2.2873 -0.834528 7.78648 195 195 195
1.93595 0.566912 6.58039 75 75 75
1.90426 1.25678 6.44191 111 111 111
1.89457 0.934647 6.37721 79 79 79
1.90468 1.98265 6.3295 21 21 21
2.79324 -0.000943615 9.29172 130 130 130
2.74589 -1.07428 9.10424 35 35 35
1.90298 2.42955 6.27318 108 108 108
1.93791 0.968603 6.37757 33 33 33
2.36065 0.099225 7.74182 139 139 139
1.91419 1.93766 6.25868 57 57 57
1.94866 1.09132 6.38296 13 13 13
1.92064 1.37931 6.26492 145 145 145
2.04572 0.597436 6.53035 113 113 113
1.99038 1.53139 6.30241 132 132 132
2.00841 1.74179 6.3031 121 121 121
2.5281 -0.404105 7.87295 254 254 254
2.00603 2.22258 6.18713 52 52 52
2.59647 0.0763811 8.00236 255 255 255
2.03405 2.07527 6.22801 101 101 101
2.03306 2.18878 6.19533 101 101 101
2.0599 2.27797 6.27551 100 100 100
2.05466 1.97192 6.20378 24 24 24
2.05217 2.14463 6.19403 27 27 27
2.09155 1.32447 6.30197 135 135 135
2.08065 1.3457 6.23013 131 131 131
2.94071 -0.644655 8.74317 48 48 48
2.06367 2.03143 6.12672 100 100 100
2.06367 2.03143 6.12672 100 100 100
2.0727 1.88716 6.14437 48 48 48
2.63621 -0.181327 7.80475 237 237 237
2.30961 0.368367 6.81522 117 117 117
2.64363 -0.802578 7.74986 56 56 56
2.73935 -0.829034 8.02677 57 57 57
1.77263 -1.60317 5.17474 82 82 82
2.6205 0.0291792 7.61282 254 254 254
2.239 0.574568 6.44353 124 124 124
3.8994 -1.3962 11.1847 116 116 116
2.36408 0.544405 6.70586 61 61 61
2.16605 1.7369 6.08621 121 121 121
2.49623 -0.405041 6.96252 87 87 87
2.22245 1.89406 6.09328 50 50 50
2.22245 1.89406 6.09328 50 50 50
2.2543 2.28461 6.14291 81 81 81
2.23344 1.92318 6.063 107 107 107
2.24474 2.4016 6.08079 43 43 43
2.29982 1.26032 6.07278 95 95 95
2.30845 1.53009 6.00357 132 132 132
2.32557 1.92841 6.01068 111 111 111
2.32557 1.92841 6.01068 111 111 111
2.35956 1.27374 6.11001 39 39 39
