ply
format ascii 1.0
element vertex 721
property float x
property float y
property float z
property uchar red
property uchar green
property uchar blue
end_header
-2.6412832736968994 -1.6958537101745605 8.960921287536621 3 3 3
-2.6412832736968994 -1.6958537101745605 8.960921287536621 3 3 3
-2.5194342136383057 2.5013835430145264 8.57718563079834 5 5 5
-2.633333921432495 2.076571226119995 8.848138809204102 6 6 6
-2.633333921432495 2.076571226119995 8.848138809204102 6 6 6
-1.7709075212478638 3.7602550983428955 6.125382423400879 115 115 115
-2.542083978652954 2.993934154510498 8.720344543457031 52 52 52
-2.648379325866699 2.2246785163879395 8.965274810791016 124 124 124
-2.4052600860595703 -3.358286142349243 8.290191650390625 81 81 81
-2.3704209327697754 -2.0343780517578125 8.053558349609375 76 76 76
-2.533020257949829 1.8938523530960083 8.738445281982422 81 81 81
-3.0325160026550293 -2.7924728393554688 10.68696403503418 48 48 48
-2.919312000274658 -1.1166932582855225 10.283559799194336 147 147 147
-2.4502148628234863 1.0770080089569092 8.536913871765137 81 81 81
-2.717254400253296 -2.2177305221557617 9.609450340270996 12 12 12
-2.717254400253296 -2.2177305221557617 9.609450340270996 12 12 12
-2.494901180267334 1.3883163928985596 8.70956802368164 45 45 45
-2.4661827087402344 3.4771621227264404 8.60805606842041 39 39 39
-2.3868556022644043 -3.077688694000244 8.360577583312988 100 100 100
-2.3208823204040527 0.7845603227615356 8.182049751281738 104 104 104
-2.1171107292175293 -2.030302047729492 7.459800720214844 97 97 97
-1.8918453454971313 3.689000129699707 6.691311836242676 72 72 72
-2.454742908477783 1.0325766801834106 8.684150695800781 82 82 82
-2.411184549331665 1.5842558145523071 8.566686630249023 39 39 39
-2.500053882598877 1.93416166305542 8.907402038574219 95 95 95
-2.4052069187164307 2.991947650909424 8.70762825012207 67 67 67
-2.4222049713134766 1.3314985036849976 8.656023979187012 36 36 36
-2.3175675868988037 0.9049661755561829 8.354665756225586 67 67 67
-2.4139606952667236 1.5846165418624878 8.675135612487793 33 33 33
-2.452939510345459 3.1581227779388428 8.828339576721191 56 56 56
-2.8886284828186035 0.6153752207756042 10.39980697631836 75 75 75
-2.429093599319458 2.876342296600342 8.764477729797363 82 82 82
-2.399428606033325 1.3689961433410645 8.658267974853516 38 38 38
-2.3883485794067383 1.6541813611984253 8.639198303222656 47 47 47
-2.422544240951538 2.6243855953216553 8.783041000366211 83 83 83
-2.4451510906219482 3.2009522914886475 8.745105743408203 99 99 99
-2.0339486598968506 -1.1683659553527832 7.403775215148926 22 22 22
-2.385427951812744 1.8549445867538452 8.721769332885742 120 120 120
-1.9108294248580933 -1.8986985683441162 6.97870397567749 103 103 103
-2.7680141925811768 -0.977681577205658 10.168598175048828 41 41 41
-2.831148624420166 -0.8187852501869202 10.325834274291992 20 20 20
-2.2541356086730957 -4.053935527801514 8.325860023498535 55 55 55
-2.305527925491333 -3.169017791748047 8.535263061523438 92 92 92
-2.3558506965637207 2.6699576377868652 8.724739074707031 99 99 99
-2.2430686950683594 -3.662560224533081 8.328462600708008 72 72 72
-2.3598673343658447 3.250875234603882 8.786954879760742 45 45 45
-2.36746883392334 3.0888917446136475 8.858152389526367 41 41 41
-2.3413288593292236 2.0215256214141846 8.777386665344238 34 34 34
-2.3986401557922363 0.7513914108276367 9.029339790344238 59 59 59
-2.314671754837036 1.58925461769104 8.741009712219238 36 36 36
-2.6072447299957275 -0.9720844030380249 9.991166114807129 247 247 247
-2.290980577468872 0.9059134721755981 8.709102630615234 66 66 66
-2.317587375640869 2.7177627086639404 8.828143119812012 76 76 76
-2.246960163116455 1.14315927028656 8.599971771240234 70 70 70
-2.2726025581359863 1.3953673839569092 8.763734817504883 71 71 71
-2.2554097175598145 1.1066950559616089 8.705817222595215 71 71 71
-2.2835423946380615 2.1856930255889893 8.791440963745117 92 92 92
-1.9828118085861206 -1.8858646154403687 7.542413234710693 75 75 75
-2.26294207572937 -3.723163366317749 8.633038520812988 121 121 121
-2.2622287273406982 1.5113598108291626 8.792513847351074 91 91 91
-1.817724585533142 -1.8620046377182007 7.144789695739746 129 129 129
-2.1744847297668457 -2.3739583492279053 8.454509735107422 19 19 19
-2.239689826965332 0.9025675654411316 8.717916488647461 102 102 102
-2.215738296508789 -4.093953609466553 8.561463356018066 48 48 48
-2.285785675048828 3.1939377784729004 8.824068069458008 64 64 64
-2.3040969371795654 0.7395533919334412 8.992598533630371 66 66 66
-2.067078113555908 -1.9381999969482422 8.111281394958496 11 11 11
-2.713749408721924 -0.7228848338127136 10.655803680419922 44 44 44
-2.227386713027954 2.6116435527801514 8.759078979492188 65 65 65
-2.211655378341675 1.199271559715271 8.702208518981934 40 40 40
-1.8559775352478027 3.6266517639160156 7.406259536743164 129 129 129
-2.099526882171631 3.4687812328338623 8.292210578918457 52 52 52
-2.160831928253174 -2.5933358669281006 8.630040168762207 8 8 8
-2.160831928253174 -2.5933358669281006 8.630040168762207 8 8 8
-2.7435481548309326 -1.8758364915847778 10.917405128479004 34 34 34
-2.2115936279296875 2.511199951171875 8.805438041687012 2 2 2
-2.238158941268921 2.2833690643310547 8.82715129852295 21 21 21
-2.198223114013672 3.1413910388946533 8.956831932067871 68 68 68
-2.0722246170043945 -3.5581212043762207 8.372795104980469 63 63 63
-2.030397653579712 -1.6770354509353638 8.227879524230957 24 24 24
-2.194927215576172 2.396007776260376 8.91253662109375 75 75 75
-2.159457206726074 1.7994333505630493 8.810590744018555 164 164 164
-2.5072808265686035 -0.35885027050971985 10.30408763885498 51 51 51
-2.5072808265686035 -0.35885027050971985 10.30408763885498 51 51 51
-2.4895474910736084 -0.5255950093269348 10.100457191467285 226 226 226
-2.0576016902923584 -3.0382378101348877 8.536747932434082 121 121 121
-2.0787055492401123 1.8465043306350708 8.68105411529541 77 77 77
-2.046905040740967 -3.0278217792510986 8.507412910461426 122 122 122
-2.158139228820801 3.4176242351531982 8.988883972167969 35 35 35
-2.0279433727264404 -3.105642557144165 8.448816299438477 92 92 92
-2.1060726642608643 3.133143901824951 8.860212326049805 70 70 70
-2.3686370849609375 0.5532935261726379 9.97184944152832 83 83 83
-1.836452603340149 -2.183704376220703 7.897030830383301 118 118 118
-2.122556209564209 1.7531511783599854 8.810812950134277 22 22 22
-2.122556209564209 1.7531511783599854 8.810812950134277 22 22 22
-2.430388927459717 0.3839908838272095 10.26014232635498 61 61 61
-2.089174747467041 3.5467238426208496 8.932417869567871 53 53 53
-1.9126232862472534 -1.2514384984970093 8.289109230041504 51 51 51
-2.43247127532959 -1.0550509691238403 10.429482460021973 36 36 36
-2.033625602722168 0.9337844252586365 8.772915840148926 57 57 57
-2.0737764835357666 2.655142307281494 8.944025993347168 101 101 101
-1.969219446182251 -2.922311544418335 8.512332916259766 95 95 95
-1.961201548576355 1.560476541519165 8.667662620544434 75 75 75
-2.4071075916290283 -0.34880468249320984 10.435419082641602 253 253 253
-2.405550718307495 -0.4008331894874573 10.464377403259277 250 250 250
-1.8625919818878174 -3.0843565464019775 8.268386840820312 89 89 89
-1.8625919818878174 -3.0843565464019775 8.268386840820312 89 89 89
-2.041414260864258 2.463519811630249 8.921874046325684 111 111 111
-2.0003044605255127 0.9468048214912415 8.802748680114746 59 59 59
-2.017515182495117 1.9606698751449585 8.920461654663086 121 121 121
-1.986068844795227 1.6541565656661987 8.784917831420898 107 107 107
-2.1938133239746094 -0.5318930149078369 9.929219245910645 233 233 233
-1.9152756929397583 -3.004713296890259 8.533060073852539 134 134 134
-1.9152756929397583 -3.004713296890259 8.533060073852539 134 134 134
-1.9904919862747192 3.094679355621338 8.959419250488281 79 79 79
-2.0040626525878906 3.37895131111145 9.082769393920898 49 49 49
-1.8018454313278198 -1.416641116142273 8.207104682922363 67 67 67
-1.9588346481323242 1.3971971273422241 8.922374725341797 34 34 34
-2.069272994995117 0.7366464138031006 9.498309135437012 75 75 75
-1.9483047723770142 2.565145492553711 8.972071647644043 58 58 58
-1.9019083976745605 -3.9214916229248047 8.710683822631836 49 49 49
-1.8863035440444946 1.4940060377120972 8.822637557983398 112 112 112
-1.9296642541885376 2.0161497592926025 9.017508506774902 22 22 22
-1.8732792139053345 1.8336445093154907 8.761825561523438 132 132 132
-1.9491159915924072 3.447741985321045 9.145838737487793 57 57 57
-1.9010075330734253 1.1204127073287964 8.955589294433594 73 73 73
-1.812669038772583 -3.507826566696167 8.544315338134766 81 81 81
-2.0408308506011963 3.7316081523895264 9.620070457458496 35 35 35
-1.7983859777450562 -3.381298303604126 8.493424415588379 95 95 95
-1.9194355010986328 3.4731714725494385 9.13261604309082 136 136 136
-1.9194355010986328 3.4731714725494385 9.13261604309082 136 136 136
-1.9071956872940063 1.6537935733795166 9.17888355255127 35 35 35
-1.8780263662338257 3.0750205516815186 9.089085578918457 91 91 91
-1.8687015771865845 2.6342270374298096 9.035479545593262 81 81 81
-1.4645698070526123 3.6446239948272705 6.986320972442627 35 35 35
-1.6997171640396118 -1.2397847175598145 8.374192237854004 143 143 143
-1.8229597806930542 2.126847505569458 9.00597095489502 130 130 130
-1.8229597806930542 2.126847505569458 9.00597095489502 130 130 130
-1.3777047395706177 3.6531150341033936 6.947569370269775 51 51 51
-1.7059845924377441 -3.0061254501342773 8.66308879852295 104 104 104
-1.7033292055130005 -2.9006309509277344 8.70312786102295 110 110 110
-1.7217071056365967 1.0915995836257935 9.030943870544434 66 66 66
-1.7542192935943604 2.152116537094116 9.07033634185791 103 103 103
-1.7600078582763672 3.1625733375549316 9.144232749938965 108 108 108
-1.724117398262024 1.3567880392074585 8.989344596862793 59 59 59
-1.6171387434005737 -2.8168528079986572 8.633553504943848 146 146 146
-1.740794062614441 2.6505954265594482 9.100706100463867 42 42 42
-1.1948506832122803 3.721452474594116 6.26615571975708 72 72 72
-1.7303181886672974 2.9238955974578857 9.110798835754395 94 94 94
-1.7303181886672974 2.9238955974578857 9.110798835754395 94 94 94
-1.5855079889297485 -3.9004366397857666 8.406328201293945 30 30 30
-1.7264037132263184 -1.09773850440979 9.138031959533691 118 118 118
-1.6047585010528564 -3.392690420150757 8.513011932373047 96 96 96
-1.6836222410202026 1.1729103326797485 8.985776901245117 43 43 43
-1.2258474826812744 3.574510097503662 6.716980934143066 162 162 162
-1.5637753009796143 3.4721953868865967 8.357887268066406 54 54 54
-1.7518911361694336 3.082979202270508 9.192178726196289 40 40 40
-1.6819326877593994 1.8574665784835815 9.045581817626953 125 125 125
-1.6840533018112183 3.0631520748138428 9.153005599975586 50 50 50
-1.645627498626709 1.8074034452438354 9.0750093460083 150 150 150
-1.649971604347229 1.7540305852890015 9.109176635742188 7 7 7
-1.6249182224273682 1.8028178215026855 9.041297912597656 101 101 101
-1.6535863876342773 2.262441635131836 9.215781211853027 54 54 54
-1.5518436431884766 -3.3789258003234863 8.769341468811035 87 87 87
-1.5162038803100586 -3.8186066150665283 8.5780668258667 57 57 57
-1.6165238618850708 -1.2951271533966064 9.312067985534668 97 97 97
-1.540497899055481 0.8195123672485352 8.956511497497559 35 35 35
-1.58137845993042 2.8046250343322754 9.179448127746582 55 55 55
-1.5789324045181274 1.7106945514678955 9.182782173156738 56 56 56
-1.5789324045181274 1.7106945514678955 9.182782173156738 56 56 56
-1.27157723903656 2.31132173538208 7.512286186218262 64 64 64
-1.5398648977279663 3.1984097957611084 9.117271423339844 59 59 59
-1.5684019327163696 3.4355368614196777 9.277945518493652 120 120 120
-1.4798860549926758 -2.7456345558166504 8.91787052154541 41 41 41
-1.5489654541015625 2.4664649963378906 9.23648452758789 109 109 109
-1.5118739604949951 1.436815857887268 9.1105375289917 43 43 43
-1.5128964185714722 1.9480808973312378 9.219131469726562 119 119 119
-1.419763207435608 -3.5065340995788574 8.655606269836426 63 63 63
-1.520772099494934 -4.201545238494873 9.15665054321289 58 58 58
-1.5025891065597534 2.8533849716186523 9.212064743041992 60 60 60
-1.4730147123336792 3.3929646015167236 9.044291496276855 52 52 52
-1.3959232568740845 -1.1502318382263184 8.853299140930176 255 255 255
-1.4996217489242554 2.692996025085449 9.253454208374023 54 54 54
-1.554349422454834 -0.8637380599975586 9.647446632385254 110 110 110
-1.507275104522705 2.6833958625793457 9.328248023986816 52 52 52
-1.507275104522705 2.6833958625793457 9.328248023986816 52 52 52
-1.465119481086731 2.699586868286133 9.257123947143555 120 120 120
-1.4543160200119019 2.701258897781372 9.235213279724121 104 104 104
-1.4496313333511353 2.8723936080932617 9.2489652633667 103 103 103
-1.4350303411483765 2.8223812580108643 9.249083518981934 104 104 104
-1.428849697113037 3.3599305152893066 9.318439483642578 42 42 42
-1.5298125743865967 -0.2301378846168518 9.789521217346191 241 241 241
-1.385598063468933 2.350579023361206 9.07388973236084 122 122 122
-1.3280346393585205 -3.2948927879333496 8.768416404724121 80 80 80
-1.3307853937149048 -3.0000672340393066 8.823220252990723 92 92 92
-1.377821445465088 3.0563061237335205 9.281219482421875 49 49 49
-1.3471570014953613 2.812312126159668 9.271808624267578 67 67 67
-1.3346349000930786 2.1420414447784424 9.273112297058105 128 128 128
-1.2523938417434692 1.6820783615112305 8.949426651000977 7 7 7
-1.3232831954956055 2.562376022338867 9.253382682800293 107 107 107
-1.317176342010498 0.473885715007782 9.36281681060791 188 188 188
-1.2930582761764526 1.317067265510559 9.229320526123047 38 38 38
-1.2691912651062012 3.3955037593841553 9.085404396057129 70 70 70
-1.2691912651062012 3.3955037593841553 9.085404396057129 70 70 70
-1.2597445249557495 1.144680380821228 9.142685890197754 47 47 47
-1.3297526836395264 1.7804964780807495 9.529069900512695 73 73 73
-1.1979256868362427 -3.908172607421875 8.786174774169922 57 57 57
-1.2034151554107666 2.5244297981262207 8.921656608581543 62 62 62
-1.2424200773239136 1.418099045753479 9.23349666595459 42 42 42
-1.2181284427642822 1.7018057107925415 9.119918823242188 13 13 13
-1.2349896430969238 2.086437463760376 9.334274291992188 102 102 102
-1.17237389087677 -3.9549448490142822 8.745089530944824 48 48 48
-1.2575230598449707 0.24638964235782623 9.597286224365234 255 255 255
-1.1760481595993042 3.386667490005493 9.213617324829102 70 70 70
-1.1838977336883545 2.756591558456421 9.421361923217773 40 40 40
-1.165332317352295 2.273151159286499 9.290773391723633 119 119 119
-1.1662589311599731 2.083000898361206 9.325501441955566 46 46 46
-1.1461479663848877 2.378709316253662 9.288637161254883 40 40 40
-1.1526260375976562 2.5886287689208984 9.361875534057617 47 47 47
-1.0942801237106323 -3.3471059799194336 8.886432647705078 71 71 71
-1.0942801237106323 -3.3471059799194336 8.886432647705078 71 71 71
-1.1041549444198608 1.7090914249420166 9.290704727172852 16 16 16
-1.116874098777771 2.9899401664733887 9.440608978271484 43 43 43
-0.7487795948982239 3.7190937995910645 6.503665924072266 65 65 65
-1.0658732652664185 1.2750650644302368 9.31329345703125 43 43 43
-1.0490663051605225 1.3975988626480103 9.24036979675293 51 51 51
-1.0617797374725342 2.7494287490844727 9.425929069519043 15 15 15
-0.9815030097961426 -3.5802621841430664 8.678919792175293 65 65 65
-1.0511847734451294 1.220329999923706 9.313542366027832 65 65 65
-1.0461572408676147 1.8299171924591064 9.35067081451416 122 122 122
-1.0501737594604492 2.705005645751953 9.483604431152344 46 46 46
-1.0040453672409058 -4.280651092529297 9.155435562133789 72 72 72
-1.0285934209823608 -1.6863524913787842 9.572279930114746 255 255 255
-0.9956561923027039 1.0112847089767456 9.28287124633789 45 45 45
-0.9764243960380554 0.9952558875083923 9.108288764953613 45 45 45
-0.9249456524848938 3.3395397663116455 8.825434684753418 82 82 82
-1.042478084564209 0.7390720248222351 9.984698295593262 63 63 63
-0.9606425762176514 1.6750599145889282 9.425055503845215 38 38 38
-0.9180483818054199 -2.7849814891815186 9.015753746032715 103 103 103
-0.9529621005058289 2.572669267654419 9.494949340820312 52 52 52
-0.948377788066864 2.3186230659484863 9.4749116897583 55 55 55
-0.9421005249023438 2.9778459072113037 9.455355644226074 41 41 41
-0.936494767665863 1.8912400007247925 9.456033706665039 57 57 57
-0.9207951426506042 3.3822877407073975 9.391343116760254 55 55 55
-0.9015941619873047 2.3718109130859375 9.370560646057129 51 51 51
-0.836463451385498 1.8415968418121338 9.531023025512695 99 99 99
-0.7722641825675964 0.9539475440979004 9.184624671936035 65 65 65
-0.7392730116844177 1.2451708316802979 9.446365356445312 65 65 65
-0.700857400894165 -3.2399802207946777 9.015242576599121 72 72 72
-0.7504402995109558 3.4151031970977783 9.74252986907959 87 87 87
-0.6939986944198608 -2.9567227363586426 9.268657684326172 78 78 78
-0.6988595128059387 -2.0679666996002197 9.464677810668945 225 225 225
-0.7601096630096436 -1.6935091018676758 10.311800956726074 251 251 251
-0.7601096630096436 -1.6935091018676758 10.311800956726074 251 251 251
-0.6893407106399536 -2.8709778785705566 9.403496742248535 97 97 97
-0.672448456287384 1.8409086465835571 9.596491813659668 100 100 100
-0.6622760891914368 0.7793111801147461 9.498157501220703 106 106 106
-0.6269848942756653 -2.8548429012298584 9.288363456726074 91 91 91
-0.6339580416679382 2.070082902908325 9.595135688781738 79 79 79
-0.6282593607902527 1.8713386058807373 9.59620189666748 64 64 64
-0.5988383889198303 -3.2429559230804443 9.261865615844727 82 82 82
-0.6468203663825989 1.6269170045852661 9.94017505645752 157 157 157
-0.6092373728752136 1.8792459964752197 9.63945198059082 82 82 82
-0.6380518078804016 -2.3701000213623047 10.089207649230957 225 225 225
-0.6037908792495728 1.0244320631027222 9.490094184875488 86 86 86
-0.6037908792495728 1.0244320631027222 9.490094184875488 86 86 86
-0.5825973153114319 1.2783193588256836 9.542221069335938 52 52 52
-0.5501297116279602 -2.8160934448242188 9.474193572998047 45 45 45
-0.4940511882305145 0.9935301542282104 9.627005577087402 59 59 59
-0.49031275510787964 1.5138472318649292 9.706893920898438 44 44 44
-0.49031275510787964 1.5138472318649292 9.706893920898438 44 44 44
-0.4598552882671356 -3.4148154258728027 9.158611297607422 64 64 64
-0.4663967788219452 1.1622111797332764 9.848554611206055 33 33 33
-0.4663967788219452 1.1622111797332764 9.848554611206055 33 33 33
-0.40705856680870056 -3.308633327484131 9.206206321716309 60 60 60
-0.41319888830184937 1.0776219367980957 9.565457344055176 93 93 93
-0.41115349531173706 2.147526502609253 9.782410621643066 47 47 47
-0.3984944522380829 2.015791416168213 9.790645599365234 60 60 60
-0.3372316062450409 2.844449996948242 9.10593032836914 92 92 92
-0.36100393533706665 1.6811362504959106 9.723210334777832 28 28 28
-0.3515077233314514 1.6626759767532349 9.757094383239746 76 76 76
-0.39092719554901123 1.993575930595398 10.012548446655273 3 3 3
-0.24910899996757507 2.824599504470825 8.452543258666992 113 113 113
-0.3125617504119873 1.7765896320343018 9.807339668273926 60 60 60
-0.2965134382247925 2.0342812538146973 9.805902481079102 56 56 56
-0.26257070899009705 3.011228322982788 9.054240226745605 147 147 147
-0.26984378695487976 -3.3872687816619873 9.564733505249023 72 72 72
-0.2611609101295471 0.9671986699104309 9.791241645812988 104 104 104
-0.23105691373348236 2.956735610961914 9.093687057495117 44 44 44
-0.23105691373348236 2.956735610961914 9.093687057495117 44 44 44
-0.23942755162715912 2.6740851402282715 9.267449378967285 194 194 194
-0.23268327116966248 2.0904998779296875 10.214570045471191 83 83 83
-0.19813431799411774 -3.2438206672668457 9.436836242675781 57 57 57
-0.15949594974517822 -2.563154935836792 9.427237510681152 25 25 25
-0.18342332541942596 2.795623540878296 8.945662498474121 121 121 121
-0.176339790225029 0.6917943358421326 10.191662788391113 54 54 54
-0.16778700053691864 -2.7009005546569824 9.915570259094238 25 25 25
-0.10630791634321213 3.594374418258667 7.569823741912842 71 71 71
-0.11707288771867752 -0.7729105949401855 9.926466941833496 49 49 49
-0.07131624966859818 3.6728134155273438 7.108457565307617 98 98 98
-0.1482190042734146 0.9562283754348755 10.321330070495605 141 141 141
-0.08173426240682602 -3.667767286300659 9.186511993408203 31 31 31
-0.07330156117677689 1.4326106309890747 9.906246185302734 20 20 20
-0.07330156117677689 1.4326106309890747 9.906246185302734 20 20 20
-0.05900338664650917 2.9646506309509277 8.991225242614746 13 13 13
-0.046769630163908005 -0.5564373731613159 10.270816802978516 60 60 60
-0.020304635167121887 -3.761601686477661 9.413329124450684 37 37 37
-0.020304635167121887 -3.761601686477661 9.413329124450684 37 37 37
-0.02257629483938217 -0.8179042935371399 10.21674919128418 2 2 2
-0.015752334147691727 -3.448906898498535 9.45958423614502 52 52 52
-0.013998809270560741 -2.277247428894043 9.82006549835205 25 25 25
-0.007091599516570568 1.8350248336791992 9.949828147888184 38 38 38
-0.021852273494005203 0.31165429949760437 9.907880783081055 95 95 95
-0.006122186779975891 1.023861050605774 9.740628242492676 61 61 61
-0.0047850762493908405 -2.8322324752807617 9.558632850646973 65 65 65
0.0059316460974514484 -0.9833945035934448 9.906646728515625 77 77 77
0.006523629184812307 1.408178448677063 9.887404441833496 26 26 26
0.006523629184812307 1.408178448677063 9.887404441833496 26 26 26
0.018372373655438423 -1.450149416923523 9.846319198608398 60 60 60
0.03479385748505592 -2.300936222076416 9.871371269226074 26 26 26
0.03469809889793396 -2.643200635910034 9.789344787597656 47 47 47
0.04590770602226257 0.5437849760055542 10.070112228393555 57 57 57
0.045202724635601044 1.2417106628417969 9.841208457946777 67 67 67
0.05432609096169472 -2.9736902713775635 9.594230651855469 54 54 54
0.07222045212984085 3.064849376678467 9.517528533935547 35 35 35
0.0747145563364029 0.8194331526756287 9.897318840026855 77 77 77
0.07858163118362427 1.7344340085983276 9.940498352050781 14 14 14
0.11017029732465744 2.503135919570923 9.127643585205078 206 206 206
0.07824293524026871 -0.14691054821014404 9.836222648620605 76 76 76
0.07606635987758636 2.974594831466675 9.392388343811035 34 34 34
0.08749625086784363 1.480953574180603 9.894301414489746 20 20 20
0.09869743138551712 -4.370431900024414 9.75461196899414 62 62 62
0.10206696391105652 -2.7543351650238037 9.659703254699707 75 75 75
0.11217213422060013 -0.4131595492362976 9.725611686706543 83 83 83
0.11061715334653854 2.505993127822876 9.132425308227539 206 206 206
0.11583304405212402 -1.6885815858840942 9.685226440429688 108 108 108
0.12763525545597076 -2.208106756210327 9.631316184997559 125 125 125
0.13112971186637878 -1.904251217842102 9.600001335144043 136 136 136
0.17211247980594635 0.7177255153656006 9.917247772216797 40 40 40
0.1422894299030304 0.2776179313659668 9.761175155639648 71 71 71
0.14980605244636536 -2.697669744491577 9.61124038696289 80 80 80
0.15662561357021332 -0.9054822325706482 9.703556060791016 77 77 77
0.1720067858695984 0.7178187966346741 9.918601989746094 40 40 40
0.15807245671749115 -1.2294288873672485 9.64344596862793 83 83 83
0.16450564563274384 3.3693268299102783 9.60763168334961 15 15 15
0.2268018126487732 1.6093237400054932 9.721427917480469 44 44 44
0.2229645550251007 -2.1528549194335938 9.442915916442871 135 135 135
0.14819222688674927 3.7572696208953857 6.695412635803223 97 97 97
0.23200970888137817 3.3576765060424805 9.762815475463867 45 45 45
0.17970547080039978 3.5498158931732178 7.698275089263916 86 86 86
0.20096734166145325 -1.7852058410644531 9.523674011230469 34 34 34
0.20096734166145325 -1.7852058410644531 9.523674011230469 34 34 34
0.20096734166145325 -1.7852058410644531 9.523674011230469 34 34 34
0.2446194440126419 -3.205338716506958 9.337839126586914 61 61 61
0.2585303485393524 3.412534713745117 9.58505916595459 90 90 90
0.26110148429870605 0.11652898788452148 9.714683532714844 98 98 98
0.26852813363075256 1.8254013061523438 9.594953536987305 46 46 46
0.28087809681892395 1.0982484817504883 9.593734741210938 54 54 54
0.28889933228492737 -1.6196340322494507 9.306072235107422 106 106 106
0.28889933228492737 -1.6196340322494507 9.306072235107422 106 106 106
0.30444321036338806 -0.571938693523407 9.415154457092285 121 121 121
0.31185975670814514 -2.422231435775757 9.297711372375488 107 107 107
0.3434550166130066 -2.2983036041259766 9.302175521850586 74 74 74
0.3536517918109894 -1.331566572189331 9.217826843261719 161 161 161
0.36465421319007874 1.61332106590271 9.418556213378906 61 61 61
0.36465421319007874 1.61332106590271 9.418556213378906 61 61 61
0.25967851281166077 3.726262092590332 6.2580766677856445 71 71 71
0.39698806405067444 0.24472102522850037 9.478133201599121 180 180 180
0.38129374384880066 -1.9548534154891968 9.203309059143066 111 111 111
0.38994017243385315 -2.593647003173828 9.0906400680542 85 85 85
0.4182239770889282 1.3928991556167603 9.33593463897705 63 63 63
0.40528663992881775 -2.4012651443481445 9.039323806762695 100 100 100
0.40528663992881775 -2.4012651443481445 9.039323806762695 100 100 100
0.4216204285621643 1.8297773599624634 9.321102142333984 55 55 55
0.4311962127685547 -0.7100295424461365 9.431434631347656 128 128 128
0.4209194779396057 0.8856332898139954 9.151908874511719 120 120 120
0.30929264426231384 3.747976303100586 6.172237873077393 66 66 66
0.45931944251060486 -3.5546250343322754 8.907288551330566 81 81 81
0.46129855513572693 -3.569171905517578 8.910592079162598 79 79 79
0.46129855513572693 -3.569171905517578 8.910592079162598 79 79 79
0.5040395855903625 -1.033875584602356 9.051615715026855 125 125 125
0.5059505701065063 -3.6111087799072266 8.778218269348145 87 87 87
0.5228901505470276 -0.06827852874994278 8.96489429473877 117 117 117
0.5244148969650269 -0.0700298473238945 8.926867485046387 117 117 117
0.3873426914215088 3.715674877166748 6.553206443786621 61 61 61
0.5534232258796692 -1.5165553092956543 9.1016845703125 13 13 13
0.5516897439956665 0.39844444394111633 8.964707374572754 138 138 138
0.5578698515892029 0.5704811215400696 8.881731033325195 148 148 148
0.5444763898849487 -3.662086248397827 8.661592483520508 75 75 75
0.514748752117157 3.593841314315796 7.900523662567139 62 62 62
0.5865626931190491 0.1551276445388794 9.038983345031738 72 72 72
0.5865626931190491 0.1551276445388794 9.038983345031738 72 72 72
0.5989314317703247 -2.7804224491119385 8.715335845947266 24 24 24
0.5879257321357727 1.148293375968933 8.903365135192871 94 94 94
0.5864042639732361 -2.1540768146514893 8.720925331115723 100 100 100
0.6023494601249695 1.182055950164795 8.938600540161133 94 94 94
0.5871254801750183 -3.6387977600097656 8.624950408935547 46 46 46
0.5328505635261536 3.5387461185455322 7.645735740661621 129 129 129
0.6178568601608276 3.3298182487487793 9.486323356628418 46 46 46
0.6242022514343262 1.6644841432571411 8.893915176391602 70 70 70
0.6416254639625549 0.08889265358448029 8.768485069274902 152 152 152
0.6416254639625549 0.08889265358448029 8.768485069274902 152 152 152
0.65703284740448 0.22346633672714233 8.784651756286621 146 146 146
0.6623244285583496 -0.10761997103691101 8.677172660827637 123 123 123
0.6752768158912659 1.4574168920516968 8.751697540283203 104 104 104
0.6991802453994751 -1.8958255052566528 8.832297325134277 117 117 117
0.6991802453994751 -1.8958255052566528 8.832297325134277 117 117 117
0.6832982897758484 0.5237900018692017 8.577837944030762 75 75 75
0.7300737500190735 1.36867356300354 8.623458862304688 105 105 105
0.7123252153396606 -1.771196722984314 8.810746192932129 69 69 69
0.7170472145080566 -0.03926360234618187 8.631338119506836 118 118 118
0.7628012895584106 3.1159348487854004 8.923150062561035 41 41 41
0.7184869050979614 -1.7204103469848633 8.543662071228027 50 50 50
0.7400753498077393 -0.7727287411689758 8.464584350585938 98 98 98
0.785724401473999 2.787775754928589 8.661861419677734 68 68 68
0.7366697192192078 -3.2823736667633057 8.189699172973633 89 89 89
0.7852873802185059 0.40647754073143005 8.482470512390137 71 71 71
0.8078795671463013 0.0643337145447731 8.233894348144531 10 10 10
0.8321883678436279 0.8850861191749573 8.126553535461426 39 39 39
0.7894547581672668 -2.391585111618042 8.018787384033203 45 45 45
0.8365644812583923 1.9854226112365723 8.485620498657227 76 76 76
0.8575412034988403 2.10552716255188 8.587687492370605 22 22 22
0.8317558765411377 -2.3485591411590576 8.252241134643555 131 131 131
0.8649340867996216 1.5429303646087646 8.312220573425293 82 82 82
0.8688062429428101 1.848425269126892 8.481033325195312 23 23 23
0.9168166518211365 3.2266013622283936 8.822704315185547 55 55 55
0.8657702803611755 0.19812248647212982 8.332344055175781 93 93 93
0.8821343183517456 -3.4819602966308594 8.032709121704102 88 88 88
0.8839021325111389 0.06890860199928284 8.038084983825684 4 4 4
0.8918542861938477 -2.2028870582580566 8.11823844909668 34 34 34
0.9211767315864563 -2.5159034729003906 8.227603912353516 47 47 47
0.9211767315864563 -2.5159034729003906 8.227603912353516 47 47 47
0.9397181868553162 -2.7490625381469727 8.046945571899414 72 72 72
0.9516618847846985 0.4732600152492523 8.218183517456055 95 95 95
0.9619464874267578 1.4551194906234741 8.27271842956543 102 102 102
0.9535856246948242 -1.1753606796264648 8.151963233947754 6 6 6
0.9606682062149048 1.1755690574645996 8.193761825561523 64 64 64
0.9597084522247314 -0.0394102968275547 8.162497520446777 97 97 97
0.958639919757843 -0.5254287719726562 8.135055541992188 107 107 107
0.9821048378944397 3.133101463317871 8.283360481262207 46 46 46
0.9520829319953918 -3.726317882537842 7.950852394104004 32 32 32
0.9862526655197144 2.5511677265167236 8.253988265991211 78 78 78
1.0107139348983765 2.4584555625915527 8.233777046203613 101 101 101
0.990897536277771 2.2556073665618896 8.179068565368652 66 66 66
0.9748165607452393 -1.5512412786483765 7.988986968994141 151 151 151
0.9780110716819763 -3.335200309753418 8.007905006408691 109 109 109
0.9701217412948608 -2.6005795001983643 7.924976348876953 144 144 144
0.9795374274253845 -2.078545331954956 7.990795612335205 150 150 150
0.9826161861419678 -1.8009727001190186 7.919631004333496 121 121 121
1.0335739850997925 3.523564577102661 8.306635856628418 78 78 78
1.0319794416427612 2.9848742485046387 8.25748348236084 34 34 34
0.9935065507888794 -2.6118366718292236 7.9232354164123535 147 147 147
1.0187880992889404 3.286611795425415 8.138091087341309 28 28 28
0.950093150138855 -1.5838329792022705 7.5511627197265625 59 59 59
1.014102816581726 -1.45372474193573 7.887053489685059 123 123 123
1.014288306236267 -2.6644866466522217 7.858686447143555 142 142 142
1.014288306236267 -2.6644866466522217 7.858686447143555 142 142 142
1.0150543451309204 -2.3210339546203613 7.845154285430908 124 124 124
0.9543942809104919 3.666517972946167 7.338776111602783 182 182 182
1.0659468173980713 1.9580222368240356 8.17746353149414 40 40 40
1.027514934539795 -2.659616470336914 7.626811504364014 53 53 53
1.0360620021820068 -1.9117354154586792 7.738945484161377 28 28 28
1.0554953813552856 -3.8984086513519287 7.621150970458984 63 63 63
1.1568161249160767 2.024855375289917 8.259527206420898 43 43 43
1.1603147983551025 1.4934282302856445 8.277405738830566 45 45 45
1.1492969989776611 0.9757288694381714 8.178682327270508 45 45 45
1.1498420238494873 0.46972888708114624 8.123080253601074 41 41 41
1.1557133197784424 -0.5114393830299377 8.061135292053223 61 61 61
1.1711329221725464 0.762525737285614 8.073806762695312 64 64 64
1.214189052581787 1.2010859251022339 8.326336860656738 68 68 68
1.1644978523254395 -1.4824135303497314 8.00389289855957 85 85 85
1.164583444595337 -1.6753532886505127 7.979567050933838 8 8 8
1.1736034154891968 -2.412281036376953 7.9895172119140625 97 97 97
1.1282075643539429 -3.58148455619812 7.58826208114624 92 92 92
1.1756101846694946 -2.5586564540863037 7.8526763916015625 83 83 83
1.2381147146224976 -0.27640947699546814 7.805349826812744 61 61 61
1.0788319110870361 3.694309711456299 6.943362712860107 37 37 37
1.267183542251587 -0.3393099308013916 8.122485160827637 101 101 101
1.2937893867492676 -1.1982953548431396 8.10287094116211 47 47 47
1.2937893867492676 -1.1982953548431396 8.10287094116211 47 47 47
1.268341064453125 -2.5831100940704346 8.083526611328125 93 93 93
1.3309624195098877 2.7789688110351562 8.299348831176758 78 78 78
1.3017991781234741 3.2657697200775146 8.366829872131348 49 49 49
1.1983304023742676 -3.651540756225586 7.4716267585754395 131 131 131
1.3172423839569092 3.53989315032959 8.195039749145508 73 73 73
1.279887318611145 -2.718437671661377 7.941248416900635 20 20 20
1.3646169900894165 1.0408614873886108 8.186030387878418 86 86 86
1.2368640899658203 -2.7825000286102295 7.500040531158447 129 129 129
1.3631211519241333 -0.6913188695907593 8.025774955749512 190 190 190
1.3166813850402832 3.639025926589966 7.869043350219727 55 55 55
1.4146969318389893 3.6074347496032715 8.492652893066406 67 67 67
1.4190627336502075 3.465045213699341 8.290212631225586 45 45 45
1.2824779748916626 -3.808804750442505 7.674119472503662 26 26 26
1.3610018491744995 -2.5037841796875 7.911702632904053 149 149 149
1.2663333415985107 -3.84451961517334 7.328619956970215 79 79 79
1.1533199548721313 3.7228167057037354 6.568881034851074 203 203 203
1.2730698585510254 -3.994699478149414 7.283562183380127 70 70 70
1.3063386678695679 -3.569868326187134 7.334549903869629 99 99 99
1.4886682033538818 2.3146207332611084 8.405835151672363 108 108 108
1.1657299995422363 3.738694429397583 6.426103591918945 71 71 71
1.3148367404937744 -3.8897202014923096 7.222991466522217 95 95 95
1.3431329727172852 -2.989593505859375 7.215608596801758 131 131 131
1.468765377998352 -2.49524188041687 7.888845443725586 32 32 32
1.3850840330123901 -2.747260093688965 7.423101902008057 55 55 55
1.6015093326568604 3.636183023452759 8.568620681762695 77 77 77
1.3788262605667114 -2.715000629425049 7.3304924964904785 52 52 52
1.4035378694534302 -3.7352912425994873 7.21301794052124 36 36 36
1.378944754600525 -3.5275840759277344 7.036285400390625 94 94 94
1.3947197198867798 -3.919503927230835 6.964605808258057 43 43 43
1.5505027770996094 3.684358835220337 7.93412446975708 76 76 76
1.6252232789993286 -2.715384006500244 8.139026641845703 48 48 48
1.443935513496399 -2.4910500049591064 7.167552471160889 60 60 60
1.472636103630066 -2.7386629581451416 7.220171928405762 47 47 47
1.958371877670288 3.716085910797119 9.02467155456543 60 60 60
1.6176784038543701 -2.525651454925537 7.310935020446777 40 40 40
1.5295404195785522 -3.414172887802124 6.919380187988281 5 5 5
1.9348357915878296 3.504967212677002 8.450024604797363 75 75 75
1.5570156574249268 -3.6268322467803955 6.7676777839660645 130 130 130
1.5878649950027466 -2.9995534420013428 6.867000579833984 137 137 137
1.7270134687423706 -2.7077391147613525 7.386626720428467 47 47 47
2.0346839427948 3.6324703693389893 8.601226806640625 55 55 55
2.0302278995513916 3.5808537006378174 8.257977485656738 55 55 55
2.004704713821411 3.6344733238220215 8.130586624145508 68 68 68
1.7131142616271973 -3.9498956203460693 6.729148864746094 67 67 67
1.782637357711792 -2.610952377319336 6.786111354827881 64 64 64
1.7131105661392212 -2.9769694805145264 6.589638710021973 137 137 137
1.7131105661392212 -2.9769694805145264 6.589638710021973 137 137 137
2.0518245697021484 3.648681163787842 7.865501403808594 57 57 57
1.8437283039093018 -2.646975517272949 6.955552577972412 41 41 41
2.1942026615142822 3.6197938919067383 8.103979110717773 73 73 73
1.7460253238677979 -3.6326804161071777 6.384923934936523 42 42 42
1.950758695602417 -2.59489369392395 6.7113165855407715 66 66 66
2.256737470626831 3.607773780822754 7.876674175262451 68 68 68
1.829676628112793 -3.2911813259124756 6.328968048095703 134 134 134
1.8252475261688232 -3.5083580017089844 6.25637674331665 110 110 110
1.9367073774337769 -2.657674789428711 6.545809268951416 33 33 33
1.875218152999878 -3.789757251739502 6.218904972076416 103 103 103
1.9754798412322998 -2.549893856048584 6.512602806091309 58 58 58
2.0183539390563965 -2.49855375289917 6.665804862976074 57 57 57
1.8864227533340454 -3.706066370010376 6.160545825958252 130 130 130
1.911340594291687 -3.655256748199463 6.154036521911621 30 30 30
1.9333540201187134 -3.0192127227783203 6.188879489898682 140 140 140
1.9685591459274292 -2.753796339035034 6.193542957305908 141 141 141
2.134892702102661 -2.754751682281494 6.6956586837768555 60 60 60
2.084632396697998 -2.6634838581085205 6.353349685668945 31 31 31
1.9961594343185425 -2.519192934036255 5.993418216705322 34 34 34
2.0094387531280518 -3.357083320617676 6.008056640625 121 121 121
2.599299430847168 -1.0727442502975464 7.318150043487549 181 181 181
2.599299430847168 -1.0727442502975464 7.318150043487549 181 181 181
2.6230552196502686 3.7232275009155273 7.300488471984863 48 48 48
2.6477370262145996 -1.1617597341537476 7.293400764465332 40 40 40
2.6477370262145996 -1.1617597341537476 7.293400764465332 40 40 40
2.3149666786193848 3.6263115406036377 6.346595287322998 115 115 115
2.149355411529541 -2.6713881492614746 5.862062454223633 157 157 157
2.308067798614502 -2.6623313426971436 6.333838939666748 44 44 44
2.6097865104675293 -1.2219382524490356 7.133304595947266 29 29 29
2.1546273231506348 -2.730123519897461 5.833089828491211 38 38 38
2.1546273231506348 -2.730123519897461 5.833089828491211 38 38 38
2.6558072566986084 -1.1221922636032104 7.182366847991943 151 151 151
2.169267177581787 -2.6769862174987793 5.798353672027588 133 133 133
2.19510817527771 -2.5863630771636963 5.816516876220703 36 36 36
2.7152743339538574 -1.1899168491363525 7.092455863952637 155 155 155
2.7152743339538574 -1.1899168491363525 7.092455863952637 155 155 155
2.745347023010254 -1.0837925672531128 7.089447021484375 31 31 31
2.745347023010254 -1.0837925672531128 7.089447021484375 31 31 31
2.7161865234375 -1.1464630365371704 7.004207611083984 27 27 27
2.747173547744751 -1.209598183631897 7.059729099273682 32 32 32
2.7616236209869385 -1.126625418663025 7.036962032318115 153 153 153
2.3513388633728027 -2.646726131439209 5.971798896789551 52 52 52
2.357893705368042 -2.6778132915496826 5.945466995239258 22 22 22
2.7717466354370117 -1.154292345046997 6.9768524169921875 28 28 28
2.792443037033081 -1.2275930643081665 6.969524383544922 6 6 6
2.2846882343292236 -2.8716535568237305 5.560544013977051 5 5 5
2.49322247505188 -2.6982533931732178 5.923625469207764 50 50 50
2.327798366546631 -2.70112681388855 5.436244487762451 125 125 125
2.5144693851470947 -2.6390912532806396 5.668949127197266 52 52 52
2.4624061584472656 -1.2299002408981323 5.2906622886657715 150 150 150
2.515806198120117 -0.45635348558425903 5.35076904296875 85 85 85
2.5062899589538574 -0.20390908420085907 5.401544094085693 124 124 124
2.5134406089782715 0.6011343598365784 5.37235689163208 4 4 4
2.5158092975616455 -0.4563603401184082 5.350776672363281 85 85 85
2.5102336406707764 -0.9984142184257507 5.335962772369385 110 110 110
2.473451614379883 -1.829535961151123 5.259445667266846 86 86 86
2.4734714031219482 -1.8295444250106812 5.259488582611084 86 86 86
2.512434482574463 -1.2736623287200928 5.323547840118408 7 7 7
2.450792074203491 -1.8416178226470947 5.083085060119629 130 130 130
2.501842737197876 -2.692060947418213 5.13645601272583 104 104 104
-1.4418469667434692 -2.4016151428222656 9.111919403076172 69 69 69
1.2940443754196167 -1.705846905708313 8.069621086120605 178 178 178
0.05115606263279915 3.5791451930999756 7.270474433898926 176 176 176
-0.3467538058757782 2.5383424758911133 9.745687484741211 8 8 8
-0.43136337399482727 -2.5207719802856445 9.98244857788086 48 48 48
-2.4545438289642334 -0.605630099773407 8.239137649536133 68 68 68
1.2927255630493164 -0.6665405631065369 8.132253646850586 117 117 117
-3.5622305870056152 -0.11050686985254288 9.658028602600098 3 3 3
-2.8807406425476074 -0.31254225969314575 10.2356538772583 211 211 211
-1.477906584739685 0.4583163261413574 9.382841110229492 64 64 64
0.7328251004219055 0.055429037660360336 8.725666046142578 221 221 221
1.0256403684616089 -0.9108870625495911 8.033440589904785 2 2 2
1.3557367324829102 -2.5635740756988525 7.913620948791504 118 118 118
-3.148409843444824 0.6274186372756958 8.558146476745605 36 36 36
1.7762526273727417 -2.7042598724365234 6.528127193450928 85 85 85
1.2937860488891602 -1.1982989311218262 8.102869033813477 47 47 47
1.0484460592269897 -2.2208752632141113 7.919994831085205 2 2 2
-2.929553985595703 -0.31287863850593567 10.409858703613281 211 211 211
-2.485811233520508 -0.3113076686859131 10.65310287475586 249 249 249
-1.3026193380355835 1.9925707578659058 9.283271789550781 41 41 41
-3.565898895263672 -2.370997428894043 8.330545425415039 116 116 116
1.022156000137329 0.8521766662597656 8.049009323120117 184 184 184
-3.566290855407715 -2.3712284564971924 8.33138656616211 116 116 116
-2.6625864505767822 0.18656285107135773 10.248353958129883 175 175 175
1.2881804704666138 -2.7348833084106445 7.385150909423828 106 106 106
1.9005059003829956 -2.679821491241455 6.26843786239624 45 45 45
-2.3729398250579834 -0.6109153032302856 7.861550331115723 248 248 248
2.6511552333831787 -1.0821317434310913 7.220132827758789 27 27 27
1.023614525794983 -1.430005431175232 7.940513610839844 186 186 186
-2.9339797496795654 -0.2983766496181488 10.665031433105469 248 248 248
-3.586961507797241 0.09421297162771225 9.988648414611816 56 56 56
-0.13248370587825775 2.947219133377075 9.051656723022461 74 74 74
2.79250431060791 -1.227632761001587 6.969766616821289 6 6 6
2.6547982692718506 -1.094241738319397 7.210770606994629 10 10 10
2.645859479904175 -1.0963332653045654 7.22481107711792 4 4 4
2.7475905418395996 -1.2417690753936768 7.042782306671143 36 36 36
-2.5614967346191406 -0.29616686701774597 10.882007598876953 4 4 4
-1.9420610666275024 2.262007236480713 9.033635139465332 25 25 25
-3.202263355255127 -0.6415746212005615 10.083959579467773 250 250 250
2.792431592941284 -1.2275888919830322 6.969483375549316 6 6 6
2.622850179672241 -1.108171820640564 7.258690357208252 220 220 220
2.69238018989563 -1.2528687715530396 7.112090110778809 194 194 194
-2.83363676071167 -2.5250394344329834 8.105031967163086 177 177 177
1.5356066226959229 -2.743868827819824 7.020509719848633 97 97 97
2.7925069332122803 -1.227631688117981 6.969759941101074 6 6 6
0.5040008425712585 -1.2084745168685913 8.816099166870117 1 1 1
-2.238440990447998 2.032799243927002 8.92879867553711 54 54 54
0.9153298139572144 -1.4944593906402588 8.564396858215332 7 7 7
1.2865546941757202 -1.4399082660675049 8.054178237915039 187 187 187
2.6962804794311523 -1.2555352449417114 7.122499942779541 194 194 194
2.6962637901306152 -1.2555214166641235 7.122469902038574 194 194 194
1.3557389974594116 -2.5635826587677 7.913659572601318 118 118 118
2.67956280708313 -1.2128827571868896 7.211558818817139 130 130 130
-1.6070342063903809 1.9870837926864624 9.114418029785156 82 82 82
2.793874740600586 -1.2322288751602173 7.134844779968262 233 233 233
1.4051395654678345 -2.7267024517059326 7.170900821685791 112 112 112
-2.899033546447754 -0.28525543212890625 10.541332244873047 248 248 248
2.59382700920105 -1.2403161525726318 7.247110366821289 43 43 43
-3.1891744136810303 -1.1000970602035522 8.519959449768066 125 125 125
1.52376389503479 3.6649186611175537 7.051550388336182 168 168 168
2.506525993347168 -0.20394207537174225 5.402296543121338 124 124 124
2.810084342956543 -1.0877366065979004 7.158299446105957 26 26 26
0.674349308013916 -0.9615551233291626 8.690082550048828 51 51 51
2.1428020000457764 -2.659970760345459 5.8327226638793945 83 83 83
2.733896493911743 -1.1223424673080444 7.096268653869629 141 141 141
2.615720272064209 -1.1209651231765747 7.297094821929932 19 19 19
2.5936946868896484 -1.2402206659317017 7.2466816902160645 43 43 43
2.679546594619751 -1.2128714323043823 7.211493492126465 130 130 130
2.817554473876953 -1.2231007814407349 7.263228893280029 37 37 37
0.6102423667907715 0.02548018842935562 8.537369728088379 15 15 15
0.20110148191452026 -1.784901738166809 9.521782875061035 34 34 34
1.3672966957092285 -2.7681846618652344 7.360367298126221 91 91 91
2.7692012786865234 -1.1949070692062378 7.089259147644043 250 250 250
2.7882261276245117 -1.1816092729568481 7.031911849975586 5 5 5
-2.581793785095215 0.023359768092632294 10.490065574645996 209 209 209
2.6810855865478516 -1.1984326839447021 7.149721145629883 219 219 219
2.78105092048645 -1.1702789068222046 6.980084419250488 5 5 5
-2.476017951965332 -0.025975076481699944 10.353287696838379 84 84 84
1.3672783374786377 -2.7681822776794434 7.360357761383057 91 91 91
-3.440337896347046 0.06947512179613113 10.260165214538574 136 136 136
2.6556074619293213 -1.2147642374038696 7.291727066040039 209 209 209
1.0684508085250854 -2.775885820388794 7.92798376083374 53 53 53
2.807047128677368 0.26616889238357544 6.85952091217041 5 5 5
-3.528782606124878 -0.008077455684542656 9.683837890625 228 228 228
-2.712414026260376 0.19845396280288696 10.441597938537598 243 243 243
2.7856268882751465 -1.1507900953292847 7.059938907623291 218 218 218
0.8898627758026123 0.8361814022064209 8.437467575073242 198 198 198
2.6795713901519775 -1.2128865718841553 7.211591720581055 130 130 130
-3.2915244102478027 -0.011712329462170601 9.94347095489502 249 249 249
-3.1290030479431152 -1.0585663318634033 10.151841163635254 248 248 248
-3.148206949234009 0.6274135708808899 8.557716369628906 36 36 36
-3.070500135421753 -0.6225646138191223 10.111198425292969 252 252 252
-1.4549987316131592 0.031078269705176353 9.30128288269043 254 254 254
-3.1134049892425537 -0.6427960991859436 10.155147552490234 254 254 254
-2.881138324737549 -2.523244619369507 8.112153053283691 47 47 47
0.6486072540283203 0.028270216658711433 8.83473014831543 24 24 24
1.886452078819275 -3.224926471710205 6.20225715637207 29 29 29
-2.4763803482055664 -0.025975434109568596 10.354683876037598 84 84 84
0.08016272634267807 1.1338950395584106 9.842201232910156 55 55 55
0.5970519781112671 0.26028308272361755 8.710883140563965 1 1 1
0.6726332902908325 1.4966713190078735 8.582140922546387 49 49 49
0.5970567464828491 0.2602798044681549 8.710761070251465 1 1 1
1.0348085165023804 -1.1554032564163208 7.967246055603027 162 162 162
1.195147156715393 3.6658332347869873 6.6749725341796875 191 191 191
0.8618566989898682 -1.0296103954315186 7.176666736602783 184 184 184
1.2951208353042603 -2.2431557178497314 8.067890167236328 2 2 2
1.2460896968841553 -1.9547826051712036 8.007534980773926 122 122 122
-2.886888027191162 -3.18206787109375 7.9694366455078125 24 24 24
1.283037781715393 -2.7226920127868652 7.356212615966797 106 106 106
0.8123455047607422 1.3082634210586548 8.570968627929688 1 1 1
1.0439560413360596 0.627662718296051 8.319710731506348 216 216 216
-1.2931166887283325 2.7417490482330322 9.30862045288086 110 110 110
1.27708101272583 -0.9044139981269836 8.060269355773926 132 132 132
-0.10413625091314316 3.6702024936676025 6.860935211181641 194 194 194
1.0222114324569702 0.8522284626960754 8.049171447753906 184 184 184
1.0017973184585571 0.5910519957542419 8.001127243041992 216 216 216
-2.7872467041015625 0.6369403004646301 9.19206428527832 206 206 206
2.7413628101348877 -1.0668089389801025 7.070913314819336 4 4 4
1.031293511390686 -1.399827241897583 7.940261363983154 203 203 203
1.085638403892517 -2.5370490550994873 8.113965034484863 195 195 195
-1.5880210399627686 2.252042770385742 9.175167083740234 1 1 1
0.6871445178985596 -2.807893753051758 8.669322967529297 49 49 49
1.9153887033462524 -3.369030237197876 6.137823104858398 22 22 22
2.681009531021118 -1.0825397968292236 6.899196147918701 214 214 214
1.2908345460891724 -1.1933701038360596 8.048004150390625 169 169 169
-2.634857416152954 0.6447031497955322 10.880456924438477 207 207 207
2.0294220447540283 -3.3763132095336914 5.97471809387207 87 87 87
2.8405439853668213 0.2717593014240265 6.974179744720459 12 12 12
2.522649049758911 3.668287992477417 7.758066654205322 42 42 42
0.6939286589622498 3.7129709720611572 6.619152069091797 194 194 194
-2.793419599533081 0.2619936466217041 10.261938095092773 152 152 152
2.7246642112731934 -1.0826077461242676 6.839686393737793 23 23 23
0.6820977330207825 -1.3690123558044434 8.023008346557617 0 0 0
-1.6760573387145996 2.0873501300811768 9.550371170043945 8 8 8
