ply
format ascii 1.0
element vertex 708
property float x
property float y
property float z
property uchar red
property uchar green
property uchar blue
end_header
-0.7990166544914246 -0.5790994167327881 3.738637924194336 51 51 51
-0.8753482699394226 0.10952666401863098 3.7607667446136475 59 59 59
-0.42296460270881653 1.018314003944397 4.349641799926758 0 0 0
0.48931238055229187 0.8714501857757568 4.013828754425049 97 97 97
-0.9345728754997253 -0.5376701951026917 3.5346546173095703 75 75 75
-0.7670657634735107 0.28937992453575134 3.881788730621338 223 223 223
-0.5091325044631958 0.21473394334316254 4.093042373657227 86 86 86
-0.7937265634536743 0.088655486702919 3.8247764110565186 31 31 31
-0.23891858756542206 0.33761683106422424 4.411977767944336 250 250 250
-0.23851267993450165 0.3374318480491638 4.405404090881348 250 250 250
-0.5295406579971313 -1.857344150543213 3.6659436225891113 96 96 96
-1.1428537368774414 1.683443307876587 3.7270779609680176 153 153 153
-1.1428592205047607 1.6834475994110107 3.727086305618286 153 153 153
-0.5379511713981628 -1.8350486755371094 3.675096035003662 136 136 136
-0.9448893666267395 0.9606542587280273 3.803246021270752 97 97 97
-0.5504506826400757 -1.810699462890625 3.652987241744995 16 16 16
0.3609420657157898 1.8850626945495605 4.270193099975586 19 19 19
0.8847899436950684 1.3183223009109497 3.7095985412597656 147 147 147
-0.8073233962059021 -1.3892325162887573 3.601475238800049 43 43 43
-1.0652834177017212 -0.017070529982447624 3.5140810012817383 37 37 37
-0.6231033205986023 -1.792981505393982 3.7016117572784424 39 39 39
-0.16551938652992249 -0.6700670719146729 4.393956184387207 0 0 0
1.2609831094741821 1.4709875583648682 3.3647985458374023 40 40 40
-0.9406326413154602 -0.5504270792007446 3.602047920227051 82 82 82
1.6237552165985107 0.032817866653203964 4.3823065757751465 168 168 168
1.208845615386963 1.4622783660888672 3.3822431564331055 2 2 2
-0.3207835257053375 -1.6465740203857422 4.183201313018799 45 45 45
-0.3432014584541321 -1.5893197059631348 4.056280612945557 19 19 19
1.0498719215393066 1.2806843519210815 3.515676975250244 136 136 136
0.8103218674659729 0.564419686794281 3.870492696762085 37 37 37
-0.3294743001461029 -1.6339855194091797 4.1312994956970215 2 2 2
-0.6406036615371704 0.7426838278770447 4.143319129943848 100 100 100
0.9821004867553711 -0.8005937933921814 3.5997812747955322 146 146 146
1.014650583267212 -1.092636227607727 3.5069212913513184 151 151 151
-0.4360514283180237 0.8586838841438293 4.258413791656494 22 22 22
-0.5848336815834045 0.7193426489830017 4.0759358406066895 2 2 2
0.31455403566360474 1.201443076133728 4.206058025360107 135 135 135
-0.532924234867096 -1.7294678688049316 3.7978382110595703 116 116 116
-0.2409139722585678 0.38847699761390686 4.494777202606201 62 62 62
-1.0185010433197021 -0.02538107894361019 3.65104079246521 67 67 67
-0.29155388474464417 -0.8126817941665649 4.239505290985107 23 23 23
-0.9827355146408081 -0.7525861263275146 3.654461145401001 57 57 57
-0.5780908465385437 0.7019248008728027 3.9969539642333984 20 20 20
-0.9516031742095947 -0.05367189645767212 3.684955358505249 107 107 107
-0.5934134125709534 1.2262052297592163 4.2510576248168945 82 82 82
1.3188129663467407 -0.6449252963066101 3.4373586177825928 178 178 178
-0.371328741312027 -0.30020537972450256 4.293846130371094 79 79 79
-0.5508415699005127 0.2272242307662964 4.134014129638672 42 42 42
-0.44556909799575806 -0.2928432822227478 4.103099346160889 21 21 21
-1.4511406421661377 0.6442839503288269 5.32239294052124 141 141 141
-0.8905073404312134 1.4339247941970825 3.8445205688476562 140 140 140
-0.4789358079433441 -0.07361585646867752 4.142526149749756 25 25 25
1.4286279678344727 -0.19423574209213257 4.273003578186035 133 133 133
0.17125360667705536 -1.6036715507507324 4.298158645629883 77 77 77
-0.9515945911407471 -0.053679075092077255 3.684947967529297 107 107 107
0.04824582859873772 0.7256814241409302 4.355454444885254 164 164 164
-0.44267043471336365 0.6891368627548218 4.202713966369629 133 133 133
-0.7994389533996582 -1.563693881034851 3.568988561630249 60 60 60
-1.0440480709075928 -0.8978009223937988 3.5252444744110107 177 177 177
-0.6353168487548828 -1.0912419557571411 3.8003926277160645 64 64 64
-1.0523115396499634 0.4733491539955139 3.729433298110962 34 34 34
0.8893166184425354 0.5283297300338745 3.8037068843841553 137 137 137
0.5240896344184875 1.2269119024276733 4.008228778839111 11 11 11
-0.761982262134552 1.275971531867981 4.0981764793396 1 1 1
-0.16681860387325287 0.6595032811164856 4.512235641479492 70 70 70
-0.8144382238388062 -0.06447625160217285 3.872363805770874 11 11 11
0.4165903627872467 -1.6850923299789429 3.8624281883239746 81 81 81
0.4886261522769928 1.0375983715057373 4.000953197479248 144 144 144
1.2015401124954224 -1.1466964483261108 3.3586647510528564 25 25 25
1.1622374057769775 -1.22964608669281 3.4245176315307617 6 6 6
-0.48347097635269165 0.5498505234718323 4.282806396484375 35 35 35
-0.7560351490974426 0.733481228351593 3.964252233505249 133 133 133
-0.605356752872467 0.39630576968193054 4.061152935028076 162 162 162
0.804279088973999 1.2072805166244507 3.7646000385284424 144 144 144
0.7410693168640137 1.2384624481201172 3.8142077922821045 20 20 20
-0.5769134759902954 0.3900526165962219 4.070343017578125 220 220 220
0.8159464597702026 0.4891371726989746 3.861903190612793 160 160 160
-0.54446941614151 0.21592675149440765 3.9499778747558594 2 2 2
-0.9969801902770996 1.0104740858078003 3.788334608078003 18 18 18
0.9926063418388367 0.909778356552124 3.5405614376068115 18 18 18
-0.6653017401695251 0.8725660443305969 3.8845250606536865 8 8 8
0.8481749892234802 1.3031710386276245 3.6954832077026367 114 114 114
1.0245752334594727 0.581243097782135 3.6872713565826416 126 126 126
0.7484216094017029 1.2139581441879272 3.802752733230591 124 124 124
-0.3352532684803009 -0.8407298922538757 4.2274909019470215 165 165 165
-0.61513751745224 -0.258498877286911 3.9896047115325928 69 69 69
-1.03669011592865 -0.264630526304245 3.496109962463379 169 169 169
0.6467028260231018 1.2296282052993774 3.8879096508026123 21 21 21
-0.9827213883399963 -0.03332097828388214 3.593085289001465 15 15 15
-0.47588232159614563 -0.2870664894580841 4.10959529876709 35 35 35
-0.5222484469413757 0.37658756971359253 4.1500163078308105 212 212 212
1.2636176347732544 0.635233461856842 3.502694606781006 97 97 97
-1.0125126838684082 -0.22818009555339813 3.554736375808716 127 127 127
1.066691279411316 -0.9065159559249878 3.5088605880737305 154 154 154
0.9833248853683472 0.47762107849121094 3.8352062702178955 165 165 165
0.8763628602027893 1.2816849946975708 3.7440803050994873 7 7 7
-0.9987244009971619 1.3182756900787354 3.849175453186035 15 15 15
1.425568699836731 -0.2922486364841461 4.287219524383545 144 144 144
1.2449547052383423 -0.778401255607605 3.360352039337158 143 143 143
-1.0033910274505615 1.3158313035964966 3.859717845916748 15 15 15
0.883094072341919 1.3252743482589722 3.8322510719299316 56 56 56
0.9762153029441833 1.251556396484375 3.589864730834961 123 123 123
-0.9315818548202515 0.4548161029815674 3.7520060539245605 97 97 97
1.0225915908813477 1.2794256210327148 3.5629756450653076 59 59 59
-0.6233494877815247 0.2022973895072937 4.0089111328125 50 50 50
-0.9116781949996948 0.45982426404953003 3.7570478916168213 175 175 175
1.4673938751220703 -0.26989009976387024 4.411414623260498 25 25 25
-0.5295180082321167 -1.8572121858596802 3.6657285690307617 96 96 96
-0.5241724252700806 -1.8386831283569336 3.713578701019287 124 124 124
-0.8848870992660522 1.2419081926345825 3.7546205520629883 182 182 182
-0.6333156228065491 -1.832733154296875 3.7095470428466797 34 34 34
0.7996445298194885 1.2319008111953735 3.7391250133514404 8 8 8
-0.34262484312057495 -1.9800626039505005 3.9858181476593018 167 167 167
-0.9183565378189087 1.2786736488342285 3.887190580368042 160 160 160
1.4673912525177002 -0.2698906660079956 4.411402225494385 25 25 25
1.4464572668075562 -0.20877964794635773 4.361988067626953 8 8 8
-0.9130281209945679 1.4432940483093262 3.846013307571411 0 0 0
-0.9183517694473267 1.278654932975769 3.887160062789917 160 160 160
-0.9575921297073364 1.4659221172332764 3.8761470317840576 139 139 139
0.9577149152755737 0.457085520029068 3.908677816390991 110 110 110
0.965242326259613 -1.674464464187622 3.409583568572998 133 133 133
0.8058457970619202 1.2102060317993164 3.7145895957946777 102 102 102
-0.7990496754646301 -0.5791107416152954 3.7387213706970215 51 51 51
0.869448184967041 1.4193834066390991 3.713148593902588 55 55 55
0.9206618070602417 -1.6668199300765991 3.441436529159546 75 75 75
-0.918443500995636 1.2667944431304932 3.8820438385009766 1 1 1
0.89071124792099 1.448591947555542 3.7496392726898193 157 157 157
-0.44088393449783325 0.20693328976631165 4.203953742980957 191 191 191
0.963954746723175 -1.6227262020111084 3.4076340198516846 19 19 19
-1.1476023197174072 1.168014407157898 3.6451525688171387 140 140 140
-0.5599868297576904 0.5464612245559692 4.084074974060059 119 119 119
0.7649983167648315 0.5170542001724243 3.912480115890503 156 156 156
-0.7774619460105896 0.4249221086502075 3.880462646484375 135 135 135
1.1733757257461548 -0.9277313351631165 3.5428926944732666 169 169 169
-1.0011452436447144 -1.5171033143997192 3.312973737716675 36 36 36
1.4465075731277466 -0.18779152631759644 4.368597507476807 33 33 33
-0.2530328333377838 -1.830086350440979 3.993922710418701 16 16 16
-1.0131322145462036 -0.9044182300567627 3.4925549030303955 132 132 132
-0.7605435252189636 0.4073329269886017 3.903966188430786 132 132 132
-0.34144532680511475 -1.8102033138275146 4.006833076477051 42 42 42
-0.4702482223510742 -0.31155383586883545 4.050506591796875 34 34 34
-1.0366531610488892 -0.2646195590496063 3.49605131149292 169 169 169
-0.34144511818885803 -1.8102093935012817 4.006841659545898 42 42 42
1.0850732326507568 0.386832594871521 3.949716806411743 211 211 211
1.2088450193405151 1.4622770547866821 3.3822414875030518 2 2 2
1.0657761096954346 0.38137900829315186 3.9693374633789062 205 205 205
-0.9357304573059082 1.1329662799835205 3.8916726112365723 6 6 6
-0.9304566383361816 1.1283459663391113 3.8810997009277344 9 9 9
1.5436985492706299 -0.34544724225997925 4.363317012786865 122 122 122
1.2834848165512085 -0.6942219734191895 3.6513001918792725 245 245 245
-0.60540771484375 0.3963147699832916 4.061280250549316 162 162 162
1.4815285205841064 0.10159643739461899 4.328430652618408 114 114 114
-0.6258874535560608 -0.1013006940484047 3.99198579788208 92 92 92
0.9765529036521912 -0.6996126770973206 3.7615787982940674 82 82 82
1.45726478099823 0.15257050096988678 4.36264705657959 165 165 165
-0.4606018662452698 -0.11851062625646591 4.1541056632995605 83 83 83
0.8707144856452942 1.7786810398101807 3.797579288482666 90 90 90
-0.4886704087257385 -1.634019136428833 3.8868377208709717 127 127 127
-0.7944063544273376 -0.07353924959897995 3.829876661300659 3 3 3
-0.5051690340042114 0.37804415822029114 4.237961292266846 247 247 247
0.9315897822380066 -0.6828590631484985 3.708021640777588 23 23 23
-0.5111920833587646 0.38173460960388184 4.2555389404296875 24 24 24
-0.748451828956604 0.5909982919692993 3.9262900352478027 130 130 130
-0.7712029218673706 0.5877330303192139 3.9313721656799316 114 114 114
-0.9516049027442932 -0.05367933213710785 3.684966564178467 107 107 107
-0.7536076903343201 0.5818884968757629 3.847813367843628 114 114 114
-0.7955543398857117 -0.060438670217990875 3.7827935218811035 11 11 11
-0.8151878714561462 -0.061568424105644226 3.876189708709717 11 11 11
-0.5975451469421387 0.5365721583366394 4.103006362915039 136 136 136
-0.7953899502754211 -0.060577429831027985 3.782048463821411 11 11 11
1.4482752084732056 -0.4511840343475342 4.300509929656982 151 151 151
0.8694202303886414 -0.6422079205513 3.6759793758392334 211 211 211
-0.9516029357910156 -0.05367189273238182 3.684954881668091 107 107 107
0.682702898979187 -1.480069875717163 3.7321650981903076 237 237 237
-0.9037858247756958 0.6074637174606323 3.7362985610961914 25 25 25
1.0048190355300903 -0.6549221873283386 3.8113529682159424 77 77 77
-1.296508550643921 -0.031740643084049225 3.5551528930664062 12 12 12
-0.46550247073173523 0.34982603788375854 4.207422256469727 192 192 192
-0.3294453024864197 -1.6339458227157593 4.131206512451172 2 2 2
-1.0297574996948242 -0.036626167595386505 3.6260218620300293 27 27 27
-1.0193790197372437 -0.024951055645942688 3.6542766094207764 67 67 67
-0.329751193523407 -1.6353334188461304 4.1347784996032715 2 2 2
-0.32078322768211365 -1.6465729475021362 4.183200359344482 45 45 45
-0.9379332065582275 0.9528629183769226 3.83359432220459 156 156 156
-0.46353858709335327 0.7214913964271545 4.400645732879639 133 133 133
-0.46355774998664856 0.7214952111244202 4.400784015655518 133 133 133
-0.9213470220565796 0.92974454164505 3.837344169616699 142 142 142
-0.7990825176239014 -0.5791217088699341 3.7387843132019043 51 51 51
1.45564603805542 0.15062278509140015 4.355564594268799 224 224 224
-0.48661696910858154 -0.6238731741905212 4.058681964874268 71 71 71
1.0651073455810547 -1.0944644212722778 3.4867465496063232 128 128 128
-0.9981416463851929 0.6415537595748901 3.7239859104156494 78 78 78
1.110503077507019 -1.0871407985687256 3.4375264644622803 144 144 144
-0.5780913233757019 0.7019252181053162 3.9969568252563477 20 20 20
1.1979501247406006 -1.0805813074111938 3.365018844604492 170 170 170
0.5434149503707886 0.8687740564346313 3.9724178314208984 160 160 160
0.5193743109703064 0.8503267168998718 3.9597415924072266 53 53 53
0.38926610350608826 0.8287518620491028 4.009454727172852 7 7 7
-0.4493183195590973 0.22218185663223267 4.167170524597168 41 41 41
-0.7586942315101624 0.7320716977119446 3.9788081645965576 113 113 113
-1.000819206237793 -1.2223292589187622 3.424790620803833 104 104 104
-0.7856321930885315 0.28012776374816895 3.8662378787994385 36 36 36
1.3682359457015991 -0.5184260606765747 4.221612453460693 51 51 51
-0.7662633061408997 0.26015251874923706 3.8205244541168213 198 198 198
1.6196478605270386 0.07739164680242538 4.334926128387451 64 64 64
0.6024014353752136 0.022403227165341377 1.5718713998794556 253 253 253
-0.9414896368980408 0.789750874042511 3.8061609268188477 64 64 64
-0.6181138157844543 0.5610869526863098 4.12127161026001 9 9 9
-0.9794291257858276 0.10716265439987183 3.618516206741333 105 105 105
-0.9139195084571838 0.9455626606941223 3.852766513824463 41 41 41
1.1719181537628174 -0.7030287384986877 3.0306293964385986 128 128 128
-0.4447844922542572 0.6900123953819275 4.219249725341797 133 133 133
-0.7662568688392639 0.28563445806503296 3.877800226211548 161 161 161
-0.9739380478858948 -0.7459608912467957 3.6217870712280273 57 57 57
1.2634148597717285 -0.6424208879470825 3.5424883365631104 106 106 106
-0.4853285849094391 -1.418007254600525 3.9303746223449707 16 16 16
-0.3825833797454834 0.8633632659912109 4.407278060913086 26 26 26
-0.5340761542320251 -1.7601277828216553 3.756805419921875 54 54 54
-0.49578776955604553 0.02923121489584446 4.169386863708496 139 139 139
-0.6509495377540588 0.7461180090904236 4.142135143280029 194 194 194
0.8956219553947449 -0.7104016542434692 3.6098439693450928 136 136 136
0.8834919929504395 1.0818240642547607 3.583676815032959 123 123 123
0.9034729599952698 -0.7179339528083801 3.640155076980591 136 136 136
-0.5278661251068115 -1.720913052558899 3.7707433700561523 116 116 116
-0.9410942196846008 0.28758618235588074 3.6915478706359863 53 53 53
1.208844542503357 1.462275505065918 3.3822383880615234 2 2 2
-0.28133895993232727 -0.7760519981384277 4.0523362159729 207 207 207
-0.5934097170829773 1.2261943817138672 4.251020431518555 82 82 82
0.8893234729766846 0.5283457636833191 3.8037712574005127 137 137 137
-0.010583765804767609 0.4225901961326599 4.5684733390808105 126 126 126
-0.6113154292106628 0.3998056948184967 4.159457206726074 135 135 135
-0.6816840171813965 -1.4430769681930542 3.820147752761841 14 14 14
1.2099651098251343 -1.2724692821502686 3.3618180751800537 166 166 166
-0.7536122798919678 0.9493439793586731 4.008022785186768 63 63 63
-0.4229619801044464 1.0182647705078125 4.349585056304932 0 0 0
-0.8166990280151367 -0.9238415956497192 3.6839609146118164 96 96 96
0.04543079435825348 0.7293789982795715 4.371253967285156 10 10 10
1.0031309127807617 -0.630276620388031 3.784148931503296 79 79 79
-0.47414031624794006 0.534070611000061 4.188582897186279 35 35 35
1.19619619846344 -0.7795190215110779 3.380756378173828 118 118 118
-0.012403169646859169 1.1545767784118652 4.491384983062744 179 179 179
-0.012439971789717674 1.1546224355697632 4.491568088531494 179 179 179
1.0444108247756958 -0.8220586180686951 3.6485183238983154 153 153 153
-0.637204647064209 -1.911293864250183 3.705824136734009 6 6 6
1.7296488285064697 0.5741525888442993 5.2294440269470215 54 54 54
1.257265329360962 -1.0038018226623535 3.3720555305480957 45 45 45
0.5323453545570374 1.0528697967529297 4.017333030700684 21 21 21
-0.9830465316772461 -1.3684583902359009 3.3983004093170166 32 32 32
-0.06836029142141342 0.582593560218811 4.409779071807861 25 25 25
1.2631175518035889 1.2755407094955444 3.3069043159484863 144 144 144
-0.7591567039489746 1.612769603729248 4.1234307289123535 1 1 1
-0.6669451594352722 -1.763008952140808 3.688555955886841 133 133 133
0.6998569369316101 1.4082486629486084 3.88309383392334 55 55 55
-0.5091555714607239 0.21476763486862183 4.093112468719482 86 86 86
0.05689854174852371 -0.6182019710540771 4.35573673248291 56 56 56
0.5340105295181274 1.0459184646606445 3.9931397438049316 101 101 101
0.15923632681369781 0.9904645085334778 4.275951385498047 6 6 6
-0.657701849937439 -1.4439327716827393 3.812640905380249 135 135 135
-0.38980916142463684 1.0043708086013794 4.410628318786621 19 19 19
-0.6619135141372681 0.24220611155033112 3.961857795715332 59 59 59
-0.5848355293273926 0.71933913230896 4.075938701629639 2 2 2
0.3145464062690735 1.2014414072036743 4.206059455871582 135 135 135
0.38602179288864136 1.1739733219146729 4.136265277862549 121 121 121
-0.5402120351791382 0.38328954577445984 4.148388862609863 76 76 76
-0.437035471200943 -1.546747088432312 3.828810214996338 134 134 134
-0.9411892294883728 0.9567832946777344 3.7882676124572754 97 97 97
-0.17935465276241302 -1.9881151914596558 4.068537712097168 114 114 114
0.17244111001491547 1.182945966720581 4.321864604949951 15 15 15
0.5171481966972351 1.0295666456222534 4.020953178405762 13 13 13
-0.317277193069458 0.5049743056297302 4.479398250579834 92 92 92
-0.6431135535240173 -0.25242626667022705 3.945810556411743 39 39 39
-0.5881417393684387 -1.770654559135437 3.763791561126709 71 71 71
1.0030146837234497 1.4165621995925903 3.6400539875030518 126 126 126
0.8847895264625549 1.3183224201202393 3.70959734916687 147 147 147
-0.442717581987381 0.3652908205986023 4.21900749206543 48 48 48
-0.7622107863426208 1.276189923286438 4.098813533782959 1 1 1
1.442771553993225 -0.16957087814807892 4.348806381225586 180 180 180
-0.2467155158519745 0.34598663449287415 4.55197811126709 250 250 250
1.4427788257598877 -0.16956724226474762 4.348842144012451 180 180 180
-0.49866098165512085 -1.8881278038024902 3.7213385105133057 34 34 34
-0.5295197367668152 -1.8572123050689697 3.6657283306121826 96 96 96
-0.2710404396057129 -2.0142810344696045 4.048798561096191 106 106 106
-0.5241715908050537 -1.838689923286438 3.7135865688323975 124 124 124
-0.46015092730522156 -1.8756389617919922 3.769606590270996 21 21 21
-0.5487425327301025 -1.8060688972473145 3.647892475128174 68 68 68
-0.3427063226699829 -1.9801777601242065 3.986039638519287 167 167 167
1.2628782987594604 0.5176489949226379 3.5497183799743652 67 67 67
-0.9516031742095947 -0.053677450865507126 3.6849429607391357 107 107 107
-0.6258721351623535 -0.10130061209201813 3.991947889328003 92 92 92
-0.6231383681297302 -1.793026328086853 3.701688051223755 39 39 39
-0.17908340692520142 -1.986701488494873 4.066936016082764 114 114 114
0.965242326259613 -1.6744643449783325 3.409583568572998 133 133 133
-0.46060121059417725 -0.11851481348276138 4.154097557067871 83 83 83
0.9206618070602417 -1.6668198108673096 3.441436290740967 75 75 75
0.9639976620674133 -1.6228046417236328 3.4078028202056885 19 19 19
-0.7841597199440002 0.28725022077560425 3.866590738296509 19 19 19
-0.5757068991661072 -1.7371056079864502 3.6912784576416016 71 71 71
-0.4755200445652008 0.34994375705718994 4.240986347198486 147 147 147
-0.7974003553390503 0.2619597911834717 3.8851146697998047 125 125 125
-0.5340906381607056 -1.760163426399231 3.7569189071655273 54 54 54
-0.23490357398986816 0.3698562681674957 4.435615539550781 182 182 182
-0.8138506412506104 0.08313410729169846 3.9190561771392822 31 31 31
-0.7765778303146362 -0.06504908204078674 3.7937142848968506 111 111 111
-0.5469598770141602 -1.7330130338668823 3.7591967582702637 28 28 28
-0.1753404289484024 -1.8294445276260376 3.986219882965088 30 30 30
-0.20878879725933075 0.3773675262928009 4.581721782684326 144 144 144
-0.25306203961372375 -1.8301275968551636 3.9940052032470703 16 16 16
-0.2596380114555359 -1.8593624830245972 4.069225311279297 16 16 16
-0.6181151866912842 0.5610880851745605 4.121310710906982 9 9 9
-0.7936972379684448 0.08867917954921722 3.8246395587921143 31 31 31
-0.3526078164577484 -1.860288381576538 4.124847888946533 42 42 42
-0.6178774833679199 0.23600062727928162 4.125751972198486 60 60 60
0.7649984359741211 0.5170533657073975 3.912493944168091 156 156 156
-0.06836285442113876 0.5825949311256409 4.409790992736816 25 25 25
1.4843957424163818 -0.2738477885723114 4.462523937225342 25 25 25
-0.5599837303161621 0.5464611053466797 4.084076881408691 119 119 119
-0.996224582195282 -0.029128026217222214 3.5704469680786133 67 67 67
-1.0205655097961426 -0.02716170623898506 3.658137321472168 67 67 67
1.4061827659606934 -0.526147723197937 4.25747013092041 129 129 129
-1.0455334186553955 0.4791322648525238 3.7097537517547607 34 34 34
1.4843952655792236 -0.27384793758392334 4.462522029876709 25 25 25
-0.47702378034591675 -1.6006863117218018 3.856571912765503 33 33 33
-0.9182126522064209 0.46267470717430115 3.7697081565856934 95 95 95
-1.0082813501358032 0.469949871301651 3.7136523723602295 189 189 189
-0.42351236939430237 0.204437717795372 4.298712730407715 189 189 189
-0.440904438495636 0.20693731307983398 4.204016208648682 191 191 191
-0.4703123867511749 0.36675140261650085 4.137216091156006 92 92 92
0.9821456074714661 -1.4208159446716309 3.5254852771759033 24 24 24
1.383601427078247 -0.2928571105003357 4.160877704620361 144 144 144
-0.329755961894989 -1.6353416442871094 4.134798526763916 2 2 2
-0.3472556471824646 -1.5919185876846313 4.087423324584961 19 19 19
0.8987347483634949 -1.2044267654418945 3.0991358757019043 26 26 26
-0.9111135601997375 1.7731856107711792 3.868699073791504 11 11 11
-0.010838600806891918 0.4170305132865906 4.525014400482178 126 126 126
1.6241201162338257 0.06657949835062027 4.358116149902344 239 239 239
1.1476068496704102 -1.256827473640442 3.3585495948791504 137 137 137
-0.4693853259086609 -0.31801098585128784 4.072915077209473 21 21 21
1.0411362648010254 0.37224292755126953 3.9496564865112305 132 132 132
1.384147047996521 -0.3198114037513733 4.2124104499816895 179 179 179
1.1362528800964355 0.36889538168907166 3.8797104358673096 14 14 14
1.2149367332458496 1.4514979124069214 3.41068696975708 124 124 124
-0.4410521388053894 0.20696623623371124 4.20446252822876 191 191 191
-0.568589448928833 0.3888428211212158 4.015625953674316 220 220 220
0.8632515668869019 1.3102548122406006 3.7737889289855957 139 139 139
-0.5867304801940918 0.7203800082206726 4.087651252746582 2 2 2
0.9520344138145447 1.4213279485702515 3.65529465675354 29 29 29
1.2697702646255493 1.2882311344146729 3.335577964782715 79 79 79
0.8694581985473633 1.4194221496582031 3.713193416595459 55 55 55
1.2909294366836548 1.2862321138381958 3.3943185806274414 37 37 37
0.6932334899902344 1.2071902751922607 3.8410117626190186 10 10 10
1.003835678100586 -1.1795669794082642 3.545888662338257 62 62 62
-0.5906090140342712 -0.24773049354553223 3.8202061653137207 69 69 69
-0.9762507677078247 1.4561975002288818 3.86704421043396 24 24 24
-0.9826699495315552 1.4408077001571655 3.8477182388305664 7 7 7
0.869969367980957 1.0795135498046875 3.643604040145874 19 19 19
1.5021278858184814 -0.194797083735466 4.348876953125 40 40 40
-0.9494459629058838 -0.8808169960975647 3.528799295425415 191 191 191
1.171919345855713 -0.7030307054519653 3.0306355953216553 128 128 128
-0.9933960437774658 1.4850640296936035 3.885849714279175 141 141 141
-1.1397435665130615 1.332800269126892 3.655665636062622 76 76 76
1.178706169128418 -1.0659493207931519 3.410843849182129 77 77 77
0.8763623237609863 1.2816669940948486 3.744028091430664 7 7 7
-0.08846325427293777 1.017857551574707 4.532930374145508 72 72 72
-0.9550447463989258 1.3047163486480713 3.8375937938690186 147 147 147
0.9706073999404907 -1.09500253200531 3.538813829421997 150 150 150
-0.9982686042785645 0.6416214108467102 3.7242186069488525 78 78 78
-0.7603098154067993 0.6183758974075317 3.9415671825408936 65 65 65
-0.9344704747200012 -0.5376501083374023 3.534478187561035 75 75 75
-0.918358564376831 1.2786376476287842 3.887176990509033 160 160 160
-0.9153117537498474 1.2626445293426514 3.875199556350708 57 57 57
0.7049365043640137 1.2315233945846558 3.8531596660614014 11 11 11
-1.1475986242294312 1.1680121421813965 3.6451470851898193 140 140 140
1.018829345703125 -1.0382102727890015 3.5242533683776855 141 141 141
-1.0011494159698486 -1.5171054601669312 3.3129794597625732 36 36 36
-0.5599932074546814 0.5464748740196228 4.084187984466553 119 119 119
1.0908371210098267 -0.9978503584861755 3.5367987155914307 22 22 22
-0.9303933382034302 1.128298044204712 3.8809714317321777 9 9 9
1.0709967613220215 -0.9607040882110596 3.4791505336761475 161 161 161
0.3145568370819092 1.2014213800430298 4.205985069274902 135 135 135
-1.0310059785842896 -0.37650415301322937 3.6115808486938477 12 12 12
0.3729461431503296 0.829177975654602 4.062500476837158 48 48 48
-0.9954350590705872 0.9699579477310181 3.7741808891296387 108 108 108
-0.4920598566532135 0.027210067957639694 4.147463321685791 137 137 137
1.2437790632247925 0.40911343693733215 3.9226009845733643 65 65 65
1.1586376428604126 -0.9006248712539673 3.4470701217651367 152 152 152
-0.9741639494895935 0.9757887721061707 3.788090229034424 137 137 137
-1.0131051540374756 -0.9044046401977539 3.492511034011841 132 132 132
-0.9775053262710571 0.9776531457901001 3.8556008338928223 43 43 43
1.0229943990707397 -0.9193599224090576 3.569331169128418 84 84 84
-0.4113961160182953 0.824717104434967 4.316295146942139 92 92 92
1.05202317237854 -0.9485037922859192 3.667069673538208 84 84 84
-1.0273020267486572 -0.904742419719696 3.542126178741455 132 132 132
-0.9379390478134155 0.9528726935386658 3.8336236476898193 156 156 156
-0.9379390478134155 0.9528726935386658 3.8336236476898193 156 156 156
-0.8989266753196716 0.9345582723617554 3.8230316638946533 0 0 0
-0.9209756255149841 0.9253595471382141 3.835078716278076 128 128 128
-0.7567839622497559 -0.8841596245765686 3.618515968322754 2 2 2
1.2430511713027954 -0.8022054433822632 3.399754762649536 25 25 25
0.8609188795089722 1.277496337890625 3.690819501876831 75 75 75
-0.43384233117103577 1.000460147857666 4.390458583831787 70 70 70
-0.6516216993331909 -1.2483841180801392 3.7993171215057373 48 48 48
1.4086353778839111 -0.15783847868442535 4.33236837387085 118 118 118
1.136496663093567 -1.17512845993042 3.48471999168396 156 156 156
0.5193743109703064 0.8503263592720032 3.9597411155700684 53 53 53
-0.11072644591331482 1.008570909500122 4.636054515838623 63 63 63
1.0822595357894897 -0.7595484852790833 3.53157901763916 24 24 24
-0.4763208031654358 -0.08077792823314667 4.1339592933654785 62 62 62
-0.9240942001342773 0.264167457818985 3.6936357021331787 100 100 100
0.985515832901001 -0.7740206718444824 3.6328015327453613 72 72 72
1.0112160444259644 -0.785827100276947 3.680568218231201 29 29 29
0.39021405577659607 0.8291401267051697 4.031998634338379 7 7 7
-0.9792138338088989 0.7704389095306396 3.737230062484741 105 105 105
1.1737987995147705 -1.1909714937210083 3.4406752586364746 136 136 136
1.0987615585327148 0.38033756613731384 3.9180426597595215 57 57 57
-0.3297710120677948 -1.6344096660614014 4.132309436798096 2 2 2
1.2537429332733154 -0.6612057089805603 3.4954190254211426 157 157 157
-0.7767738699913025 -0.5697525143623352 3.6362924575805664 51 51 51
0.9388300180435181 -0.6175049543380737 3.6224358081817627 125 125 125
1.253286600112915 -0.7055006623268127 3.8121297359466553 39 39 39
0.9765529036521912 -0.6996126770973206 3.7615787982940674 82 82 82
-0.43110740184783936 0.701421856880188 4.302175521850586 177 177 177
-0.633686363697052 -1.076888918876648 3.7810840606689453 64 64 64
1.0160366296768188 -0.6441664695739746 3.749985933303833 161 161 161
-1.0116686820983887 -0.5630115270614624 3.4780633449554443 97 97 97
-0.9144093990325928 0.5937827229499817 3.7857766151428223 139 139 139
-0.7536073923110962 0.5818881392478943 3.8478126525878906 114 114 114
-0.7712029218673706 0.5877330303192139 3.9313721656799316 114 114 114
0.934515118598938 -0.7746521234512329 3.67488956451416 102 102 102
0.19796711206436157 0.29330286383628845 4.366858005523682 238 238 238
-0.8281664252281189 -0.40262410044670105 3.672489881515503 0 0 0
0.387224942445755 1.1681715250015259 4.121715068817139 121 121 121
-0.7319585084915161 0.9170914888381958 4.038361072540283 40 40 40
1.008609652519226 -0.7822213768959045 3.6485307216644287 8 8 8
-0.012347281910479069 1.1545109748840332 4.491118907928467 179 179 179
0.9191070795059204 -1.1945655345916748 3.615445852279663 70 70 70
1.15891695022583 1.3151750564575195 3.483362913131714 107 107 107
0.996288537979126 1.4065369367599487 3.6233205795288086 126 126 126
0.15923933684825897 0.9904499053955078 4.2759013175964355 6 6 6
-0.6244209408760071 0.1990303248167038 4.010748386383057 81 81 81
-0.4744264781475067 0.5343345403671265 4.189474105834961 35 35 35
1.4416656494140625 -0.20908793807029724 4.347649097442627 8 8 8
-0.9601292610168457 1.6414086818695068 3.8863439559936523 114 114 114
1.0213165283203125 0.5429039001464844 3.6336586475372314 33 33 33
-0.46647167205810547 0.0472177155315876 4.167829990386963 47 47 47
0.4935157001018524 0.6981996297836304 3.94562029838562 139 139 139
0.5378152132034302 1.0539171695709229 4.016474723815918 101 101 101
0.8644315004348755 1.239953637123108 3.696897268295288 47 47 47
1.238037109375 1.3330228328704834 3.418163776397705 105 105 105
0.1679050326347351 1.3283799886703491 4.350311279296875 44 44 44
0.5937040448188782 1.1737762689590454 3.887784242630005 119 119 119
-0.6372047662734985 -1.9112915992736816 3.705819845199585 6 6 6
-0.49916818737983704 -1.8917484283447266 3.728059768676758 34 34 34
-0.5241684317588806 -1.838690996170044 3.713576078414917 124 124 124
-0.4669666886329651 -1.8462539911270142 3.7304458618164062 33 33 33
-0.3426312804222107 -1.9800736904144287 3.985825777053833 167 167 167
-0.6364172101020813 -1.8353946208953857 3.7442314624786377 144 144 144
0.3376869857311249 1.1739732027053833 4.146698474884033 32 32 32
0.39001041650772095 1.1585614681243896 4.093774795532227 117 117 117
0.5398175120353699 1.0581034421920776 4.028488636016846 101 101 101
-0.03663768619298935 1.1829389333724976 4.606379985809326 26 26 26
-0.9865774512290955 0.9817464351654053 3.8719966411590576 44 44 44
-1.0234187841415405 -1.5489555597305298 3.3214111328125 95 95 95
-0.175332173705101 -1.8293849229812622 3.98610258102417 30 30 30
-0.25305795669555664 -1.8301265239715576 3.9939990043640137 16 16 16
0.3624822795391083 1.0224655866622925 4.139068603515625 20 20 20
-0.937943160533905 0.952876627445221 3.8336400985717773 156 156 156
-0.9255226850509644 0.9249839186668396 3.8434195518493652 80 80 80
-0.7500261664390564 0.9515823721885681 3.986485719680786 53 53 53
0.15922005474567413 0.9903399348258972 4.275476455688477 6 6 6
-0.9968525767326355 -1.5367228984832764 3.3681607246398926 33 33 33
-0.7455530762672424 0.9387502074241638 4.054859161376953 176 176 176
-0.7499864101409912 0.9439589381217957 4.148849964141846 46 46 46
0.18231403827667236 0.8219424486160278 4.260664463043213 14 14 14
-0.6361296772956848 0.7395892143249512 4.080365180969238 110 110 110
-0.2806486487388611 0.8024212121963501 4.4737629890441895 87 87 87
-0.19371344149112701 0.8034138679504395 4.545520305633545 1 1 1
0.4935138523578644 0.6982033848762512 3.9456422328948975 139 139 139
-0.30838969349861145 -1.650683879852295 4.131351947784424 106 106 106
-0.32975417375564575 -1.6343871355056763 4.132256031036377 2 2 2
-0.1645728498697281 0.7912781238555908 4.51674222946167 102 102 102
1.0725233554840088 -1.3771392107009888 3.478915214538574 24 24 24
-1.0264431238174438 0.6508654356002808 3.73093581199646 100 100 100
-0.3427908718585968 -1.5917993783950806 4.056677341461182 16 16 16
-0.3297673761844635 -1.635366439819336 4.13485860824585 2 2 2
-0.13256356120109558 0.758423924446106 4.376298904418945 7 7 7
-0.9638674855232239 0.6300309300422668 3.6641108989715576 157 157 157
1.1755573749542236 -1.3096987009048462 3.4286890029907227 24 24 24
-0.4635325074195862 0.721490204334259 4.4006242752075195 133 133 133
0.1712530553340912 -1.6036648750305176 4.298145771026611 77 77 77
-0.7711963057518005 0.5877262949943542 3.9313337802886963 114 114 114
1.023857593536377 0.5467514991760254 3.662649154663086 66 66 66
0.6840774416923523 0.582377016544342 3.975247859954834 113 113 113
1.267102837562561 0.5220474004745483 3.571779251098633 66 66 66
1.081913948059082 -1.2654868364334106 3.5524532794952393 63 63 63
-0.06834454834461212 0.5825870633125305 4.4097161293029785 25 25 25
-0.5547583103179932 0.5499541759490967 4.215462684631348 5 5 5
-0.5598148703575134 0.5463921427726746 4.083632469177246 119 119 119
1.1464084386825562 -1.1543409824371338 3.4490859508514404 37 37 37
0.7976173162460327 0.4977363348007202 3.8861618041992188 20 20 20
-0.944372832775116 0.46982988715171814 3.7346317768096924 143 143 143
1.0189290046691895 -1.087567925453186 3.5871713161468506 58 58 58
1.008304476737976 -1.051618218421936 3.478821277618408 24 24 24
-0.6421781778335571 -1.1104576587677002 3.819862127304077 116 116 116
1.1320427656173706 -0.9974657893180847 3.4928228855133057 23 23 23
-0.30937597155570984 0.47669944167137146 4.374833106994629 99 99 99
1.2369135618209839 -0.9339888095855713 3.434837579727173 63 63 63
1.0666688680648804 -0.9064856171607971 3.5087594985961914 154 154 154
1.0199477672576904 0.4105215072631836 3.9380486011505127 109 109 109
-0.7639543414115906 0.3938179910182953 3.893263816833496 125 125 125
1.121116042137146 0.3850598633289337 3.890836000442505 159 159 159
-0.6051574945449829 0.39622581005096436 4.060636043548584 162 162 162
-0.010838466696441174 0.4170304238796234 4.525013446807861 126 126 126
0.9943749308586121 -0.8114931583404541 3.559004306793213 22 22 22
1.1722383499145508 0.35994765162467957 3.991882801055908 206 206 206
1.1964201927185059 -0.7780472040176392 3.5331878662109375 24 24 24
1.0372575521469116 -0.7680369019508362 3.580915927886963 22 22 22
1.166242003440857 -0.7182317972183228 3.369847536087036 62 62 62
1.0939675569534302 -0.7469114661216736 3.5536916255950928 139 139 139
-0.46789681911468506 0.3645796775817871 4.1297607421875 113 113 113
0.8956104516983032 -0.7104005813598633 3.6096010208129883 136 136 136
0.9034892916679382 -0.7179924249649048 3.640486478805542 136 136 136
-0.44674623012542725 0.36565279960632324 4.245954513549805 46 46 46
1.2550526857376099 -0.6626124978065491 3.5023162364959717 234 234 234
-0.4670480787754059 0.33967238664627075 4.191732883453369 130 130 130
1.1077032089233398 -0.6842384338378906 3.6693055629730225 250 250 250
0.9914519190788269 -0.6694962978363037 3.6031064987182617 48 48 48
1.3029141426086426 -0.7321696281433105 3.96981143951416 39 39 39
1.0332177877426147 -0.6630643606185913 3.6972243785858154 91 91 91
1.0174171924591064 -0.6467631459236145 3.7646045684814453 213 213 213
0.8694149851799011 -0.6421959400177002 3.6759393215179443 211 211 211
1.0278654098510742 -0.6661918759346008 3.8729231357574463 120 120 120
1.0218122005462646 -0.6482996344566345 3.817354679107666 55 55 55
-0.7753546237945557 -0.5700422525405884 3.630384683609009 51 51 51
0.19732323288917542 0.2938714325428009 4.371529579162598 204 204 204
0.19727443158626556 0.2934938967227936 4.371542453765869 238 238 238
-0.4595925807952881 0.24491150677204132 4.2086052894592285 118 118 118
-0.41193705797195435 0.19854135811328888 4.239139556884766 37 37 37
1.367832899093628 -0.510712742805481 4.300924777984619 161 161 161
-0.9107605814933777 -0.381467342376709 3.5764098167419434 1 1 1
-0.7937191128730774 0.08866115659475327 3.8247547149658203 31 31 31
-0.46937811374664307 -0.3173232972621918 4.072905540466309 21 21 21
-0.785336434841156 0.06550008803606033 3.8445756435394287 131 131 131
-1.0058211088180542 -0.23049159348011017 3.524949789047241 118 118 118
1.3800674676895142 -0.3011879324913025 4.4362993240356445 37 37 37
-0.49381089210510254 0.022921154275536537 4.138661861419678 137 137 137
-0.620148777961731 -0.2595423758029938 4.020901203155518 69 69 69
1.4241877794265747 -0.2580593526363373 4.4645185470581055 99 99 99
1.3975317478179932 -0.2259063720703125 4.284216403961182 191 191 191
-0.9847780466079712 -0.037737466394901276 3.6045665740966797 168 168 168
-0.9962208867073059 -0.029129866510629654 3.5704405307769775 67 67 67
1.3820297718048096 -0.16830766201019287 4.236153602600098 143 143 143
1.3952751159667969 -0.16210700571537018 4.304593086242676 120 120 120
-0.6258779168128967 -0.10129936039447784 3.9919631481170654 92 92 92
-0.7744325399398804 -0.0643584281206131 3.7893474102020264 135 135 135
-0.5028205513954163 -0.097083680331707 4.146030426025391 100 100 100
-0.7952553033828735 -0.060641806572675705 3.7816660404205322 11 11 11
0.6932355761528015 1.2071949243545532 3.841013193130493 10 10 10
-1.147603988647461 1.1680152416229248 3.645155429840088 140 140 140
0.8043038249015808 1.1965407133102417 3.7340025901794434 158 158 158
-0.955804705619812 1.3029375076293945 3.83797550201416 125 125 125
0.8142344355583191 1.2710241079330444 3.7310631275177 107 107 107
0.8763612508773804 1.2816705703735352 3.744039297103882 7 7 7
1.0380877256393433 1.284382939338684 3.5836336612701416 91 91 91
-1.1396600008010864 1.3327648639678955 3.6555445194244385 76 76 76
-1.157973289489746 1.3585717678070068 3.7175915241241455 76 76 76
1.0268772840499878 1.2968324422836304 3.552683115005493 81 81 81
-0.9609163999557495 1.4280205965042114 3.8592264652252197 80 80 80
-0.9318139553070068 1.4745248556137085 3.926597833633423 0 0 0
-0.9095991253852844 1.4633158445358276 3.9385440349578857 114 114 114
0.8870173096656799 1.4426229000091553 3.733283281326294 157 157 157
1.2723082304000854 1.2839674949645996 3.3246288299560547 61 61 61
0.9336217045783997 1.409042239189148 3.636671304702759 139 139 139
0.9500930309295654 1.412118911743164 3.634871244430542 131 131 131
0.9851813316345215 1.4066145420074463 3.600210666656494 139 139 139
0.9023333191871643 1.4565349817276 3.716762065887451 118 118 118
0.9513014554977417 1.428635597229004 3.6399576663970947 86 86 86
1.0954512357711792 1.4647465944290161 3.542034149169922 22 22 22
-0.9601833820343018 1.641412377357483 3.8863892555236816 114 114 114
1.2110910415649414 1.4450162649154663 3.4111592769622803 105 105 105
0.8441278338432312 1.6172826290130615 3.793367862701416 112 112 112
0.8648431897163391 1.6087334156036377 3.771454095840454 55 55 55
0.6630561947822571 1.6934224367141724 3.8881263732910156 103 103 103
0.8866822719573975 1.808858036994934 3.847456455230713 90 90 90
1.0403841733932495 -1.2568100690841675 3.5477142333984375 22 22 22
-0.37427574396133423 -1.6317570209503174 4.0259528160095215 125 125 125
-0.43376821279525757 0.9841511249542236 4.366396427154541 95 95 95
1.1249918937683105 -0.22845514118671417 3.9645984172821045 44 44 44
-0.40143927931785583 0.7897047996520996 4.351516246795654 127 127 127
0.4165968596935272 -1.6851235628128052 3.8624837398529053 81 81 81
-0.8079763650894165 0.9432656168937683 3.9917805194854736 194 194 194
0.15236958861351013 0.7927272319793701 4.2021942138671875 154 154 154
1.1577210426330566 1.31826651096344 3.4570138454437256 136 136 136
-0.7712069153785706 0.5877382159233093 3.9313929080963135 114 114 114
-0.27107369899749756 -2.014352321624756 4.048909664154053 106 106 106
0.9072192311286926 0.5438972115516663 3.873746156692505 137 137 137
-0.20284268260002136 -2.0018227100372314 4.084207534790039 5 5 5
-0.5830095410346985 -1.7820764780044556 3.711203098297119 32 32 32
-0.5517399311065674 -1.789513111114502 3.7347195148468018 34 34 34
0.7650187611579895 0.5170702338218689 3.9125962257385254 156 156 156
-0.5523260235786438 -1.721051812171936 3.7312774658203125 27 27 27
-0.6181026697158813 0.5610705614089966 4.121201515197754 9 9 9
0.7946171164512634 0.4767910838127136 3.7527923583984375 90 90 90
-0.48415425419807434 -1.693002700805664 3.7782037258148193 21 21 21
0.7976173758506775 0.4977361261844635 3.886155843734741 20 20 20
0.9708721041679382 0.48789098858833313 3.911510467529297 31 31 31
-0.43407323956489563 -1.7489455938339233 3.942401885986328 64 64 64
-0.3050570785999298 0.46412962675094604 4.346432209014893 99 99 99
1.015358567237854 -1.3622273206710815 3.474083185195923 25 25 25
-0.3504315912723541 -1.6186623573303223 4.152771472930908 60 60 60
-0.3244921863079071 -1.5839790105819702 4.070671558380127 119 119 119
-0.6239251494407654 0.4102425277233124 4.028596878051758 229 229 229
-0.19028422236442566 -1.6360046863555908 4.267362117767334 0 0 0
-0.48722079396247864 0.40159326791763306 4.194075584411621 152 152 152
-0.5063377022743225 0.4013287127017975 4.184398651123047 183 183 183
-0.5235733389854431 0.38565686345100403 4.156650543212891 232 232 232
1.1703499555587769 0.3598417043685913 3.975843667984009 216 216 216
1.0409809350967407 0.37206611037254333 3.948132038116455 132 132 132
1.016010046005249 -1.2229864597320557 3.4755430221557617 22 22 22
1.1723670959472656 -1.1904184818267822 3.4359071254730225 136 136 136
1.110575795173645 -1.0872771739959717 3.4379496574401855 144 144 144
1.0563209056854248 -1.0509514808654785 3.4392549991607666 24 24 24
1.1316087245941162 0.3554752767086029 4.007833480834961 47 47 47
1.008304238319397 -1.0516177415847778 3.4788200855255127 24 24 24
-0.4705773591995239 0.36625173687934875 4.137773513793945 92 92 92
-0.4392774999141693 0.3633594214916229 4.223299980163574 2 2 2
-0.1673925220966339 -1.1243163347244263 4.289914608001709 41 41 41
-0.4550992250442505 0.3618537485599518 4.182581901550293 71 71 71
1.1566370725631714 -0.7630860805511475 3.4962315559387207 67 67 67
0.19751830399036407 0.2928226590156555 4.36940336227417 238 238 238
-0.45780786871910095 0.24801458418369293 4.204343795776367 69 69 69
0.8680629134178162 -0.7425325512886047 3.6322431564331055 74 74 74
1.3867874145507812 0.21221259236335754 4.296755313873291 74 74 74
1.1670079231262207 -0.6162805557250977 3.2639455795288086 219 219 219
0.8843135833740234 -0.6758632659912109 3.6696505546569824 55 55 55
0.9765501022338867 -0.699611485004425 3.761552333831787 82 82 82
1.2678415775299072 -0.6906268000602722 3.7741315364837646 156 156 156
1.0209563970565796 -0.6466856002807617 3.808445692062378 55 55 55
-0.9743767380714417 -0.03334217146039009 3.587026834487915 119 119 119
-0.7693684697151184 -0.061948951333761215 3.779068946838379 134 134 134
-0.8154418468475342 -0.05258055776357651 3.7816996574401855 111 111 111
-0.9272041916847229 -0.41598743200302124 3.6419036388397217 108 108 108
-0.6544116139411926 -0.4620964229106903 4.033541202545166 100 100 100
-0.9426265954971313 -0.061792194843292236 3.648824453353882 107 107 107
-0.4413568675518036 -0.42940807342529297 4.058491230010986 129 129 129
1.527167558670044 -0.46670085191726685 4.514649868011475 151 151 151
-0.6258773803710938 -0.1013006716966629 3.991960287094116 92 92 92
-0.593549907207489 -0.2514566481113434 3.954928398132324 140 140 140
-1.2848448753356934 -0.19702483713626862 3.520331621170044 161 161 161
1.280333399772644 -0.2375522404909134 4.082752704620361 67 67 67
1.3972421884536743 -0.22845281660556793 4.283133029937744 196 196 196
1.0408220291137695 0.5672405958175659 3.7158474922180176 54 54 54
-0.7938758134841919 0.6173368692398071 3.944722890853882 139 139 139
-0.903788685798645 0.6074625849723816 3.7362754344940186 25 25 25
-1.0152349472045898 0.6481500267982483 3.7065906524658203 138 138 138
-0.17578580975532532 0.8028408885002136 4.565977573394775 93 93 93
0.49351322650909424 0.6982027888298035 3.9456417560577393 139 139 139
-0.7765326499938965 0.7498431205749512 3.9697654247283936 108 108 108
-0.408889502286911 0.7965519428253174 4.378300189971924 107 107 107
-0.7308350801467896 0.7299730181694031 3.8712806701660156 89 89 89
0.18230898678302765 0.8219410181045532 4.260647296905518 14 14 14
-0.44617602229118347 0.8753746151924133 4.352180004119873 22 22 22
-0.37626194953918457 0.860015332698822 4.311619758605957 105 105 105
0.34580087661743164 0.8197919726371765 4.056126117706299 34 34 34
-0.9589119553565979 0.8185144066810608 3.8020761013031006 113 113 113
-0.7045665979385376 0.9082223773002625 3.9722437858581543 176 176 176
-0.7530278563499451 0.9484711289405823 4.087332725524902 74 74 74
-0.972273051738739 0.9717947244644165 3.7830967903137207 143 143 143
-1.0143541097640991 0.9796958565711975 3.763622283935547 107 107 107
0.5398563146591187 1.0577518939971924 4.032744407653809 101 101 101
0.3376869857311249 1.1739732027053833 4.146698474884033 32 32 32
-0.909080982208252 1.1324825286865234 3.9030418395996094 97 97 97
-0.8982980251312256 1.2418403625488281 3.8947219848632812 110 110 110
1.0587395429611206 1.1330995559692383 3.5607144832611084 21 21 21
-0.9183611869812012 1.2786448001861572 3.887187957763672 160 160 160
0.8024340271949768 1.2096428871154785 3.7144343852996826 113 113 113
-0.9117081165313721 1.311381220817566 3.989018678665161 17 17 17
0.8512113690376282 1.2121872901916504 3.684011936187744 138 138 138
-0.9622545838356018 1.3004074096679688 3.8547780513763428 51 51 51
1.2061678171157837 1.127007007598877 3.354841947555542 48 48 48
0.8223384022712708 1.281793236732483 3.7561826705932617 108 108 108
-0.9881646037101746 1.3188023567199707 3.8070974349975586 103 103 103
0.884789764881134 1.3183250427246094 3.7095987796783447 147 147 147
-0.9405274391174316 1.461289405822754 3.873410224914551 122 122 122
1.2650038003921509 1.268201470375061 3.3359251022338867 34 34 34
-0.991901695728302 1.4854934215545654 3.889345645904541 141 141 141
0.869459867477417 1.4194284677505493 3.713198184967041 55 55 55
1.2696750164031982 1.2814252376556396 3.324211835861206 144 144 144
1.1861082315444946 1.3391810655593872 3.4395229816436768 133 133 133
0.9511843323707581 1.4343135356903076 3.652353048324585 13 13 13
1.1941559314727783 1.3454723358154297 3.388828754425049 66 66 66
1.2466074228286743 1.3403979539871216 3.3714187145233154 140 140 140
-0.010541650466620922 0.42831099033355713 4.613988399505615 126 126 126
-0.19128678739070892 -1.7906100749969482 3.995107889175415 58 58 58
-0.46787068247795105 0.544499933719635 4.292940616607666 29 29 29
0.23074249923229218 0.5458165407180786 4.350736141204834 178 178 178
0.8026778101921082 -1.6322412490844727 3.5876824855804443 8 8 8
0.7711396217346191 -1.5679281949996948 3.458862543106079 8 8 8
1.0580356121063232 0.5248998403549194 3.7787575721740723 209 209 209
-0.25017833709716797 -1.4747353792190552 4.169646263122559 82 82 82
0.8102934956550598 0.5643822550773621 3.870346784591675 37 37 37
-0.40716302394866943 0.6436635851860046 4.336957931518555 100 100 100
0.6840199828147888 0.5828414559364319 3.978111982345581 113 113 113
0.08193355053663254 0.34458106756210327 4.4614481925964355 133 133 133
-0.651611328125 -1.2483751773834229 3.7992899417877197 48 48 48
0.04542001336812973 0.7293651700019836 4.371278285980225 10 10 10
-0.5136573314666748 -0.4531482756137848 4.117429733276367 13 13 13
1.2433745861053467 1.2185417413711548 3.2664506435394287 87 87 87
1.1002801656723022 -0.515915036201477 3.8630175590515137 27 27 27
