ply
format ascii 1.0
element vertex 719
property float x
property float y
property float z
property uchar red
property uchar green
property uchar blue
end_header
-2.1031169940938925 1.0818167143154622 4.134397991377295 15 15 15
-2.277438119451608 1.193643265842765 3.6295896025076324 2 2 2
-2.165281818214867 1.3312557736475221 3.919938246557873 15 15 15
-1.928785600793817 1.4004196853866264 4.694719102188267 77 77 77
-1.9923970610880462 1.422918042543012 4.176777749112121 57 57 57
-1.581704832539411 1.3721443070068093 5.394850746047529 45 45 45
-2.5324727246324628 -1.1223008954580544 3.25290369673106 18 18 18
-2.5744439388654965 -0.7239661198986136 3.019495101026414 82 82 82
-2.385982056419457 -0.8428956147577918 3.5731155787811693 80 80 80
-2.566614022551923 -0.7084716218684419 3.040890327531648 17 17 17
-2.120815881612608 -0.797353263394779 4.349028828105404 69 69 69
-2.533113842815485 -0.49132464097808776 3.084620561653726 2 2 2
-2.3826079140648924 -0.5768540031751768 3.5668316607037074 85 85 85
-2.431430940094155 -0.36004542138731443 3.3912341603840366 1 1 1
-2.158423516250567 -0.32232413572709484 4.187537146487964 1 1 1
-2.346615803907926 0.2107907854198412 3.7034848097655066 80 80 80
-2.451845638619806 0.4285129658603517 3.246767682907446 82 82 82
-2.0234417690545996 0.39480761517777574 4.545970321385612 10 10 10
-2.3312662658767924 0.5830653071341347 3.512083524726946 13 13 13
-1.811952521470373 0.5001363044322278 5.066432883998663 46 46 46
-2.3044600530691093 1.214254526234443 3.583449551101827 97 97 97
-1.9221499095470507 1.3887468455731051 4.679893718913819 93 93 93
-1.9918467528868935 1.4204055798530004 4.176147926555988 72 72 72
-2.6140279984488384 -1.2649863100679248 2.961494774866667 47 47 47
-2.567372050055998 -0.702919042279432 3.034044336685155 18 18 18
-2.387099229249996 0.819583331640237 3.30354317601867 12 12 12
-2.4279354493751653 1.0786517246459675 3.3009186562897375 153 153 153
-2.3619824814695947 1.2210939192335886 3.3672985575103502 11 11 11
-2.3194262834865693 1.4419811908873226 3.4400229135699982 73 73 73
-33.3531386044658 9.029564121368159 14.878453930084412 49 49 49
-43.53405079595948 11.182540581791544 20.75710335543385 12 12 12
-34.72230989210868 12.729178492382673 18.29038999117034 49 49 49
-34.44767453488398 20.30037169832536 20.589132950194497 36 36 36
-25.868793691277197 8.304516568223486 14.404314638649547 36 36 36
-46.64365222648591 -7.389160231931198 20.580645878917835 53 53 53
-39.10659340262539 -8.896880000745252 17.135656815068092 50 50 50
-21.810192684145324 6.316344315303782 13.291374040428884 13 13 13
-21.810192684145324 6.316344315303782 13.291374040428884 13 13 13
-27.346435468719864 7.073945102390975 16.5053140830672 39 39 39
-37.484725855486026 8.120347595060652 22.531322206430676 39 39 39
-43.12132761299772 1.425280715147734 23.569479609504477 84 84 84
-42.24598445271317 8.623248931315393 25.258703473561667 68 68 68
-39.0405182583924 8.107025066670259 24.499065626092836 45 45 45
-37.86380083474616 27.055726730221043 28.93371932820549 56 56 56
-39.31408407885462 9.236574808760029 25.05053261475466 36 36 36
-34.653111029283494 17.063648263462525 25.597024752279328 10 10 10
-43.03777786452192 5.651407630355089 27.427499838380808 2 2 2
-13.705279728790657 4.159786194625203 10.674211176542567 58 58 58
-12.47671914858912 3.323976512312675 9.978011138688286 44 44 44
-26.30396355914456 7.894108942087069 20.21960834531975 32 32 32
-38.58428686302622 7.829890192967101 29.02166039637745 48 48 48
-38.58428686302622 7.829890192967101 29.02166039637745 48 48 48
-30.620755270698442 20.89013928037946 29.163341022365724 52 52 52
-38.978917640401534 4.058205500052189 30.52558606443043 37 37 37
-29.5292612131072 12.732645570231108 26.757185252790215 39 39 39
-31.901680266274944 -7.642041399040614 23.294983864995018 39 39 39
-29.31954748982069 12.665560674584583 27.55877527079868 46 46 46
-26.263409932913227 19.087299374881415 27.205463030938898 8 8 8
-26.263409932913227 19.087299374881415 27.205463030938898 8 8 8
-34.079603265309196 7.838963901580097 29.72235223723647 46 46 46
-25.164950162755076 8.602376337856487 23.301041325680828 40 40 40
-27.26042022354754 15.949831492516788 27.36410171837376 13 13 13
-40.23786627330792 -7.755199183637442 30.47501173117301 73 73 73
-30.857904757536186 -6.31885351151885 23.870195362382788 11 11 11
-30.857904757536186 -6.31885351151885 23.870195362382788 11 11 11
-38.1083649692588 -18.36135585199486 26.129998917483118 39 39 39
-24.113028456272428 14.090764337990569 25.143545539488947 13 13 13
-31.422700426230858 3.217044832848793 27.62716063398992 76 76 76
-27.88382046287871 15.05181335739402 28.544396482582734 41 41 41
-36.219503687010246 -5.5630029745565945 29.5554305137691 29 29 29
-39.584724109678206 -23.78495650258179 27.258133851098076 28 28 28
-39.73397427111232 15.117209703412733 31.58479598100268 108 108 108
-23.19304585993262 11.133749001281268 15.354704067086493 2 2 2
-32.23072994883336 11.953585046100448 30.386041829035992 92 92 92
-12.011380881732386 2.6588512032183056 6.913716963480547 34 34 34
-32.60226398246764 3.9392474668186406 23.956080499274027 53 53 53
-42.6254957472297 11.03294799079687 23.63270378337459 94 94 94
-25.922735831983108 6.297931335465512 20.3828135474519 7 7 7
-28.324739468206797 5.307612400902158 18.523906743121326 103 103 103
-32.4385377342518 10.07293119699392 25.13207408379493 17 17 17
-20.713430835226404 8.515204247981487 13.316531093008637 60 60 60
-23.33372809118457 7.1173917352813785 21.923653445812633 7 7 7
-32.465683890006694 10.081919928414091 25.151907019264183 17 17 17
-32.593842498192856 3.9380849520452283 23.950252623577384 53 53 53
-35.11032512877243 9.13172922524744 20.280440941077593 71 71 71
-38.21392930905446 7.3049080250782215 24.817103258636372 60 60 60
-19.9489909088039 3.589667403748048 13.513394648611811 43 43 43
-39.24784108524934 -3.6281029339163817 30.695848835818513 1 1 1
-40.21088706300558 0.8381727814937576 22.134940670545262 74 74 74
-25.578679904144646 1.1140812430248321 18.96850267599758 2 2 2
-34.23290655045515 17.416154650760163 32.999078693336635 41 41 41
-28.75928188101784 8.894909439396514 14.361319451335488 26 26 26
-34.66088705868965 11.021867662182894 30.9449965350781 80 80 80
-35.536578819418544 -7.6333429237224 27.034717665983713 57 57 57
-33.67927405623806 3.081544840522927 29.03818077881683 104 104 104
-44.87975087625899 6.235718904392744 25.679426369965626 3 3 3
-31.14711168867653 5.894177155176993 20.228442300937576 94 94 94
-38.17931834120168 7.297747395197193 24.796136876626175 60 60 60
-33.09387190264981 7.969940607934221 29.841971511924683 69 69 69
-28.75408319128319 8.893194209318457 14.359004244021254 26 26 26
-23.069367940537628 7.145780742721518 21.068282267744546 61 61 61
-40.416786423274154 17.09919702552048 19.60440941673383 23 23 23
-34.806107804221604 15.603969193790613 32.81867371024885 46 46 46
-32.26618120404323 3.89153389271444 23.72561885554278 53 53 53
-34.471233314457045 6.503839006305974 18.86221525106959 60 60 60
-29.999739193033147 5.948724634202508 14.463941972791297 3 3 3
-25.756030391438042 4.779721510889056 16.98506638892158 29 29 29
-38.17920730361108 7.297723372608651 24.796071508330073 60 60 60
-40.922748811586395 10.588763206615175 22.73529923343234 109 109 109
-14.122233287281425 5.584483171320113 9.259063912795135 29 29 29
-40.66780770330528 -1.5415869982458432 23.797292478165765 67 67 67
-28.02145406568453 1.8226786825642172 15.13367019280123 18 18 18
-39.6415922799796 7.507718140577191 21.413962301484183 63 63 63
-38.177306582702165 7.2973464460693815 24.794889855803245 60 60 60
-20.8697267201941 3.7654261238990063 14.03614344026165 60 60 60
-9.583863920417919 2.580792875913004 5.972450789704175 85 85 85
-31.15752889789065 13.907530951405757 30.039412201389993 26 26 26
-24.840658529547795 14.56665268637816 25.330500931723655 71 71 71
-47.09132844534571 -7.352010655033643 21.314546033381593 78 78 78
-40.825432502563636 7.720287747796371 21.95032723133971 59 59 59
-29.95095022381003 5.937997737161502 14.442805445430913 3 3 3
-38.147416575950025 7.291200281661405 24.77680537897911 60 60 60
-16.28833380865133 2.823295494356386 11.290281587139132 56 56 56
-15.898303242339468 4.561937027395697 10.145595277951976 11 11 11
-19.361700181000298 5.807913334683538 13.80051085698726 53 53 53
-32.37051262442268 11.865678930761543 22.806611475985008 12 12 12
-33.02953037539312 3.999656140482375 24.24852616070439 53 53 53
-29.944542049648735 5.9365891822063235 14.440026605331138 3 3 3
-38.178921676380675 7.297663565761862 24.795879845679526 60 60 60
-6.344001839525218 1.436917133722844 4.952897211794529 17 17 17
-29.246204037254174 10.604270328819068 20.725781417609962 10 10 10
-38.17945318794139 7.297775475771722 24.79619859996786 60 60 60
-4.224169582678039 0.7578352807232229 3.8068538113080326 12 12 12
-29.608507291118727 25.965214989633097 41.88061795650019 51 51 51
-29.608507291118727 25.965214989633097 41.88061795650019 51 51 51
-25.050769271571866 20.42588103807855 38.360064422762875 111 111 111
-25.914976909359225 16.165084971884262 40.14528325983955 32 32 32
-25.914976909359225 16.165084971884262 40.14528325983955 32 32 32
-24.85038416704451 -20.872880963727688 28.16319537854187 98 98 98
-24.85038416704451 -20.872880963727688 28.16319537854187 98 98 98
-20.24981671970076 20.349383504663024 35.64900405797586 94 94 94
-20.923020989078594 -17.306754728599802 24.99578871481438 36 36 36
-20.923020989078594 -17.306754728599802 24.99578871481438 36 36 36
-19.934240447293732 -14.360016753726425 24.956339939483723 41 41 41
-29.281743944637093 -20.570605999139072 36.010111439933645 43 43 43
-23.656652428572777 22.26536900559473 41.979735170330784 67 67 67
-30.18502075588504 -26.489247151276746 36.01173256575888 123 123 123
-25.16003370016847 22.58369061308599 45.183223953059965 69 69 69
-30.52438149237468 -24.85414613813984 37.853895646108924 133 133 133
-30.620881463629217 -29.776002692959665 36.68164994137707 29 29 29
-16.552804748899497 2.1013769594649037 26.82318447467611 116 116 116
-26.005492514956998 16.664715572281132 45.5100507565609 90 90 90
-25.842430650189982 -27.216956067516808 31.22122859675803 78 78 78
-30.244141827047066 -21.261287515521953 39.52952076827332 131 131 131
-23.495351053592557 16.948613809534645 42.16070954958064 24 24 24
-28.894309935908353 -9.783719177684606 41.423658801271536 86 86 86
-23.270485919567882 18.103309648962956 42.40073566084833 119 119 119
-28.100689949555296 -25.423018298431135 35.59549679904724 35 35 35
-26.061173822757965 1.440959050344254 41.485698956630785 56 56 56
-27.80469915464179 -25.881087484826118 35.29640474142797 98 98 98
-24.280331171733515 -26.797500680618356 29.700873479911202 84 84 84
-22.642999372940523 9.112089062558999 39.36644667490283 50 50 50
-27.215020004387327 -0.6225499684731837 43.08637559322813 65 65 65
-20.88532347730633 14.800679141973093 38.955547800782135 57 57 57
-15.423544125029215 11.423951583467359 29.386065200562 16 16 16
-19.11053124435079 -11.564785491160869 27.58307859948881 111 111 111
-25.881366063689136 -22.882581439808316 34.44072082341583 129 129 129
-26.702734531713112 -17.327666895723407 37.68899775083518 123 123 123
-22.48465894268817 -17.84180342182343 31.20169621352871 118 118 118
-25.516427376120554 -3.9899007393402335 40.786271662793226 122 122 122
-22.691108432889088 -15.603754495269554 32.64146748084147 115 115 115
-20.558767226558828 0.24477658156487025 34.65634182700234 81 81 81
-25.174235906314905 -3.761999515790802 40.54327614302908 62 62 62
-24.25860257366024 -12.592195876717092 35.89841518771782 105 105 105
-23.69455430471482 -22.741111029664932 31.851374530512803 40 40 40
-26.508693044262706 -19.933663070858287 37.30356897909488 43 43 43
-22.540360023062618 -20.38451943049225 31.273268460292652 151 151 151
-22.54895025661081 -20.39165571675497 31.28481888904774 151 151 151
-16.485336714354986 18.402907414375022 34.8820024462822 59 59 59
-25.93221575832179 -16.680212613891953 37.84204493601821 27 27 27
-15.474227660095137 16.129124494373343 32.63400961348864 57 57 57
-21.148014857664002 11.968438887389205 40.260109877015886 69 69 69
-24.283906075526147 -17.95043147700858 35.2240977378447 124 124 124
-23.184266769946184 -2.387175564470092 38.83245268072422 65 65 65
-24.36156068873531 -6.307679718927864 39.40583870014246 16 16 16
-24.040152712944142 -21.29473340581852 33.762455949213845 116 116 116
-24.49332436436979 -21.096455903933432 34.551311599486766 116 116 116
-23.59898799064863 -23.44081085802712 32.331696182589155 40 40 40
-22.59871822646273 1.4110841969843744 39.28172257560003 70 70 70
-22.395709638777006 -9.474316532586746 35.000374677105334 24 24 24
-22.655176600758836 -21.9917314722386 31.391037140167093 117 117 117
-20.6728123572928 -23.286942527308856 27.87983152322405 98 98 98
-22.58848586863894 -3.9926643014542065 37.736309240285216 23 23 23
-24.6491581078986 -2.32059524679819 42.01812499767478 161 161 161
-26.779552484519193 -15.003869290964124 40.87455791778874 111 111 111
-22.97206455276133 0.16148933997906723 39.898896264770755 16 16 16
-22.97206455276133 0.16148933997906723 39.898896264770755 16 16 16
-22.421888540668967 -0.13286716752139827 38.88959470647893 15 15 15
-21.96933059671167 -20.766405713900998 31.072031690843318 114 114 114
-21.96933059671167 -20.766405713900998 31.072031690843318 114 114 114
-24.65549149273229 -2.320965383140023 42.028625677981495 161 161 161
-20.577531402770745 -20.51577690030792 29.008076607237598 122 122 122
-20.973547305825235 4.786407128854993 38.468070652093736 16 16 16
-21.418807154541618 -14.567725492512581 32.52476651779587 122 122 122
-22.010465076951675 -20.97566126585951 31.338955168230306 130 130 130
-20.49785533190127 6.834174816729241 38.619104430821324 3 3 3
-17.722064261714387 12.66669209952357 36.03658902881656 62 62 62
-22.470530973861024 -21.05524322451576 32.15771474553007 42 42 42
-22.470530973861024 -21.05524322451576 32.15771474553007 42 42 42
-18.98504778746564 9.856455160120474 37.367952757660866 20 20 20
-18.98504778746564 9.856455160120474 37.367952757660866 20 20 20
-21.630690888290694 -26.875149182813445 29.049981172299336 71 71 71
-17.630216845127016 1.1369573993173496 31.904027233131988 155 155 155
-17.630216845127016 1.1369573993173496 31.904027233131988 155 155 155
-22.48186637642621 -14.959052899019367 34.62063296403254 106 106 106
-22.48186637642621 -14.959052899019367 34.62063296403254 106 106 106
-23.176509724518596 -17.017753605264993 35.185608669376904 114 114 114
-23.526787663710962 4.836425678260206 43.445145363430896 69 69 69
-22.33060727577258 -5.246175920206967 38.11559589461199 67 67 67
-19.485786184364486 -20.79285539393991 28.00899306592124 111 111 111
-19.234850553106114 -21.483164391723754 27.331245098253873 115 115 115
-21.151938916554293 -4.491411044615519 36.58526740406524 72 72 72
-15.622206612964257 -16.15393309378305 23.18502486331324 113 113 113
-16.523672124346362 -4.035826304872892 29.083996062000956 118 118 118
-17.94902730853036 3.2733326049503333 34.09726851081273 56 56 56
-20.018605562923454 11.17925136141328 40.667282354056425 49 49 49
-20.435471913819804 3.909039169754215 38.924857817853116 63 63 63
-20.435471913819804 3.909039169754215 38.924857817853116 63 63 63
-20.686289977900998 -19.90799450099345 30.953974948941053 93 93 93
-20.35727529167484 -8.503792590090843 34.6432383202301 88 88 88
-20.35727529167484 -8.503792590090843 34.6432383202301 88 88 88
-13.031815898258966 -14.366988243230699 19.923999617828375 118 118 118
-17.368875804884844 -17.401545836281137 26.277806736274414 57 57 57
-17.962724915932284 5.038228450966864 35.532698371380384 55 55 55
-19.58204502736637 5.596231631134218 38.581418031174444 53 53 53
-20.31493024660319 -22.059016012988184 30.10924432778533 27 27 27
-20.31493024660319 -22.059016012988184 30.10924432778533 27 27 27
-19.806773868608936 -17.403072357317043 30.93094935249253 121 121 121
-19.157786671557417 -16.303424474629402 30.253744989611583 109 109 109
-18.751377388108978 -17.10203380260767 29.347042903403374 113 113 113
-16.356102568556267 19.0761119111797 38.56628080150357 18 18 18
-16.356102568556267 19.0761119111797 38.56628080150357 18 18 18
-19.04033432204458 -9.00492212467991 33.46204932715048 127 127 127
-20.86412195274626 -13.380889112071367 35.18733886270289 29 29 29
-19.94940468014304 15.554583897666706 44.351745247951925 126 126 126
-17.98169520903206 -0.7800339602452683 34.760958979773584 83 83 83
-18.74176272269193 -8.870626960624579 33.20335142491174 25 25 25
-16.624195893077996 -19.566902500841504 25.542558729542634 96 96 96
-18.892390931448602 -7.569600604670563 34.05321348533395 19 19 19
-19.06855828339784 -5.66212492372131 35.256876488143 21 21 21
-21.970102523185496 -8.038210232604301 39.6467509087373 73 73 73
-19.183962506520828 -11.393896846342669 33.3926897594718 94 94 94
-18.97716577661118 -7.8620041574216994 34.46291278651991 95 95 95
-17.672531690441105 -0.5568009025084378 34.81525141552372 18 18 18
-16.98809975362812 1.2505201559790824 34.291134778708845 2 2 2
-15.747922014186079 8.638806701091829 34.75350146068345 57 57 57
-15.925245900028775 8.745554626723441 35.126746206037836 57 57 57
-16.97366787664877 1.2485098882622538 34.26403818332544 2 2 2
-19.875828982907876 -6.414509588682341 36.81340601175579 76 76 76
-19.291309020597886 -3.274552374714239 36.65744618951988 74 74 74
-16.846586163552566 4.353708088925982 35.41724014459801 60 60 60
-17.486553496613567 3.429497775118758 36.39419327424031 54 54 54
-15.477624658566063 7.387628139012783 34.18861919974522 18 18 18
-13.774776399991651 12.659359431137919 33.17470372420904 19 19 19
-14.610789875921382 10.173439689850946 33.79357416367705 1 1 1
-14.610789875921382 10.173439689850946 33.79357416367705 1 1 1
-22.5179371381518 -25.008653905069842 35.58063212908736 13 13 13
-13.569425641189863 11.674873215568732 32.784892720828864 42 42 42
-14.966092526824157 -0.20265296892377038 30.946245185876414 66 66 66
-15.983856798151068 -7.932669289020751 30.06416123936933 70 70 70
-16.648687210249598 -4.893446575266121 32.6945514078401 105 105 105
-13.079589779955189 11.175376208265442 32.236785998564955 43 43 43
-13.21524230416362 -18.447008280231156 21.175460965169602 73 73 73
-14.118153383029155 -5.7348615762436985 28.051143938956592 67 67 67
-15.175661094880654 1.4192401402594768 33.01485192786611 80 80 80
-15.175661094880654 1.4192401402594768 33.01485192786611 80 80 80
-12.86447183929311 -1.3010018847752507 27.49953177798275 69 69 69
-14.27733567167556 0.5185172961458436 31.098656824420978 84 84 84
-14.27733567167556 0.5185172961458436 31.098656824420978 84 84 84
-13.981264969443671 10.837238846116158 34.59674686230353 51 51 51
-13.636204932280727 10.533998162021751 33.820931186417695 62 62 62
-10.425360890466752 12.048041634726683 28.530000671166214 59 59 59
-11.790574079279887 8.784625805126511 29.99484049764827 8 8 8
-15.996204080482949 -0.32516335808194896 35.10380599876981 71 71 71
-9.433028590341682 2.8443443997014306 23.264558033220602 73 73 73
-14.77360815446847 -8.69749658734074 29.958375648732936 23 23 23
-15.50566494438385 -10.266634429253575 30.870199354899814 29 29 29
-14.019548887420946 -2.9641625888879597 30.735018909592302 77 77 77
-14.967559372631618 -10.332865414485044 29.90085467375295 42 42 42
-14.967559372631618 -10.332865414485044 29.90085467375295 42 42 42
-15.150683020133554 -12.132532640731531 29.850066023383015 84 84 84
-14.90398944054599 -9.269205651818016 30.112104739417344 13 13 13
-15.380378628147907 -2.5603791392438997 33.84500645377612 85 85 85
-13.139989689309852 2.847652151770706 31.69360518941632 21 21 21
-12.979384546943592 2.7886772622847924 31.332836557799535 23 23 23
-8.679940836385367 9.121254780703346 24.83061554458999 41 41 41
-13.031457623318314 2.3917697117263765 31.448764243257447 12 12 12
-8.520037282401605 6.907169667774045 23.458124554303712 72 72 72
-13.801151336457883 0.7974306422328991 32.37256572323521 17 17 17
-10.4078995209207 12.831597839908138 30.205380839098655 19 19 19
-11.933142758403232 4.99415300183795 30.253509697637018 17 17 17
-15.191448698758196 -12.364077525136846 30.272007743231857 27 27 27
-15.191448698758196 -12.364077525136846 30.272007743231857 27 27 27
-11.281489397790871 7.5942760995432295 30.112355218983243 20 20 20
-14.809916460238105 -15.216293551813317 28.42895081172419 36 36 36
-15.730282561783133 -14.16506729696999 30.90125879228532 107 107 107
-13.414285413668768 -18.418661421082625 24.187623636072633 28 28 28
-14.26996443073767 -10.05806482796152 29.62009664123064 95 95 95
-11.92700820430756 0.6630037067324824 28.96658757262087 15 15 15
-12.3875502612946 2.666862185788898 30.980056128127394 60 60 60
-10.07458765633413 9.569888126490147 28.783747226141227 19 19 19
-11.4310876274323 9.21069902188583 31.378894168728976 138 138 138
-18.182594908175993 9.619238196537275 46.85299836268389 68 68 68
-11.947466873306904 -11.067800465505464 24.85162110412865 92 92 92
-10.71113049291327 9.316603093127119 30.54761279575531 48 48 48
-11.862728716657099 0.9002622411142566 29.67835742849441 70 70 70
-8.430137168441284 8.551836789853354 25.346226320501998 52 52 52
-12.960331442121946 -1.6899030060101132 31.105261149168495 62 62 62
-12.960331442121946 -1.6899030060101132 31.105261149168495 62 62 62
-11.761123998850074 2.8125821300229568 30.414958908878543 68 68 68
-10.9693592342525 1.5316936624343045 28.260002094671396 76 76 76
-12.892799771414465 8.40245547534053 35.2932907366443 73 73 73
-12.016702880429518 -19.097311128508746 21.9775589545694 63 63 63
-18.881854420718113 -16.986803142240085 38.275672362783055 98 98 98
-12.79836331553319 0.13758163741718843 31.9481547715463 71 71 71
-12.333881123307489 -5.969512918760291 28.447165347257883 85 85 85
-11.013861132727579 -4.175338575993056 26.518036144105615 68 68 68
-12.370036735900204 -3.8484020683410716 29.680205948534667 30 30 30
-13.717699432082277 -11.100969602828178 29.666683752738926 74 74 74
-12.887146295488014 -8.191491878956073 29.094468830666298 112 112 112
-12.009908058309787 1.3354093322195997 31.308202021698587 66 66 66
-7.943681501002951 7.72294308812123 24.707398331493952 66 66 66
-9.75251072773078 9.083454403090006 29.694704676841997 79 79 79
-10.096851089180982 -8.255306527587162 23.013227418967283 31 31 31
-16.140874687540567 -1.7113877145571679 40.59863433554556 73 73 73
-9.112352242160746 8.370928646170235 28.2473284839581 47 47 47
-11.915999474355662 -4.327231980362397 29.364112956072844 76 76 76
-14.396285210088175 -5.660641254891613 34.83953387291339 72 72 72
-8.624321927761146 8.172645126311242 27.320940077465718 55 55 55
-8.624321927761146 8.172645126311242 27.320940077465718 55 55 55
-11.877178521694434 -5.672037483110762 28.764917057530234 49 49 49
-11.877178521694434 -5.672037483110762 28.764917057530234 49 49 49
-10.778119395026966 5.912339744098509 31.474166179157855 54 54 54
-11.493749722185447 -7.856055668848693 27.355097105406667 105 105 105
-11.480762554527871 -6.643507624102928 27.856326176384115 168 168 168
-11.25221747288137 -3.955608420961154 28.703923279906327 100 100 100
-11.056723774158483 -0.9762224084002336 29.697054843894612 85 85 85
-9.40296442096692 5.481759488304721 28.58620469597638 53 53 53
-8.315189612911583 8.063643930997491 27.116028772139444 57 57 57
-11.278775333610701 -9.614994314520853 26.822412801197267 129 129 129
-11.22694245434722 -3.8902611426038547 29.090429022706786 18 18 18
-11.32581443992083 -7.765908263239505 27.651232612555617 54 54 54
-9.265734177353309 7.544885690609691 29.500461600693715 63 63 63
-12.009563170534038 -6.152692030473918 30.16011492633798 70 70 70
-9.995343533203886 0.5715495594104528 28.291572785384954 25 25 25
-10.710712626457848 -0.8893684794784983 29.37395077244402 15 15 15
-8.820985876110175 2.9428628525835108 26.59004103895267 22 22 22
-8.19987906015444 9.090604031850463 27.82035205498142 16 16 16
-8.409591216064731 8.087426622816594 27.953480948320887 14 14 14
-10.615230647268566 -8.266362479689628 26.07581145012912 72 72 72
-8.542643245503328 5.502678947297404 27.192525476075843 7 7 7
-8.806327150212583 4.322277907288974 27.582279409276705 161 161 161
-10.310040517264678 -6.363367744212575 26.09784709561489 15 15 15
-9.909123827790886 -8.546887058552768 24.501640149416392 70 70 70
-7.726500546695219 8.830971646486692 26.853085454530323 139 139 139
-11.330053188993187 -7.270105736802257 28.704341246361658 71 71 71
-8.802109746425424 7.426412903812507 29.019499595757875 66 66 66
-8.299970662008171 -0.8635781217304239 23.827346536493685 127 127 127
-9.665352779149742 -6.836537839225563 24.89087440890482 70 70 70
-9.96649418223486 -8.333199396888418 24.702980834838677 85 85 85
-8.63614702194682 4.30046912417775 27.542890272191773 20 20 20
-8.256700299813387 7.9579491441692145 28.385813313265402 69 69 69
-7.46178748772703 2.9072952581103184 24.15016809103129 52 52 52
-9.163874678341625 0.015254561336177308 27.482164373547658 77 77 77
-10.70532780923547 -12.232727584772244 26.167551928781638 88 88 88
-8.921275117639828 9.863781368211383 31.987317077947168 33 33 33
-6.6288224899306964 9.72482608359455 25.94705811806949 48 48 48
-8.438661783608328 7.203137685744318 30.082367326986017 61 61 61
-10.474651814542929 -2.7024725072232334 30.972437307057902 74 74 74
-8.070714269123691 1.466395763719702 26.866623842893567 60 60 60
-8.070714269123691 1.466395763719702 26.866623842893567 60 60 60
-6.058984431113528 8.806973534123856 26.054806967975402 53 53 53
-15.503337985367482 -4.004842877345668 33.55292172260543 181 181 181
-9.06681443184693 1.7125162773119964 26.765470696063506 1 1 1
-24.599658916584808 -18.273653305034316 35.45502452098361 111 111 111
-24.653110960536573 -2.320857479899713 42.02479107099152 161 161 161
-21.524959510644955 -16.135959254376676 31.1692623755666 135 135 135
-11.251655524805173 -9.72394227568302 26.696792967896222 125 125 125
-9.066178249528425 1.712339687994917 26.763741880862476 1 1 1
-17.619471266986523 1.1358295089942407 31.885957645340046 155 155 155
-19.18612298498254 -19.093391540148826 29.483692659363502 24 24 24
-13.2827931387854 1.0415508036768317 36.55865643602408 25 25 25
-10.1261467069693 -0.8172834419011964 28.3813986320412 127 127 127
-13.031088675985039 2.391671764203657 31.44793651068624 12 12 12
-26.156986673511966 -19.315192462073174 37.066580195106184 31 31 31
-26.160922351895735 -19.318018878573685 37.07170172187491 31 31 31
-24.283567341748686 -17.811630399113486 34.876017926083215 17 17 17
-19.670389897143934 -18.29992028604695 30.73520554064943 32 32 32
-16.97236681265963 1.2483302574702342 34.26161428721661 2 2 2
-10.475255664824344 6.82465657099826 32.5436270047967 7 7 7
-26.142450351752153 -19.305063420013514 37.04686815403431 31 31 31
-17.25854782158992 -6.802654984164518 30.76179534809668 26 26 26
-8.529226673496074 5.493586767482381 27.15526947632975 7 7 7
-21.042174949077896 -15.837499134186796 34.115814575744324 132 132 132
-13.029270162013098 2.391154059200577 31.444003052268343 12 12 12
-17.0040141268584 -12.954964308038086 27.84032480440619 160 160 160
-18.384483808626598 -20.179405986912574 27.635332513692582 23 23 23
-9.998002053273828 0.5719416241955632 28.298280107069125 25 25 25
-14.453876155251633 -12.905859618817708 27.804826732999018 14 14 14
-19.813383385668956 -16.868932200527137 31.607365592939274 102 102 102
-20.492473212814396 -20.854756995375055 31.2826364412598 133 133 133
-24.696565411339357 -14.368112435250543 37.235683935350366 59 59 59
-23.290385515447987 -22.83866929378451 31.65081246366968 103 103 103
-15.642182143737466 -10.445971822479517 30.862197238878903 8 8 8
-21.59729590120706 6.639581250533925 36.79830193354569 69 69 69
-21.162965481626202 -9.870970656665667 36.99718277340092 161 161 161
-17.753922050927677 -12.08584427847697 30.363049963818504 28 28 28
-11.423492163063601 9.204118064865765 31.358804060759873 138 138 138
-21.571772541153052 6.630878420293001 36.75756287670758 69 69 69
-14.680572784702472 -8.81666711874371 29.898662678116033 64 64 64
-15.479446507498109 7.388601802595421 34.19232041642963 18 18 18
-14.631313479026625 -2.357558939854418 33.19247519861717 137 137 137
-28.621935629842632 -22.844833058750726 39.79355575595816 156 156 156
-22.805037783002838 -13.321093814406897 33.844211862575044 129 129 129
-24.68727120416306 -6.374355385886809 39.49438837943875 130 130 130
-8.921230685115718 2.985672994368106 26.872807538616957 33 33 33
-14.60867707800524 10.171823873384445 33.78894816749085 1 1 1
-8.264746909120031 10.741501682539173 28.627536873324452 43 43 43
-18.056080071409298 -5.6179223158229465 33.4150208732235 23 23 23
-18.055332994240217 -5.617765455365205 33.413758229267266 23 23 23
-10.589991780865954 -10.220254303866337 24.69507196185437 79 79 79
-15.90425399919985 -6.891020924967966 39.31660092722331 22 22 22
-11.80243189848299 -5.487522664905834 29.908487545001258 22 22 22
-14.972023244451153 -7.0329888362288235 31.043138908970494 164 164 164
-14.740446760855932 -13.771741999119858 33.745625605311304 137 137 137
-15.151527479283343 -12.133128871065429 29.851683371187555 84 84 84
-15.229289600059586 -12.382847443612432 29.85916252557515 159 159 159
-20.831665910538938 -12.108272534886687 36.52432039766666 167 167 167
-22.02900957003986 -16.043937012322914 35.079770855987825 24 24 24
-20.89925960682696 -20.693248982189168 31.94865775219542 1 1 1
-12.413873075048661 -7.729757236409599 22.290904130485195 114 114 114
-17.06257812146376 -9.996218784281737 29.28062656750813 124 124 124
-18.535563048693476 13.184088436685515 37.98706475734828 1 1 1
-11.944366139982549 4.999652273341521 30.28030102542389 17 17 17
-20.989237277575377 3.4390583143404143 38.01247157417306 34 34 34
-11.945495563820645 5.000298387200089 30.283028478012795 17 17 17
-18.209230536561144 12.948508193511715 37.36227398119007 1 1 1
-20.11387728338503 -4.119039280248003 36.71732612318679 1 1 1
-17.635634839406784 -3.836228369522584 33.051488536971675 23 23 23
-22.588886992130384 -3.992702987645514 37.736974776870035 23 23 23
-11.095034734430511 -3.9396110382567726 29.05458783614067 179 179 179
-21.617531865514856 6.646469742555947 36.83069945680386 69 69 69
-11.015574434892915 7.491133294969282 25.844084731672613 139 139 139
-15.684059874656453 12.722214251641974 37.102564321263046 116 116 116
-18.228776938368448 -7.5888645042557155 35.358020737287085 5 5 5
-26.059821951900588 -16.755784692619088 38.01389411112476 27 27 27
-11.064393173110394 1.3288000048723414 31.360194204446447 111 111 111
-18.229108656688133 -7.588950239190857 35.358663762973656 5 5 5
-11.533004061771528 -4.010710106069065 29.51544291570516 124 124 124
-19.49220745427676 -4.414834826394057 36.722093479946665 120 120 120
-15.37669458234866 -12.498275780973584 30.11671306983453 158 158 158
-16.295656968763645 -2.0889361809691307 31.70783484963122 21 21 21
-15.151297519094575 -12.132958280855538 29.851263901768395 84 84 84
-14.630679451077969 -2.3576519938804013 33.191209023616416 137 137 137
-10.59025910424419 -10.220427458730182 24.69556290935425 79 79 79
-15.906633624993324 -6.89201116761923 39.32216129979223 22 22 22
-10.79062564406043 -2.2478658739248103 28.98534701241139 12 12 12
-18.056568552681817 -5.618032446625376 33.41592492201794 23 23 23
-22.552656413783133 -13.16048369917542 33.447345902508125 162 162 162
-18.09050312295684 -11.871230734907783 30.287130047974944 166 166 166
-11.868808002100188 -8.431906951219315 20.813728617515885 51 51 51
-11.423394917158717 9.204061776805204 31.35866393944396 138 138 138
-20.992614019485202 3.4397066205564037 38.01837215672547 34 34 34
-18.875647877864353 3.3292427940793345 39.06118642381799 25 25 25
-10.828721606091786 -3.742953022258235 28.710723991138952 166 166 166
-26.1577003377705 -19.315687014931534 37.06756311417733 31 31 31
-26.16193927477388 -19.318730344015204 37.07307052843561 31 31 31
-24.653269386225332 -2.3208659084449836 42.025061255054304 161 161 161
-18.672443118431424 -20.34525471786825 27.497665559329533 113 113 113
-18.03880693014996 -0.7126782052540855 35.62403111237922 73 73 73
-17.255666072421747 -6.801721599724924 30.75702537451995 26 26 26
-27.967363469049367 -27.03059757849668 37.09638177122896 30 30 30
-14.454289951764137 -12.90616857100779 27.805579995294906 14 14 14
-21.70570500700849 -16.303208463290115 35.13999777446447 132 132 132
-26.043282922655408 -18.79466781868975 33.02642081621255 15 15 15
-29.177359676632726 -25.931606421757838 36.36229589439476 83 83 83
-23.695512125614663 -22.741973929667466 31.852595192161004 40 40 40
-28.29276485543503 -22.977492145127794 32.444905586231 135 135 135
-10.047479044147092 -0.6936760157658461 23.535989285097504 199 199 199
-13.031867863416275 2.3917966637207204 31.449745764619976 12 12 12
-13.931370109041218 5.0160538192937905 30.324698512714487 133 133 133
-17.72072343777166 -18.195056746603644 27.26231136578112 137 137 137
-19.6277919474049 -11.338182700505696 33.460606810106434 117 117 117
-13.692061262811777 -0.7670743826779404 37.27489853393108 127 127 127
-16.0085136020487 -9.444796403974498 27.563045655552497 134 134 134
-24.97169009159804 -22.322509951182816 33.957769241875184 134 134 134
-10.125795336437964 -0.8172776114551094 28.380535072715272 127 127 127
-22.53620715220749 -20.381107432231747 31.267887051883953 151 151 151
-16.85224278476626 -0.36622561650773433 27.1755337515315 6 6 6
-28.869749284330382 -12.455694825466603 39.812703704885735 49 49 49
-19.763745730906066 -18.381222104342115 30.875002074738013 32 32 32
-15.481444480936846 7.389454785510237 34.196545613782675 18 18 18
-16.490828899399745 -14.32828838604471 31.010789803005085 153 153 153
-10.458146709906941 -7.611595567008885 25.65307681059341 100 100 100
-12.054094888474419 1.794000709532368 25.502499186956154 3 3 3
-12.813359394068668 7.019171187556981 33.430455145013404 0 0 0
-24.535064020026866 -15.870410315871263 35.89977160859028 27 27 27
-11.48408693565571 -3.5046375632892115 27.23430298630558 9 9 9
-16.327474383410703 -4.169692731184606 35.22814277980913 181 181 181
-8.550104524081595 5.507751655344518 27.213219844640324 7 7 7
-10.915519349154465 -3.9198548180767547 28.637882961294853 176 176 176
-23.24010422950139 -13.747794050591157 34.87722954087304 27 27 27
-23.74295119448373 -13.392528918069567 40.659115488564275 114 114 114
-21.16025601504913 11.6896782003784 38.20853703168044 75 75 75
-13.689166134511273 9.550772963937707 28.413669755627193 111 111 111
-13.02551761627972 6.791329021436713 32.98631032230071 103 103 103
-15.751708654858648 -9.268861686373064 32.469830302595994 22 22 22
-19.814236152861135 -16.869578808780826 31.608632733317634 102 102 102
-11.007202931670033 10.104432080128623 27.120227063311646 19 19 19
-24.69656867054603 -14.368109461542057 37.23569941891002 59 59 59
-25.112422949204024 -10.322757068384126 39.640341616030504 22 22 22
-26.510867244454737 -5.7200155465212354 38.8067700143327 117 117 117
-18.985856306579322 9.856995648786281 37.36948253357815 20 20 20
-10.989789595297152 3.201413697461298 27.66860523159596 85 85 85
-21.611660689604882 6.644471412643457 36.82124414123314 69 69 69
-23.289604082799535 -22.837959502474316 31.64976229393905 103 103 103
-18.61889911377854 -17.130438526838425 29.074163558910694 33 33 33
-10.828886577466045 -3.7429940884312356 28.711231421168662 166 166 166
-14.678467875063983 8.45716465625384 33.272684073376496 127 127 127
-10.624666233323147 -3.8493401627612416 27.91581625225 176 176 176
-11.213520788709348 -3.938259919403104 28.738550912209007 141 141 141
-10.44152194894244 6.807407056321628 32.44284412435269 7 7 7
-10.789958944641391 -2.2478943600607497 28.983904463108125 12 12 12
-14.680072284244677 -8.8163612702734 29.897733306621717 64 64 64
-9.235123293624204 4.8416997216699205 24.545705225360702 18 18 18
-19.865287827120156 -21.245971879233938 28.702668804889598 61 61 61
-19.816898089897848 -21.5190960857764 29.106248446751785 146 146 146
-13.029487663258625 2.39122625402644 31.444484423040823 12 12 12
-9.568058208691308 1.6421579890021478 27.23468522439459 65 65 65
-11.073837845059368 -5.08685842398929 28.349787486777704 126 126 126
-25.949026403907993 -23.07751223024196 35.17206321862855 132 132 132
-22.536156284981693 -20.38106384296502 31.267812615218787 151 151 151
-19.22058372910101 -19.404487314435347 29.560304545235628 119 119 119
-13.160771729302796 2.8999013046076847 38.066320612972795 185 185 185
-21.164340895758578 -0.19480870960340424 36.26975388815039 183 183 183
-26.494325827558043 -5.716923344910726 38.78351341429539 117 117 117
-16.988759546667197 1.250489875600651 34.29219729266981 2 2 2
-8.806067813534986 4.32213933269273 27.581571140369277 161 161 161
-22.021639673990485 8.443401181300645 38.16438646594418 2 2 2
-10.131537368528381 -0.8170620454080769 28.395910848770818 127 127 127
-26.155763164496264 -19.314339968747863 37.064919818020506 31 31 31
-15.105542646782952 -5.8315889125838885 32.224009261074485 92 92 92
-15.88382476369726 -5.972998211632081 33.18841024999478 92 92 92
-11.954882443743609 4.94039260771632 29.87600849897652 95 95 95
-11.272203472426105 1.7100010689738365 24.340663243814326 25 25 25
-25.824403825199816 -6.7959828655860814 41.8513333989961 131 131 131
-21.66073087651641 -5.761080779782924 34.84354357060918 138 138 138
-24.27992823125315 -17.949693345986645 34.95627725564469 105 105 105
-24.804478883895577 -7.98826602856878 39.45054234011982 23 23 23
-8.266899824559195 10.744270893646766 28.63392545135681 43 43 43
-21.81392999387677 1.3417025285394324 34.756953163112186 58 58 58
-12.467838789466485 -7.406542991872212 30.223154265599277 94 94 94
-18.427016263628524 6.92644501931911 39.75624646699278 1 1 1
-14.129703263468858 -12.947552504523104 27.555438695568714 2 2 2
-14.454028685439711 -12.90595724796886 27.805148102819413 14 14 14
-15.64102866784586 -13.630551606488144 29.430589706964252 151 151 151
-21.611756549101784 6.644502456366351 36.821402912761215 69 69 69
-15.089056464285045 -12.263414644409798 29.61973213070666 159 159 159
-17.681615812508376 5.3172156011060325 30.528085507680974 69 69 69
-11.400503456903671 -9.570195999952508 23.011588897726497 84 84 84
-25.232356295143347 -14.574432361979987 37.16140901616613 115 115 115
-10.401550437057995 0.6518445703866268 28.9112977932592 115 115 115
-24.752435670456414 -14.397143012947138 37.315468290586274 59 59 59
-9.997662841001283 0.5718582791219792 28.29740085705306 25 25 25
-14.62425199593642 -2.4771988771493128 32.337663311405656 94 94 94
-11.288543168817885 7.59928336508516 30.129237044350823 20 20 20
-9.06740580008903 1.7126692609123215 26.766969783000157 1 1 1
-11.282992356969904 7.59538213890108 30.116047385889637 20 20 20
-11.226200944643182 -9.746151448175407 26.646877702423687 131 131 131
-16.41027723236735 -9.657492327410782 28.136591537375825 95 95 95
-11.814915018330144 9.073649484735455 31.379158216502105 68 68 68
-14.841451132154264 -9.970789020686773 29.35452172836759 18 18 18
-16.10385198614979 2.518801886431873 33.223163388804885 17 17 17
-8.406544091604145 8.084240094111662 27.943981387483564 14 14 14
-22.0762452579624 -10.95754885986156 33.96936330504475 168 168 168
-16.20318904254198 -7.605190694039091 23.144373587614737 49 49 49
-17.39684585514822 2.8435265221333323 35.74634748338243 18 18 18
-18.87728023485954 3.3296077092454945 39.06443687046731 25 25 25
-9.669856916657963 -5.2797659395141 22.323014047743 1 1 1
-20.29685859060769 11.95213556139364 39.82899957223506 54 54 54
-10.940151519762564 1.9568579069906504 30.74755730704223 67 67 67
-11.396588962748552 -5.148022288914546 28.57286501428071 123 123 123
-9.160569701341357 8.505276102845333 25.72674666898722 131 131 131
-18.32632852142256 -21.751106299042707 29.07621465104688 25 25 25
-19.23488473402265 -20.565909631378993 27.768736681091685 117 117 117
-21.465608223108212 -23.226988630485724 31.692426075852854 28 28 28
-29.15872072321679 -25.916195845754956 36.34017714115989 83 83 83
-29.09067443756281 -25.86002658765695 36.25937077129012 83 83 83
-23.697199322868542 -22.74343889668768 31.854724245902222 40 40 40
-29.925019746502464 -24.23772951689381 34.24954668184519 28 28 28
-11.954920784774684 4.940411273247628 29.8760981690006 95 95 95
-26.114333929533608 -19.223475758170167 33.10621651571732 116 116 116
-26.058248425911287 -18.804854645801054 33.044531912437954 15 15 15
-16.118557316756267 11.166241128892214 42.339701593151474 131 131 131
-12.797355253626643 1.9676828560546502 26.97510970839908 163 163 163
-22.58710790691429 -3.9924838485253518 37.73411617386454 23 23 23
-11.281221515199089 7.59407112252031 30.11171173877596 20 20 20
-8.390919813720508 5.3958577541044335 26.776158142238398 7 7 7
-9.045620738641999 5.755789235956345 28.10641410073454 98 98 98
-17.792169823601135 2.827822391235251 36.44688423823932 17 17 17
-12.820238946195879 7.0232065809606965 33.446704169806154 0 0 0
-12.848893011620307 6.564759857366751 32.4233151372167 65 65 65
-15.444442422970033 7.29103491195009 33.68982961247776 116 116 116
-10.132507245670613 -0.8170999819980841 28.398225911619594 127 127 127
-14.454336369792406 -12.906210798154026 27.805648087533207 14 14 14
-15.513696665017092 -13.513670356517872 29.22662506009953 89 89 89
-16.9790750379627 1.249204999183564 34.274532795484795 2 2 2
-14.66894116782843 -11.967096967408997 28.887445387589363 159 159 159
-22.343731627457245 -0.13615063689114248 38.759168585093775 15 15 15
-21.583101732440966 6.634737095132207 36.775597511898205 69 69 69
-20.806387257753627 -0.19537861056284633 35.680183479913914 85 85 85
-11.868952993538562 -8.432001149582165 20.81395443586742 51 51 51
-23.11605509748761 3.4695925064357835 37.90060395931412 1 1 1
-11.50189357153807 -9.961372289863942 27.254076827594997 121 121 121
-10.280485788260005 0.6556446607355341 28.58898000912464 96 96 96
-10.789405762449311 -2.2477666880723906 28.982395369613876 12 12 12
-18.76669091305005 -10.931441226024633 31.952653241668777 92 92 92
-10.143098586763378 -2.109237441165587 27.02766294446777 86 86 86
-19.045035926253576 -11.282163904485977 33.49964881431431 27 27 27
-17.600965240918363 -1.7353161273886197 27.766811563572475 138 138 138
-14.814166886007673 -2.3938468566732607 34.03639801223516 24 24 24
-14.631253706776285 -2.357679856172798 33.19241273206179 137 137 137
-9.9981257230923 0.5719498175063892 28.298584224967705 25 25 25
-16.301542844691966 -2.089360963311302 31.718696686736692 21 21 21
-16.100989642795028 -7.907276580262578 28.432945065246923 153 153 153
-15.891105094592051 4.288236514269466 33.72916574802171 2 2 2
-14.679403360368767 8.457675762844703 33.274881662042176 127 127 127
-18.980083970404642 4.6167503402882435 35.301775235327916 109 109 109
-15.62104493154556 -6.022696628704856 33.252415362247774 89 89 89
-19.276750606789555 -8.032862754020263 35.0103164377692 86 86 86
-19.361814353788027 -7.731562985128043 34.844393321704416 19 19 19
-23.443823701043698 -7.586828305420304 37.38077778113049 21 21 21
-16.379521441497296 -7.3996601695175155 33.82633358360064 22 22 22
-24.724636679091226 -6.514084533113927 39.48630861258354 92 92 92
-9.067692328752722 1.7127492178640238 26.767762428935654 1 1 1
-8.200635655277106 9.330071331129853 28.260107339025982 133 133 133
-22.021249678975906 8.443216630227038 38.16376036137323 2 2 2
-23.316012422961265 8.97178995406031 40.27676935853005 2 2 2
-11.24614893117348 8.584177482524394 29.981880251150784 61 61 61
-11.50903804913391 7.919834230797134 24.125312417394177 97 97 97
-15.490780582658816 -7.311795944897602 22.196617424957587 121 121 121
-10.473754879643216 8.262154511096997 25.268225364887414 18 18 18
-18.422909003925 6.924885018709588 39.74813057200892 1 1 1
-11.203691881260225 10.282639273491412 27.561326345974855 19 19 19
-11.272203472426105 1.7100010689738365 24.340663243814326 25 25 25
-10.207701985412447 0.8578730786592496 28.495667134112313 19 19 19
-19.413145792108402 11.38831515948024 38.1758178746464 54 54 54
-12.832860752174044 0.504604037381796 30.217254681977042 17 17 17
-20.711430206166078 -22.001665918628497 29.743406058900632 117 117 117
-22.83169677681503 -22.675709266522844 30.862434169476106 101 101 101
-18.385581846738553 -20.18049014013225 27.636747716769612 23 23 23
-27.127634591698175 -25.478779640985277 35.78362865791732 65 65 65
-24.484295952454396 -22.16538825699264 31.1100154059922 176 176 176
-23.692538038590918 -22.739200361945468 31.84878119806249 40 40 40
-29.89183897256131 -24.212123530600316 34.21288252741536 28 28 28
-20.096951172244076 -17.725753023681577 24.878642465009207 114 114 114
-25.901016105585036 -23.43443081015425 35.63508115838786 129 129 129
-20.42604233297861 -20.251681408959662 31.247751250635343 1 1 1
-21.223468974558713 -16.96646757325775 29.594896932314427 119 119 119
-19.81183902018448 -16.867770753119967 31.604989337640557 102 102 102
-26.1614635791629 -19.31815254502799 37.07257021487961 31 31 31
-26.16864662809347 -19.323256433250666 37.08187101421174 31 31 31
-19.05995984422851 -13.04074402205236 25.075486950140473 45 45 45
-7.984007568627531 7.547764246850058 26.269913685074837 89 89 89
-18.301091386377244 -13.886567409648832 29.81486988015042 108 108 108
-14.454116571382212 -12.906045816828362 27.805248761249366 14 14 14
-15.35800008142031 -13.387666381395853 28.954812879581404 89 89 89
-10.732401148166582 8.30808302579714 29.350401096066946 89 89 89
-23.924750535749887 -13.942985113637135 35.28497368164082 111 111 111
-8.799785166182241 6.76581366447164 28.504386396997972 107 107 107
-11.282954553325416 7.595315343383453 30.11584974943988 20 20 20
-8.424190292594963 5.49161084230499 22.87725465607097 54 54 54
-19.50933712369934 -11.289776772828601 33.03744142608299 99 99 99
-19.527519009160592 -11.561614031148226 34.27563100226026 26 26 26
-25.77042869650022 -12.286477471317598 39.278271153931094 62 62 62
-15.482097543637126 7.389917560465543 34.198158046490164 18 18 18
-20.820686843575196 -8.96156692716788 32.2523901138135 100 100 100
-14.569374859536767 6.849890290741848 31.857790286541913 154 154 154
-15.001600081724964 -7.422176406991615 26.596887015823565 77 77 77
-18.77743796535055 -9.195342725092154 33.247587843608585 27 27 27
-18.114583550150556 -7.619732609967011 32.9859950055172 92 92 92
-8.8628774186281 4.122531783433816 27.19300777432491 14 14 14
-17.204835303239207 -7.0840015526859155 30.768116884725142 82 82 82
-16.993279231707163 -6.9273630009456415 30.749701212181705 21 21 21
-22.465383792597308 -7.345128693798948 35.39454969618181 102 102 102
-22.14200926908535 -7.2061301085239045 35.39777139509327 15 15 15
-14.999070723958733 -6.8522448472034405 31.115683098584903 15 15 15
-13.931562005532378 4.04032615459016 33.80370237437514 19 19 19
-22.29306607983247 -5.987796441398254 35.734271863825896 98 98 98
-15.660296507579355 -6.040805637301747 33.32833219538624 89 89 89
-13.366383939401839 3.786542284638128 32.62137990331691 22 22 22
-15.535793206821937 4.115841650978812 32.46284310659066 161 161 161
-10.352882362721637 -4.773729215067388 26.10441018301016 105 105 105
-9.067379452366083 1.7126621780327298 26.76689711218812 1 1 1
-23.115497594376322 3.4694872648780244 37.89972239475125 1 1 1
-18.961972375397394 -4.397694941560313 35.89109262651218 91 91 91
-14.574335505224935 -3.9718858555358953 32.208269029186475 4 4 4
-27.039564336896234 2.1636256080020533 43.0821983470294 114 114 114
-17.601114726043008 -1.7353219043135981 27.767036110456626 138 138 138
-24.364646333541543 -2.3739328091058662 42.046023524492945 14 14 14
-13.932348414700819 -2.473157293343658 30.827404155124363 91 91 91
-24.64733517329025 -2.3205042173702592 42.01518867736012 161 161 161
-19.22809038990298 -2.1953278539716514 36.49675878559197 122 122 122
-22.423422580030476 -0.13265965876660357 38.89217224858971 15 15 15
-21.169040655284086 -0.19230051226019895 36.22899688613205 189 189 189
-9.569852996199383 -2.0456801923021026 25.581409621582665 98 98 98
-22.3437514345376 -0.13609112719994676 38.75922431091642 15 15 15
-21.615949211209468 6.645930856600796 36.8281083719321 69 69 69
-15.893668090192667 4.28899489004705 33.734406317418966 2 2 2
