ply
format ascii 1.0
element vertex 79
property float x
property float y
property float z
end_header
-0.435626357793808 0.17869237065315247 1.3814928531646729
-0.435626357793808 0.17869237065315247 1.3814928531646729
-0.4274534285068512 0.18682660162448883 1.3807671070098877
-0.41736412048339844 0.16210508346557617 1.3972967863082886
-0.41404885053634644 0.21913012862205505 1.391001582145691
-0.40822646021842957 0.22632600367069244 1.3940162658691406
-0.3983646631240845 0.17611387372016907 1.4050525426864624
-0.39813345670700073 0.1968536674976349 1.4063564538955688
-0.49806246161460876 -0.10755940526723862 1.771211862564087
-0.4901899993419647 -0.0066752382554113865 1.779992699623108
-0.38884225487709045 0.23717713356018066 1.4142887592315674
-0.38285160064697266 0.29357993602752686 1.4257534742355347
-0.3777275085449219 0.16488829255104065 1.424334168434143
-0.35899367928504944 0.1455875039100647 1.4421905279159546
-0.3558111786842346 0.16957543790340424 1.4362801313400269
-0.3558111786842346 0.16957543790340424 1.4362801313400269
-0.34829533100128174 0.29949718713760376 1.4452663660049438
-0.337636262178421 0.15059471130371094 1.4419596195220947
-0.3299765884876251 0.33662518858909607 1.410785436630249
-0.3313523530960083 0.2973352372646332 1.430324673652649
-0.3285455107688904 0.3270818591117859 1.4195433855056763
-0.31990134716033936 0.34347978234291077 1.4050014019012451
-0.3970383107662201 -0.2761315405368805 1.8033297061920166
-0.3917800784111023 0.09418989717960358 1.8359785079956055
-0.3864850103855133 -0.23776738345623016 1.8150911331176758
-0.39143145084381104 -0.1515078842639923 1.8383218050003052
-0.39118942618370056 0.10842441022396088 1.8410698175430298
-0.37793591618537903 -0.15211926400661469 1.8469810485839844
-0.35904622077941895 0.10389125347137451 1.854024887084961
-0.23177476227283478 0.135320782661438 1.2490150928497314
-0.3212176263332367 -0.22333787381649017 1.741276741027832
-0.3475125730037689 0.0353652648627758 1.8863688707351685
-0.33271726965904236 -0.11933443695306778 1.8445225954055786
-0.3326266407966614 -0.1449131965637207 1.8503295183181763
-0.3346971869468689 -0.01507282443344593 1.8681435585021973
-0.28067126870155334 0.21835167706012726 1.6369751691818237
-0.27822890877723694 0.22929371893405914 1.6312479972839355
-0.27173924446105957 0.2351468801498413 1.6298774480819702
-0.2514462172985077 0.20435595512390137 1.6758272647857666
-0.2634325325489044 0.14911401271820068 1.7609068155288696
-0.24474307894706726 0.1880488097667694 1.6884417533874512
-0.23920047283172607 0.22645212709903717 1.6666977405548096
-0.2530415952205658 0.06184026971459389 1.812010407447815
-0.23374544084072113 0.18906353414058685 1.691064715385437
-0.21475353837013245 0.1927640736103058 1.7001361846923828
-0.20758509635925293 0.21949687600135803 1.7034142017364502
-0.20532092452049255 0.20547324419021606 1.703373670578003
-0.21875889599323273 0.02772408537566662 1.8392961025238037
-0.21396084129810333 -0.02247709594666958 1.8839551210403442
-0.07110555469989777 0.21455959975719452 0.6301683783531189
-0.1357911080121994 0.3932861387729645 1.2313764095306396
-0.1874580830335617 0.18266278505325317 1.7348575592041016
-0.16802075505256653 0.20164109766483307 1.7337064743041992
-0.1479082852602005 0.18599092960357666 1.7599072456359863
-0.1430603265762329 0.14453692734241486 1.771261215209961
-0.1430603265762329 0.14453692734241486 1.771261215209961
-0.1507624089717865 -0.006589702796190977 1.888588309288025
-0.1416417360305786 0.01507912389934063 1.8945012092590332
-0.131990447640419 -0.03836255520582199 1.9068936109542847
-0.11285300552845001 0.2893419861793518 1.6453559398651123
-0.11017771810293198 0.279965877532959 1.6363617181777954
-0.12282435595989227 0.0563027448952198 1.886649489402771
-0.11492858082056046 0.11762512475252151 1.7958651781082153
-0.005882886238396168 0.43303242325782776 1.2518861293792725
-0.008355241268873215 -0.02064027637243271 1.9799413681030273
-0.008355241268873215 -0.02064027637243271 1.9799413681030273
-0.0031576640903949738 0.4396700859069824 1.2438960075378418
-0.0031576640903949738 0.4396700859069824 1.2438960075378418
0.05185171961784363 0.446694552898407 1.245957612991333
0.062328968197107315 0.4530220627784729 1.263249397277832
0.08290952444076538 0.44838857650756836 1.245449185371399
0.09592034667730331 0.4422975480556488 1.2483484745025635
0.09686458855867386 0.4429002106189728 1.2304158210754395
0.12472502142190933 0.4414270222187042 1.241254448890686
0.13802126049995422 0.4474564492702484 1.241402268409729
0.15622316300868988 0.4514942169189453 1.239425778388977
0.2676238417625427 0.2191135138273239 1.2162483930587769
0.23082560300827026 0.18565310537815094 0.5774201154708862
0.32803767919540405 -0.16016924381256104 0.7524011135101318
