ply
format ascii 1.0
element vertex 715
property float x
property float y
property float z
property uchar red
property uchar green
property uchar blue
end_header
-0.036313049495220184 -2.002819299697876 4.38842248916626 40 40 40
-0.06170164793729782 -1.5003858804702759 6.641994953155518 63 63 63
-0.08175422251224518 1.3318005800247192 6.834127426147461 58 58 58
-0.006153687834739685 2.4807727336883545 6.325989246368408 82 82 82
0.030325861647725105 -1.7222777605056763 6.626430988311768 21 21 21
0.020264223217964172 2.169840097427368 6.328217029571533 16 16 16
0.015068281441926956 2.5349600315093994 5.732173442840576 161 161 161
0.010518817231059074 1.7919827699661255 6.340234756469727 118 118 118
0.013003591448068619 0.8837831020355225 6.616559982299805 68 68 68
0.01608898490667343 -0.9055079221725464 6.6940717697143555 63 63 63
0.011965981684625149 -1.838916540145874 6.659677505493164 26 26 26
0.011067301034927368 1.015162706375122 6.587776184082031 11 11 11
0.03206658735871315 -0.6380942463874817 6.67049503326416 76 76 76
0.059329912066459656 -1.538833737373352 6.55155086517334 27 27 27
0.07584723085165024 2.57523775100708 5.648099422454834 25 25 25
0.0830625593662262 -1.2039865255355835 6.534743785858154 3 3 3
0.06045372039079666 -2.0438051223754883 6.480865478515625 54 54 54
0.06377267092466354 0.6122814416885376 6.588846683502197 59 59 59
0.07076141983270645 -0.05469859391450882 6.628926753997803 78 78 78
0.06892787665128708 -2.637543201446533 6.499597549438477 23 23 23
0.08476632088422775 2.3766849040985107 6.408781051635742 13 13 13
0.0745190903544426 1.390451192855835 6.648170471191406 14 14 14
0.1075531616806984 -1.4967073202133179 6.47344446182251 125 125 125
0.11458659917116165 -2.853868246078491 6.278609752655029 49 49 49
0.12382856756448746 -1.329596757888794 6.4313788414001465 175 175 175
0.12588123977184296 -1.840242624282837 6.472151279449463 82 82 82
0.15050067007541656 1.163582682609558 6.4926676750183105 51 51 51
0.15024270117282867 2.4290285110473633 6.4253764152526855 78 78 78
0.16213473677635193 -1.4709062576293945 6.399138450622559 131 131 131
0.1491568684577942 -1.2122437953948975 6.454930782318115 50 50 50
0.15759247541427612 2.627969980239868 5.406829357147217 55 55 55
0.15696240961551666 2.662368059158325 5.555996417999268 136 136 136
0.18807004392147064 0.28302201628685 6.4205451011657715 75 75 75
0.1827627420425415 -2.789266586303711 6.23409366607666 33 33 33
0.2011353224515915 -1.2657941579818726 6.301767349243164 104 104 104
0.217327281832695 -1.660382866859436 6.3051652908325195 113 113 113
0.21999143064022064 -2.042552947998047 6.2417120933532715 93 93 93
0.22669583559036255 1.1769367456436157 6.337548732757568 66 66 66
0.22897885739803314 -1.5275439023971558 6.225070953369141 129 129 129
0.23199699819087982 -0.8846415877342224 6.2361159324646 156 156 156
0.2362767457962036 -1.561410903930664 6.23961067199707 82 82 82
0.21786142885684967 2.6370036602020264 5.389646530151367 62 62 62
0.2529170513153076 -1.3176075220108032 6.164808750152588 113 113 113
0.258669376373291 1.3333605527877808 6.275965690612793 59 59 59
0.26041796803474426 0.689648449420929 6.287047386169434 93 93 93
0.2727504074573517 -2.409177541732788 6.1211323738098145 64 64 64
0.2759370803833008 -2.398362636566162 6.093026638031006 64 64 64
0.2984829246997833 2.0159928798675537 6.234315395355225 2 2 2
0.3111721873283386 0.9741854667663574 6.128701686859131 55 55 55
0.3237372934818268 0.12144480645656586 6.088110446929932 131 131 131
0.3350154757499695 0.6924015283584595 6.089047431945801 99 99 99
0.3350154757499695 0.6924015283584595 6.089047431945801 99 99 99
0.3401697874069214 0.32888123393058777 6.086104869842529 124 124 124
0.3403654098510742 0.45745187997817993 6.077582359313965 133 133 133
0.35176220536231995 -2.568579912185669 5.921814441680908 87 87 87
0.3680412173271179 0.14701145887374878 6.083043575286865 104 104 104
0.3680412173271179 0.14701145887374878 6.083043575286865 104 104 104
0.372898131608963 1.054833173751831 6.049381256103516 76 76 76
0.37685832381248474 -0.19948311150074005 5.956387519836426 122 122 122
0.38208168745040894 0.6908448338508606 6.015286445617676 78 78 78
0.37976086139678955 -2.564516305923462 5.883274078369141 46 46 46
0.39064112305641174 0.21247364580631256 5.734012126922607 155 155 155
0.4152856767177582 -1.750717282295227 5.920398235321045 2 2 2
0.4196789860725403 2.5319483280181885 5.942869663238525 74 74 74
0.46494993567466736 -0.16699019074440002 5.8203864097595215 88 88 88
0.47001200914382935 -0.019479893147945404 5.831061840057373 90 90 90
0.46583661437034607 -2.191706895828247 5.544830799102783 102 102 102
0.5042121410369873 0.5100792646408081 5.754810810089111 79 79 79
0.511931836605072 -1.7727792263031006 5.790162086486816 4 4 4
0.5102778673171997 1.5316754579544067 5.740714073181152 1 1 1
0.5245813727378845 -1.6552743911743164 5.686152458190918 133 133 133
0.5217124819755554 -2.4381041526794434 5.59347677230835 19 19 19
0.5676885843276978 -2.809441566467285 5.412784576416016 32 32 32
0.5898647308349609 1.901670217514038 5.631298065185547 78 78 78
0.5744155645370483 -2.641803026199341 5.490647792816162 32 32 32
0.5846686959266663 -0.3240351676940918 5.529074192047119 111 111 111
0.5805962085723877 -0.6992198824882507 5.461069107055664 120 120 120
0.585047721862793 -2.14345121383667 5.4739227294921875 117 117 117
0.6079691052436829 2.4707415103912354 5.69110107421875 30 30 30
0.5988770723342896 -2.640428304672241 5.426743507385254 5 5 5
0.6040306091308594 -1.2472683191299438 5.424178123474121 124 124 124
0.5950621962547302 -1.1741479635238647 5.559802532196045 44 44 44
0.5403440594673157 2.825342893600464 4.694770812988281 161 161 161
0.6361426115036011 -1.3409149646759033 5.335692882537842 27 27 27
0.6304908990859985 -1.8765177726745605 5.379993915557861 143 143 143
0.654516339302063 -0.7866876721382141 5.443706035614014 22 22 22
0.6529697179794312 -1.3775895833969116 5.476929187774658 27 27 27
0.6246777176856995 2.7476284503936768 4.956573963165283 79 79 79
0.7167827486991882 0.21563060581684113 5.523894309997559 63 63 63
0.7388828992843628 0.6198629140853882 5.608095169067383 62 62 62
0.736362874507904 -1.02216637134552 5.457761764526367 83 83 83
0.7343709468841553 -1.1473090648651123 5.422160625457764 141 141 141
0.7059036493301392 -2.5585758686065674 5.205594062805176 92 92 92
0.7400420308113098 -1.3912289142608643 5.4442243576049805 91 91 91
0.740268349647522 -1.531853437423706 5.392021179199219 48 48 48
0.738699734210968 -1.6634674072265625 5.3598737716674805 99 99 99
0.738699734210968 -1.6634674072265625 5.3598737716674805 99 99 99
0.7795621752738953 1.4890518188476562 5.628616809844971 41 41 41
0.7872511148452759 1.1800611019134521 5.502623081207275 9 9 9
0.7499186992645264 -1.8124054670333862 5.393131256103516 91 91 91
0.7979515194892883 2.498300552368164 5.699085712432861 27 27 27
0.7800499796867371 -0.1009100079536438 5.513576507568359 81 81 81
0.8034626245498657 1.254392147064209 5.547045707702637 101 101 101
0.7344025373458862 -2.5725693702697754 5.150117874145508 96 96 96
0.7990747690200806 -0.1472611129283905 5.550474166870117 84 84 84
0.7366434335708618 -2.6251168251037598 5.0941548347473145 38 38 38
0.8005377054214478 -1.0737903118133545 5.48353385925293 92 92 92
0.8241519331932068 -0.1839807629585266 5.638980388641357 101 101 101
0.7498518228530884 -2.613494634628296 5.117815971374512 123 123 123
0.8040103316307068 -0.7748209238052368 5.318774700164795 53 53 53
0.8377222418785095 2.065070629119873 5.6518707275390625 81 81 81
0.7071167826652527 2.818573474884033 4.7386298179626465 56 56 56
0.801043689250946 -1.7563062906265259 5.3328986167907715 99 99 99
0.8167778849601746 -1.8931176662445068 5.338995933532715 19 19 19
0.8545608520507812 -0.5381201505661011 5.479551315307617 147 147 147
0.8006974458694458 -2.45745849609375 5.055352210998535 26 26 26
0.8201924562454224 -2.6535425186157227 4.990161418914795 33 33 33
0.8174098134040833 -2.5549018383026123 5.00383996963501 98 98 98
0.9385913610458374 2.5079104900360107 5.669109344482422 79 79 79
0.8388594388961792 -2.14990496635437 4.96801233291626 138 138 138
0.8388594388961792 -2.14990496635437 4.96801233291626 138 138 138
0.829666793346405 -2.68923282623291 5.043269157409668 33 33 33
0.9158817529678345 -1.6789194345474243 5.535674571990967 208 208 208
0.9126691818237305 -1.7721614837646484 5.36722469329834 27 27 27
0.8671240210533142 -2.5761053562164307 4.888050079345703 91 91 91
0.876510500907898 -2.6598877906799316 4.884739875793457 52 52 52
1.0065677165985107 2.5909299850463867 5.608941078186035 79 79 79
0.9061955213546753 -2.625452756881714 4.746826648712158 42 42 42
1.0849411487579346 2.625411033630371 5.570827484130859 53 53 53
1.0190441608428955 -1.931493878364563 5.232056617736816 37 37 37
1.0304826498031616 -1.8121142387390137 5.220259666442871 47 47 47
1.131692886352539 2.6446280479431152 5.565548896789551 55 55 55
1.0870072841644287 -1.5590089559555054 5.347528457641602 107 107 107
1.0545685291290283 -1.859918475151062 4.971271991729736 55 55 55
1.1777760982513428 -1.500553846359253 5.474335670471191 99 99 99
1.0192450284957886 -1.6422662734985352 4.70667028427124 49 49 49
1.2686972618103027 2.6152732372283936 5.838623046875 43 43 43
1.283633828163147 2.611745834350586 5.7486891746521 75 75 75
1.1414459943771362 -1.8012778759002686 4.997900009155273 56 56 56
1.152876853942871 2.8194966316223145 5.004141330718994 154 154 154
1.3439360857009888 2.559147357940674 5.79505729675293 69 69 69
1.2941923141479492 2.674640417098999 5.4441070556640625 64 64 64
1.06854248046875 -2.139920711517334 4.494784355163574 139 139 139
1.3282654285430908 2.648118495941162 5.563372611999512 57 57 57
1.2817670106887817 -1.3681185245513916 5.354192733764648 91 91 91
1.102622389793396 -2.426177978515625 4.349674701690674 43 43 43
1.3094754219055176 2.774003505706787 5.130306720733643 77 77 77
1.3094754219055176 2.774003505706787 5.130306720733643 77 77 77
1.241772174835205 -1.896963119506836 4.728076457977295 66 66 66
1.205169916152954 -1.9348708391189575 4.600368499755859 33 33 33
1.2619256973266602 -1.8718359470367432 4.615104675292969 65 65 65
1.289732813835144 -1.9616481065750122 4.64882755279541 35 35 35
1.2825350761413574 -1.916793942451477 4.535160064697266 57 57 57
1.535902976989746 2.7769126892089844 5.095571517944336 49 49 49
1.348281979560852 -1.9188975095748901 4.420650959014893 58 58 58
1.3130463361740112 -1.9233875274658203 4.307798862457275 29 29 29
1.3670034408569336 -1.9029552936553955 4.3516035079956055 50 50 50
1.4675416946411133 -1.871584177017212 4.571635723114014 61 61 61
1.3909367322921753 -1.9099229574203491 4.318856239318848 51 51 51
1.4147955179214478 -1.9196265935897827 4.250122547149658 58 58 58
1.7299619913101196 -0.7124170064926147 4.896304607391357 40 40 40
1.7547788619995117 -0.7764111757278442 4.849132537841797 34 34 34
1.7547788619995117 -0.7764111757278442 4.849132537841797 34 34 34
1.7511790990829468 -0.8324790596961975 4.83119010925293 28 28 28
1.7511790990829468 -0.8324790596961975 4.83119010925293 28 28 28
1.5189546346664429 -1.926745891571045 4.066310882568359 54 54 54
1.5030778646469116 -1.9260189533233643 3.99503755569458 16 16 16
1.538543462753296 -1.9107930660247803 3.97799015045166 55 55 55
1.4413267374038696 -1.952560305595398 3.7822251319885254 27 27 27
1.5307352542877197 1.4696530103683472 3.793865919113159 72 72 72
1.5565807819366455 1.578434944152832 3.7332420349121094 62 62 62
1.578736424446106 1.7248739004135132 3.76175594329834 52 52 52
1.5558249950408936 -0.44752779603004456 3.6448168754577637 185 185 185
1.6008387804031372 1.9128015041351318 3.6863696575164795 64 64 64
1.5538595914840698 -1.1851885318756104 3.5278067588806152 113 113 113
1.6446011066436768 1.8212720155715942 3.621105909347534 60 60 60
1.6628819704055786 1.7945877313613892 3.5996861457824707 19 19 19
1.6643614768981934 1.3722562789916992 3.564800262451172 19 19 19
1.6643614768981934 1.3722562789916992 3.564800262451172 19 19 19
1.5953327417373657 -1.2601497173309326 3.3921260833740234 150 150 150
1.6830615997314453 1.8437347412109375 3.5220727920532227 37 37 37
1.6332082748413086 -1.1256738901138306 3.342848062515259 111 111 111
1.703979253768921 0.531926155090332 3.486523151397705 117 117 117
1.7145875692367554 1.1948686838150024 3.498523712158203 26 26 26
1.714907169342041 1.8352631330490112 3.489452362060547 55 55 55
1.6867890357971191 0.7785235047340393 3.436887502670288 179 179 179
-2.5142300128936768 -1.6219229698181152 5.734347820281982 129 129 129
0.7065617442131042 2.784105062484741 4.775332927703857 19 19 19
-1.9851789474487305 -0.39569711685180664 6.766484260559082 251 251 251
-2.5140538215637207 -1.6218438148498535 5.73406982421875 129 129 129
-1.6013438701629639 -0.22800284624099731 7.141300201416016 250 250 250
0.8030261993408203 2.7448348999023438 5.094827175140381 140 140 140
0.4110746681690216 0.43299293518066406 5.974369525909424 42 42 42
-2.2283222675323486 -0.3904065489768982 6.591083526611328 78 78 78
-2.0642952919006348 -0.10711702704429626 6.882972240447998 144 144 144
0.6475421786308289 -1.5355355739593506 5.354925155639648 26 26 26
-2.031952381134033 -1.9341152906417847 5.7162981033325195 19 19 19
0.6521154046058655 -1.5747089385986328 5.385242462158203 21 21 21
0.525359570980072 -0.07636340707540512 5.763826847076416 5 5 5
-1.0824425220489502 2.568800210952759 5.100997447967529 80 80 80
0.48438963294029236 2.771334648132324 4.682307243347168 140 140 140
0.8768029808998108 -1.7919154167175293 5.372047424316406 96 96 96
0.439342737197876 -1.9272596836090088 5.8100128173828125 43 43 43
0.8768028616905212 -1.7919131517410278 5.372042655944824 96 96 96
0.6246799230575562 0.6848525404930115 5.573612689971924 133 133 133
-2.3291475772857666 -0.17726688086986542 6.873485565185547 239 239 239
0.876802921295166 -1.79192054271698 5.372071743011475 96 96 96
-1.9091551303863525 0.32616329193115234 6.9282002449035645 221 221 221
0.8566229939460754 -1.7766715288162231 5.415146350860596 63 63 63
-2.1182827949523926 -0.39486265182495117 6.839555263519287 199 199 199
1.2338327169418335 2.7759172916412354 5.009161472320557 148 148 148
-2.115590810775757 -1.7752254009246826 5.877570152282715 32 32 32
-1.98496413230896 -0.39566469192504883 6.765749931335449 251 251 251
-2.0304839611053467 0.36070406436920166 7.687233924865723 50 50 50
-2.3157637119293213 -0.15759246051311493 6.776384353637695 203 203 203
-1.8126262426376343 -0.17096386849880219 6.746511459350586 20 20 20
0.849013090133667 2.754431962966919 4.945381164550781 30 30 30
0.14760001003742218 -0.15102776885032654 6.6496124267578125 3 3 3
0.8374122381210327 -1.7435578107833862 5.439500331878662 164 164 164
-2.1182873249053955 -0.39485469460487366 6.839566707611084 199 199 199
-1.9391459226608276 -0.3624584972858429 6.881490230560303 161 161 161
-2.041937828063965 1.435794472694397 5.837993144989014 2 2 2
0.36320406198501587 0.23936811089515686 6.021341800689697 2 2 2
-2.235637664794922 -0.3733378052711487 6.714282989501953 6 6 6
-2.118173599243164 -0.3948131203651428 6.839260578155518 199 199 199
-1.597216248512268 0.42907753586769104 6.595149993896484 56 56 56
-2.238211154937744 -0.36910200119018555 6.761739730834961 4 4 4
1.7299226522445679 -0.7123851776123047 4.8961358070373535 40 40 40
0.8262695074081421 -0.7988311648368835 5.466834545135498 53 53 53
-0.1533185839653015 2.0435500144958496 5.946735858917236 117 117 117
0.6824636459350586 -0.7862687706947327 5.425050735473633 28 28 28
1.4413169622421265 -1.952531337738037 3.7821757793426514 27 27 27
0.41342902183532715 -0.9902881383895874 5.845321178436279 91 91 91
1.4411571025848389 -1.9517477750778198 3.781101703643799 26 26 26
1.6501976251602173 2.7246432304382324 5.190151691436768 42 42 42
0.5287227034568787 -0.798747181892395 5.6691436767578125 34 34 34
0.6547156572341919 -0.7555813193321228 5.4079766273498535 27 27 27
-1.8393958806991577 1.251349687576294 5.9007062911987305 76 76 76
-0.9408897757530212 1.583333969116211 6.335412979125977 186 186 186
-0.9341715574264526 1.9356718063354492 6.301782131195068 128 128 128
1.6967514753341675 -0.8128679990768433 4.682801723480225 22 22 22
0.5370888113975525 -0.970863401889801 5.587678909301758 29 29 29
-1.1656160354614258 1.4239325523376465 6.230860233306885 82 82 82
-0.9486347436904907 1.4389110803604126 6.367041110992432 32 32 32
0.8282760977745056 -0.9855408668518066 5.4889631271362305 146 146 146
-1.7917053699493408 0.19772206246852875 6.711391448974609 253 253 253
0.8282753825187683 -0.9855466485023499 5.48900842666626 146 146 146
0.6280550360679626 -0.9733877182006836 5.40433406829834 183 183 183
-1.9261976480484009 0.2095043659210205 7.024691104888916 35 35 35
-1.383596420288086 1.426425814628601 6.127464294433594 60 60 60
0.6412963271141052 -0.9951198101043701 5.427548885345459 175 175 175
-2.2281975746154785 -0.7960336804389954 6.337121486663818 200 200 200
-2.4401497840881348 -0.3585442006587982 6.971940994262695 128 128 128
-2.239926338195801 -0.34122636914253235 6.572636127471924 246 246 246
-1.5721396207809448 1.405787467956543 5.971893787384033 1 1 1
-1.0434662103652954 1.2476433515548706 6.16795015335083 27 27 27
-1.4017159938812256 1.6059908866882324 6.178835391998291 52 52 52
0.14915980398654938 -1.2121758460998535 6.45451021194458 50 50 50
-1.3835828304290771 1.4265073537826538 6.127459526062012 60 60 60
0.6064817309379578 1.5781917572021484 5.574707508087158 2 2 2
0.6097716093063354 0.12583772838115692 5.576375961303711 0 0 0
-2.0426025390625 -0.7745772004127502 6.229766368865967 231 231 231
-1.5721040964126587 1.4057692289352417 5.971818447113037 1 1 1
-1.0249803066253662 1.2814645767211914 6.3284196853637695 2 2 2
-1.0060217380523682 1.217386245727539 6.055822372436523 143 143 143
-1.1210389137268066 1.2837722301483154 6.389875888824463 32 32 32
-1.1211624145507812 1.2838547229766846 6.390237808227539 32 32 32
-2.126955032348633 -0.7996278405189514 6.661159038543701 142 142 142
0.14914339780807495 -1.2122598886489868 6.455039024353027 50 50 50
-2.3299221992492676 -0.8446655869483948 7.080005645751953 124 124 124
1.5558271408081055 -0.44754308462142944 3.6448452472686768 185 185 185
-1.5721781253814697 1.4058105945587158 5.971980571746826 1 1 1
-0.9333848357200623 1.5745733976364136 6.310561180114746 172 172 172
-0.4170936048030853 1.573161005973816 6.518818378448486 16 16 16
-2.1168723106384277 -0.7543150186538696 6.871612071990967 172 172 172
-1.085961103439331 1.2020090818405151 6.0215983390808105 170 170 170
-2.1471235752105713 -0.7394118905067444 6.835944652557373 90 90 90
-1.9559803009033203 -0.7468939423561096 6.812976837158203 248 248 248
-1.9173675775527954 -0.7372952699661255 6.724201679229736 249 249 249
0.8175235390663147 -0.597052812576294 5.498167991638184 71 71 71
-2.164820671081543 -0.7193329334259033 6.711019039154053 239 239 239
-2.0288355350494385 -0.7205612063407898 6.585963726043701 186 186 186
0.8175225853919983 -0.5970595479011536 5.498203754425049 71 71 71
-2.1938629150390625 -0.7252998352050781 6.8019208908081055 239 239 239
1.7402979135513306 -0.7334770560264587 4.842970848083496 210 210 210
-2.1956570148468018 -0.7449758052825928 6.938833713531494 211 211 211
-2.155639410018921 -0.7363059520721436 6.854612350463867 4 4 4
-2.1308586597442627 -0.7611265182495117 6.916736125946045 172 172 172
-2.314579486846924 0.11954591423273087 6.669527530670166 127 127 127
-2.043581247329712 -0.7309466600418091 6.884645462036133 35 35 35
0.5215855240821838 -1.1704133749008179 5.683908939361572 182 182 182
0.9412789344787598 2.782827138900757 4.870501518249512 215 215 215
0.5265094637870789 -1.1595745086669922 5.617341041564941 192 192 192
-2.328118324279785 -0.7044693827629089 6.909609794616699 84 84 84
-0.8453367352485657 1.2268924713134766 6.264403820037842 4 4 4
-1.8433876037597656 -0.6960629224777222 7.059153079986572 6 6 6
-2.1309239864349365 -0.6709908843040466 6.551192283630371 231 231 231
-1.8459497690200806 -0.6967188715934753 7.067165374755859 252 252 252
0.8322811126708984 -1.1727228164672852 5.4676289558410645 1 1 1
-1.0283530950546265 -1.660587191581726 6.2735185623168945 43 43 43
-2.198961019515991 -0.6430286169052124 6.780944347381592 216 216 216
0.40984901785850525 0.0808776319026947 6.068338871002197 60 60 60
0.624104380607605 1.0477150678634644 5.610803127288818 1 1 1
-1.8979040384292603 0.05735381320118904 6.901955604553223 117 117 117
-2.149482250213623 -0.606992781162262 6.6909379959106445 185 185 185
-2.054262638092041 1.0807974338531494 5.772952079772949 113 113 113
-2.113542079925537 0.06662365049123764 6.891291618347168 207 207 207
1.0304230451583862 -1.9442110061645508 4.602880477905273 40 40 40
0.9504562020301819 -1.9378316402435303 4.744047164916992 51 51 51
-0.44036126136779785 0.6461171507835388 6.355641841888428 17 17 17
-1.2393605709075928 1.0721246004104614 6.1651434898376465 20 20 20
-1.7589571475982666 0.02503139153122902 7.348778247833252 220 220 220
-2.207005500793457 -0.32694804668426514 6.8273844718933105 148 148 148
0.13870307803153992 2.603624105453491 5.576334476470947 143 143 143
-2.5100839138031006 -0.4147889316082001 5.82147741317749 246 246 246
-2.2406387329101562 -0.5057199001312256 6.866442680358887 181 181 181
0.8429723381996155 -1.9936981201171875 5.105520248413086 207 207 207
-2.0003278255462646 -0.46860140562057495 6.812772750854492 82 82 82
-2.4421772956848145 0.0022491898853331804 6.7393269538879395 91 91 91
-2.123283863067627 -0.44586631655693054 6.733443737030029 151 151 151
-1.9148503541946411 0.007168428506702185 6.932280540466309 197 197 197
-2.253288507461548 -0.0014572954969480634 6.666534423828125 115 115 115
-1.8860119581222534 -0.3512239456176758 7.2327680587768555 224 224 224
-2.188157558441162 -0.012726645916700363 6.77049446105957 36 36 36
0.7957866787910461 -1.352623701095581 5.441098213195801 163 163 163
-2.1653642654418945 -0.01845221221446991 6.681815147399902 252 252 252
0.6361427307128906 -1.3409212827682495 5.335718154907227 27 27 27
-2.2877962589263916 -0.42020371556282043 6.633886337280273 229 229 229
0.8185469508171082 -0.04968731850385666 5.5558624267578125 86 86 86
-1.5974324941635132 -0.042774952948093414 7.001842498779297 232 232 232
-1.9243768453598022 -0.0707223191857338 6.882169246673584 168 168 168
0.4962734282016754 2.8307740688323975 4.827216625213623 147 147 147
0.8075695037841797 0.29661956429481506 5.518455982208252 58 58 58
-0.10633351653814316 2.6602487564086914 5.143837928771973 45 45 45
-0.4481796324253082 0.6450403928756714 6.387153148651123 199 199 199
0.622069776058197 -0.0511770136654377 5.455629825592041 6 6 6
-1.9010367393493652 0.04871369153261185 6.907162189483643 216 216 216
-0.4361238181591034 0.7610796093940735 6.425698280334473 50 50 50
0.6284972429275513 -0.23032408952713013 5.4391937255859375 1 1 1
0.6135528087615967 0.8688412308692932 5.672469615936279 9 9 9
-1.7911940813064575 0.5905587673187256 6.149708271026611 127 127 127
0.585639476776123 0.6520447731018066 5.512733459472656 210 210 210
-0.15124087035655975 2.6654176712036133 5.163219451904297 117 117 117
-1.1294429302215576 1.5680900812149048 6.149395942687988 11 11 11
-0.3241586983203888 1.1311274766921997 6.409218788146973 143 143 143
0.046876680105924606 1.056787133216858 6.758742332458496 141 141 141
1.1136605739593506 -2.4246199131011963 4.401932239532471 41 41 41
-1.3936690092086792 -2.508892059326172 5.931125640869141 140 140 140
1.1873986721038818 -2.35406756401062 4.255725860595703 95 95 95
0.23564808070659637 -0.9984318017959595 6.198466777801514 72 72 72
-1.7210888862609863 1.9309500455856323 5.91452693939209 7 7 7
-0.1554517149925232 2.117814064025879 6.130580425262451 117 117 117
-1.028296709060669 1.5776138305664062 6.246634483337402 25 25 25
-0.9458864331245422 1.5906678438186646 6.3526482582092285 169 169 169
-0.12376260757446289 1.8970484733581543 6.089134216308594 77 77 77
0.643304169178009 -0.7439253330230713 5.398601531982422 13 13 13
-0.337960809469223 1.1959432363510132 6.479208469390869 108 108 108
0.7610639333724976 2.797640800476074 4.858388900756836 150 150 150
-0.10725191980600357 2.5987913608551025 5.542439937591553 159 159 159
-0.3725477159023285 2.4843661785125732 6.265024185180664 140 140 140
-0.8473760485649109 1.94166100025177 6.3468499183654785 26 26 26
-1.5960328578948975 2.55312442779541 5.430036544799805 165 165 165
0.5180939435958862 1.7430176734924316 5.787176609039307 29 29 29
-0.8623470664024353 1.7430363893508911 6.266751766204834 11 11 11
1.1081726551055908 2.689788579940796 5.289059162139893 158 158 158
-1.2153687477111816 1.05921471118927 6.194648742675781 104 104 104
-1.138575553894043 1.2073370218276978 6.238560199737549 161 161 161
-0.9499595165252686 0.10782904922962189 6.254068374633789 149 149 149
0.07428407669067383 -1.02573823928833 6.556262969970703 0 0 0
-1.3947092294692993 -2.5075771808624268 5.933387279510498 118 118 118
-1.2856359481811523 0.4488098621368408 6.435251712799072 152 152 152
-1.8761802911758423 -0.3290722966194153 7.447808265686035 247 247 247
-1.8938887119293213 -0.314924955368042 7.594680309295654 137 137 137
0.6285101175308228 -0.23032768070697784 5.439258098602295 1 1 1
0.14916247129440308 -1.2121888399124146 6.454617500305176 50 50 50
1.18739652633667 -2.3540637493133545 4.255715847015381 95 95 95
0.08304142206907272 -1.2038991451263428 6.532927989959717 3 3 3
1.7297096252441406 -0.835162878036499 4.864576816558838 9 9 9
0.6388103365898132 -1.010958194732666 5.433128356933594 145 145 145
0.05049509182572365 -1.245096206665039 6.772404193878174 152 152 152
-1.2393571138381958 1.0721209049224854 6.165125370025635 20 20 20
1.6501996517181396 2.724653959274292 5.1901726722717285 42 42 42
0.4134281873703003 -0.9902777671813965 5.845273017883301 91 91 91
1.729728102684021 -0.8351901769638062 4.864587783813477 9 9 9
0.49301284551620483 0.9917393326759338 5.82211971282959 131 131 131
-1.3894649744033813 0.4842294752597809 6.17507791519165 91 91 91
0.5462256669998169 -0.9937970638275146 5.685081481933594 29 29 29
1.7011895179748535 -0.8170948624610901 4.7077250480651855 26 26 26
-2.3353378772735596 -0.21056224405765533 7.050410270690918 41 41 41
0.8282763361930847 -0.9855390191078186 5.488949298858643 146 146 146
0.8006967306137085 -2.457460641860962 5.055357456207275 26 26 26
0.5752193927764893 -1.7350462675094604 5.529568195343018 54 54 54
-2.3422083854675293 -0.17642123997211456 6.89980936050415 210 210 210
0.6265095472335815 2.7317543029785156 5.272289752960205 154 154 154
-0.4034155309200287 1.1921818256378174 6.453566074371338 80 80 80
1.266457438468933 -1.9388493299484253 4.107599258422852 28 28 28
-0.4500596225261688 1.7030479907989502 6.238791465759277 58 58 58
0.8105092644691467 -0.7679255604743958 5.474560260772705 55 55 55
1.1875334978103638 -1.9320650100708008 4.268249034881592 33 33 33
-0.06068766862154007 2.6198103427886963 5.096687316894531 174 174 174
-1.8471919298171997 1.0920873880386353 5.929445743560791 19 19 19
-0.403411328792572 1.1921770572662354 6.453546524047852 80 80 80
-1.5605696439743042 0.4254194498062134 6.574564456939697 115 115 115
-1.5170403718948364 -1.3324682712554932 5.808401107788086 100 100 100
0.18191729485988617 -0.14018408954143524 6.379588603973389 202 202 202
-0.2949788570404053 2.658634901046753 5.165739059448242 160 160 160
-2.051633834838867 1.0810452699661255 5.766229629516602 113 113 113
-1.3936644792556763 -2.5088725090026855 5.931142330169678 140 140 140
-1.3947209119796753 -2.5076100826263428 5.933444499969482 118 118 118
-1.3947316408157349 -2.5076260566711426 5.933474063873291 118 118 118
-0.9108024835586548 1.1941204071044922 6.3318891525268555 124 124 124
-1.678393006324768 -0.12714962661266327 6.89682149887085 139 139 139
-1.0609091520309448 0.3615339994430542 6.495862007141113 210 210 210
0.9512020349502563 -1.9855550527572632 4.8769025802612305 193 193 193
0.23564626276493073 -0.9984267950057983 6.198486328125 72 72 72
-2.0642988681793213 -0.10707559436559677 6.882991313934326 144 144 144
-2.002861976623535 -0.08844728022813797 6.84735107421875 195 195 195
-1.6068103313446045 -0.10396703332662582 7.114248752593994 231 231 231
-2.2420921325683594 -0.09378223866224289 6.9953508377075195 161 161 161
-2.2105138301849365 -0.6322738528251648 6.698665618896484 51 51 51
0.3299449384212494 0.2244988977909088 6.071855545043945 231 231 231
0.5180928111076355 1.7430239915847778 5.7871928215026855 29 29 29
-1.618841290473938 -0.03740090876817703 7.059407711029053 253 253 253
-2.0322160720825195 -1.934262990951538 5.7167768478393555 19 19 19
-2.0319464206695557 -1.934113621711731 5.716291904449463 19 19 19
-1.8657528162002563 -0.02896496094763279 6.843254566192627 249 249 249
-2.3276026248931885 -0.008632590994238853 6.888136863708496 115 115 115
-1.8878414630889893 -0.02087395079433918 6.8361406326293945 83 83 83
-1.6480283737182617 0.007741851732134819 7.057106971740723 107 107 107
0.6574188470840454 -1.7551714181900024 5.377239227294922 2 2 2
0.6663339734077454 -1.933487892150879 5.350796699523926 14 14 14
-1.6480060815811157 0.007746447809040546 7.057054042816162 107 107 107
-2.331433057785034 -0.00860815029591322 6.895792007446289 115 115 115
-2.059830904006958 0.009447244927287102 6.843158721923828 147 147 147
0.8374153971672058 -1.7435029745101929 5.439314842224121 164 164 164
-1.9123014211654663 0.009828830137848854 6.927007675170898 250 250 250
-0.799615204334259 1.2566591501235962 6.314570903778076 4 4 4
0.6865958571434021 2.7211549282073975 5.157517910003662 42 42 42
0.9857564568519592 -1.7088420391082764 5.362715244293213 128 128 128
-0.592553973197937 2.6025049686431885 5.239850997924805 150 150 150
-1.4017200469970703 1.6059945821762085 6.1788506507873535 52 52 52
-1.648026466369629 0.007755095139145851 7.0571064949035645 107 107 107
-0.9569417238235474 1.2723182439804077 6.30552339553833 16 16 16
-2.3190624713897705 -0.34726232290267944 6.97865629196167 225 225 225
-2.2411253452301025 -0.3416166603565216 6.694976806640625 202 202 202
0.13470147550106049 0.015102412551641464 6.276927471160889 14 14 14
0.7032859921455383 2.7113687992095947 5.015289783477783 46 46 46
-2.308868646621704 -0.347168892621994 6.696401596069336 194 194 194
-1.0479611158370972 1.2445499897003174 6.178802490234375 36 36 36
-2.116364002227783 -1.8084996938705444 5.851085186004639 253 253 253
-2.3775341510772705 0.03573223575949669 6.859959602355957 203 203 203
-2.1395068168640137 -0.3702268600463867 6.795949935913086 186 186 186
-2.3674073219299316 0.07427076250314713 6.687921524047852 187 187 187
-2.1156139373779297 -1.7752454280853271 5.877616882324219 32 32 32
-2.1182973384857178 -0.3948584794998169 6.839596748352051 199 199 199
-2.3776228427886963 0.03572538495063782 6.860212326049805 203 203 203
-2.2722063064575195 0.059922996908426285 6.7410173416137695 77 77 77
-2.017056941986084 0.05092911794781685 6.820455074310303 250 250 250
-2.1422722339630127 -0.344419002532959 6.379767417907715 240 240 240
0.40179914236068726 0.07327823340892792 5.959855079650879 60 60 60
-2.3674049377441406 0.07427156716585159 6.687898635864258 187 187 187
-1.4048749208450317 1.2475597858428955 6.1189446449279785 45 45 45
-1.034144639968872 1.2832891941070557 6.232651710510254 41 41 41
0.6496369242668152 -1.5524513721466064 5.371487140655518 26 26 26
-2.082582712173462 -0.4065907299518585 6.980395793914795 132 132 132
-2.2337796688079834 -0.42872247099876404 7.209537506103516 199 199 199
-1.8760608434677124 1.2324228286743164 5.8364644050598145 21 21 21
0.8320004940032959 -1.5468776226043701 5.427764892578125 59 59 59
0.4018014669418335 0.07327306270599365 5.9598708152771 60 60 60
-2.0538089275360107 -0.411884069442749 6.828790664672852 244 244 244
0.7188462615013123 2.7506344318389893 5.0075225830078125 213 213 213
-1.592393398284912 -0.43488141894340515 7.018759250640869 244 244 244
0.5504440665245056 -1.5347682237625122 5.558251857757568 34 34 34
-0.34743669629096985 1.3906232118606567 6.509781360626221 2 2 2
-1.8393688201904297 1.2513338327407837 5.900651454925537 76 76 76
0.5429630875587463 -1.5684117078781128 5.687950611114502 38 38 38
-1.5964213609695435 2.5535078048706055 5.4308085441589355 165 165 165
0.8229960203170776 0.12766718864440918 5.559913158416748 103 103 103
-1.6267703771591187 -0.5106709599494934 6.9526519775390625 252 252 252
-2.204418897628784 -0.4994438886642456 6.755020618438721 181 181 181
0.6550036668777466 2.7179131507873535 4.882418632507324 67 67 67
-1.7938097715377808 0.19785618782043457 6.716256618499756 253 253 253
-2.0037097930908203 -0.508452832698822 6.846636772155762 245 245 245
-2.128265142440796 0.231452077627182 6.782118320465088 243 243 243
0.6132429242134094 1.2253869771957397 5.617262363433838 0 0 0
-2.1658945083618164 -0.5551262497901917 6.795079231262207 50 50 50
-2.3823187351226807 -0.5607110857963562 6.681365489959717 112 112 112
-0.45417308807373047 0.8223511576652527 6.505587100982666 82 82 82
0.6132493019104004 1.2253631353378296 5.617166042327881 0 0 0
-2.1235737800598145 -0.5754967927932739 6.6549601554870605 234 234 234
0.8553224205970764 2.7390177249908447 4.839201927185059 100 100 100
-2.260011672973633 -0.5757936239242554 6.646091938018799 18 18 18
1.1360758543014526 2.782968282699585 4.919980525970459 61 61 61
0.6246805787086487 0.6848618388175964 5.5736494064331055 133 133 133
-2.1220178604125977 -0.585131824016571 6.633190155029297 243 243 243
0.6179233193397522 0.6907185912132263 5.669604778289795 201 201 201
-1.2356139421463013 1.5890544652938843 6.207632064819336 27 27 27
0.8045998811721802 0.6698614358901978 5.610977649688721 95 95 95
-1.9343650341033936 -0.6044117212295532 6.7948455810546875 86 86 86
-2.0459766387939453 -0.6509604454040527 6.831193923950195 77 77 77
-0.7497016191482544 2.439439296722412 5.954878330230713 156 156 156
0.7960922122001648 -1.3500957489013672 5.427927494049072 163 163 163
0.9891445636749268 2.7750954627990723 4.861362934112549 144 144 144
-2.025137424468994 1.3139426708221436 5.807958602905273 133 133 133
-1.1656171083450317 1.4239330291748047 6.230862617492676 82 82 82
-0.9952464699745178 1.4216090440750122 6.284595966339111 2 2 2
-0.9468418955802917 1.4351855516433716 6.354006767272949 32 32 32
-2.09999418258667 -0.6861304640769958 7.007884979248047 77 77 77
0.5555464029312134 -1.3601696491241455 5.587233543395996 65 65 65
-2.0441508293151855 -0.6499488949775696 6.825199127197266 77 77 77
-1.8430522680282593 -0.6959064602851868 7.057887077331543 6 6 6
-2.196054458618164 -0.6904016733169556 6.773044109344482 10 10 10
0.44562575221061707 0.25793859362602234 5.810711860656738 1 1 1
-1.1251213550567627 1.4226419925689697 6.215395927429199 7 7 7
0.10627096891403198 -1.5550122261047363 6.532800197601318 113 113 113
-1.8954731225967407 -0.7275856137275696 6.844480991363525 249 249 249
-1.3835505247116089 1.426383137702942 6.127279758453369 60 60 60
-2.3536696434020996 -0.7135391235351562 6.985219478607178 84 84 84
0.422220915555954 0.27194949984550476 6.072864055633545 3 3 3
0.019426004961133003 -0.7053969502449036 6.819580554962158 161 161 161
-1.9941476583480835 -0.7500962018966675 7.071044921875 210 210 210
0.42999839782714844 0.2709607779979706 5.990591049194336 125 125 125
0.4694989323616028 0.2747364342212677 5.854263782501221 14 14 14
0.630251407623291 -0.5986034870147705 5.461187839508057 1 1 1
0.6302539706230164 -0.598604142665863 5.4611897468566895 1 1 1
-2.028902530670166 -0.7205708622932434 6.5861029624938965 186 186 186
-1.5721583366394043 1.4057985544204712 5.97193717956543 1 1 1
0.508688747882843 0.2833516299724579 5.727229595184326 1 1 1
-2.1623482704162598 -0.719186544418335 6.703190803527832 239 239 239
0.8175126314163208 -0.5970996618270874 5.498441219329834 71 71 71
0.49286210536956787 0.6457636952400208 5.862509727478027 217 217 217
-2.023559808731079 -0.7478450536727905 6.834758281707764 249 249 249
-2.1168675422668457 -0.7543138861656189 6.8716020584106445 172 172 172
-2.0902457237243652 -0.7453085780143738 6.784763336181641 186 186 186
-1.3835777044296265 1.426495909690857 6.127443790435791 60 60 60
-1.7210952043533325 1.9309546947479248 5.9145402908325195 7 7 7
0.6302598714828491 -0.5986142158508301 5.461176872253418 1 1 1
0.6339055299758911 -0.6275779008865356 5.447524547576904 103 103 103
0.5070493221282959 0.2840001583099365 5.74731969833374 157 157 157
-0.44035831093788147 0.6461192965507507 6.355631351470947 17 17 17
-1.572141408920288 1.4057884216308594 5.971898078918457 1 1 1
0.49388742446899414 2.792131185531616 4.815385818481445 56 56 56
0.6070302128791809 1.7769242525100708 5.61794376373291 54 54 54
-1.8941991329193115 1.426291823387146 5.91112756729126 106 106 106
-1.5723071098327637 1.4058794975280762 5.9722676277160645 1 1 1
-0.41707906126976013 1.573135256767273 6.51864767074585 16 16 16
0.5162249803543091 0.28268465399742126 5.645824432373047 2 2 2
-2.3546297550201416 -0.8828827738761902 7.072082996368408 164 164 164
-0.44817838072776794 0.644994854927063 6.387124061584473 199 199 199
0.7047645449638367 2.8158373832702637 4.821087837219238 156 156 156
-1.9059545993804932 1.3936588764190674 5.779737949371338 45 45 45
-1.9330432415008545 -0.7771124839782715 6.210853099822998 225 225 225
-1.0180681943893433 0.3671838045120239 6.648705959320068 103 103 103
0.8075644373893738 0.2965905964374542 5.518277645111084 58 58 58
-2.044506311416626 1.7784287929534912 5.813404083251953 6 6 6
0.6064900159835815 1.5782089233398438 5.57481575012207 2 2 2
0.6418802738189697 -0.7460702061653137 5.405391216278076 13 13 13
0.0838833600282669 -1.415826439857483 6.697579383850098 38 38 38
0.5287227034568787 -0.798747181892395 5.6691436767578125 34 34 34
-2.0418810844421387 1.435777187347412 5.837871074676514 2 2 2
0.08048281073570251 -1.346184253692627 6.410920143127441 38 38 38
-2.0448217391967773 0.578743040561676 5.937755107879639 15 15 15
0.5865359902381897 -0.8061563372612 5.668155193328857 3 3 3
0.804290235042572 -0.7733619213104248 5.320013999938965 53 53 53
0.2207699418067932 0.380948007106781 6.3803277015686035 44 44 44
1.7422263622283936 -0.7350378036499023 4.8536057472229 210 210 210
-2.543728828430176 0.38699790835380554 5.946403503417969 179 179 179
-1.3516976833343506 0.4920983910560608 6.213850498199463 1 1 1
-0.6906970143318176 -1.8967723846435547 6.062600135803223 13 13 13
0.08304917812347412 -1.2044131755828857 6.535092830657959 3 3 3
-0.4361599087715149 0.7611032128334045 6.425896644592285 50 50 50
0.5844019651412964 0.6551263332366943 5.532003402709961 121 121 121
0.6401845216751099 2.6204848289489746 5.163787841796875 34 34 34
0.6046770215034485 1.4161180257797241 5.64363431930542 54 54 54
0.6541719436645508 -0.0400206595659256 5.446160316467285 205 205 205
0.6433929204940796 -0.04427775368094444 5.634631633758545 6 6 6
-1.984963059425354 -0.39566555619239807 6.7657470703125 251 251 251
-1.6627683639526367 -0.4434080719947815 7.182462215423584 79 79 79
-0.9000869393348694 1.9469101428985596 6.3082661628723145 158 158 158
0.8185589909553528 -0.049697671085596085 5.55586576461792 86 86 86
-0.9322129487991333 1.9340440034866333 6.291114807128906 128 128 128
1.4265868663787842 -1.938533902168274 3.8052849769592285 123 123 123
-0.9974513649940491 1.9647458791732788 6.364223003387451 175 175 175
-2.1182425022125244 -0.39484596252441406 6.839481353759766 199 199 199
-1.5671426057815552 -0.3907512128353119 6.985075950622559 238 238 238
-0.8473803997039795 1.9416768550872803 6.346844673156738 26 26 26
-2.4706621170043945 -0.05982822924852371 6.737783432006836 252 252 252
-2.019824504852295 -0.37286385893821716 6.522565841674805 199 199 199
0.8019896745681763 -2.417175531387329 5.027376651763916 79 79 79
-2.2276220321655273 -0.346678227186203 6.668254375457764 140 140 140
-1.6573618650436401 -0.1058666855096817 7.24851655960083 227 227 227
-1.7697046995162964 -0.09279202669858932 6.971643924713135 251 251 251
-2.019930839538574 -0.09111328423023224 6.888986587524414 195 195 195
1.5806950330734253 -0.07899235188961029 3.6630373001098633 13 13 13
0.6135585904121399 0.8688544631004333 5.672512054443359 9 9 9
-0.4707159698009491 1.0164726972579956 6.39509391784668 13 13 13
0.45017457008361816 -0.09057148545980453 5.775821208953857 3 3 3
-0.8473644256591797 1.9416698217391968 6.3467936515808105 26 26 26
-0.994929313659668 -0.0949031263589859 6.6444902420043945 169 169 169
-1.3947011232376099 -2.507561683654785 5.93335485458374 118 118 118
-0.4512150287628174 1.0459810495376587 6.466719627380371 1 1 1
-1.0504119396209717 1.8424006700515747 6.192574977874756 69 69 69
0.8819706439971924 -1.9638229608535767 4.948205471038818 56 56 56
0.8820255994796753 -1.9639638662338257 4.948486328125 56 56 56
0.24343468248844147 -0.12445218861103058 6.097517967224121 180 180 180
0.6064915060997009 1.5782133340835571 5.5748090744018555 2 2 2
-2.0323636531829834 -1.934347152709961 5.717038154602051 19 19 19
-1.2394146919250488 1.07218337059021 6.1654229164123535 20 20 20
0.3276177644729614 -0.11204148083925247 6.03195858001709 73 73 73
-1.6719536781311035 -1.9075815677642822 5.7585906982421875 25 25 25
0.21884237229824066 -0.13254055380821228 6.297930717468262 122 122 122
0.876803457736969 -1.7919095754623413 5.372016429901123 96 96 96
0.6284937262535095 -0.23032096028327942 5.439121246337891 1 1 1
0.8754368424415588 -1.836618423461914 5.534956455230713 48 48 48
-0.5162408351898193 1.765903115272522 6.287999153137207 117 117 117
-0.5162705183029175 1.765953779220581 6.288127899169922 117 117 117
-1.2393611669540405 1.0721235275268555 6.165135383605957 20 20 20
0.8348946571350098 -1.7376999855041504 5.423177719116211 164 164 164
0.9857442378997803 -1.7088253498077393 5.362610816955566 128 128 128
0.9857445359230042 -1.7088308334350586 5.362631797790527 128 128 128
-0.19362330436706543 1.843154788017273 6.712794780731201 14 14 14
-0.21606090664863586 1.879499912261963 6.838094234466553 14 14 14
-0.7114899754524231 -1.9563133716583252 6.245418548583984 13 13 13
-2.140302896499634 1.2772862911224365 5.872337818145752 22 22 22
-0.858246922492981 1.7392146587371826 6.253927230834961 11 11 11
-2.11635160446167 -1.8084932565689087 5.851063251495361 253 253 253
-0.45006170868873596 1.7030502557754517 6.238800525665283 58 58 58
-0.31791114807128906 1.2257485389709473 6.634618759155273 189 189 189
0.17092040181159973 -0.14482946693897247 6.492514610290527 13 13 13
-0.4034382104873657 1.1922132968902588 6.453897476196289 80 80 80
0.5102994441986084 1.5316681861877441 5.740675449371338 1 1 1
-0.9108034372329712 1.1941208839416504 6.331892013549805 124 124 124
-2.0516960620880127 1.0810655355453491 5.7663960456848145 113 113 113
-2.5145263671875 -1.622055172920227 5.73480749130249 129 129 129
-1.3228340148925781 1.1418546438217163 6.104544162750244 105 105 105
0.8320015072822571 -1.5468906164169312 5.4278035163879395 59 59 59
0.3741622269153595 -0.10158104449510574 5.974713325500488 2 2 2
-2.498166084289551 -1.6131935119628906 5.709238529205322 102 102 102
-1.6892976760864258 -0.1315072774887085 6.923179626464844 103 103 103
-1.130358338356018 1.200456976890564 6.208130836486816 161 161 161
-0.8453530073165894 1.2269010543823242 6.264451503753662 4 4 4
-1.9736460447311401 -0.5412747263908386 6.829061508178711 83 83 83
-1.8393298387527466 1.2512987852096558 5.9005231857299805 76 76 76
-4.707053184509277 -1.1927921772003174 13.843697547912598 18 18 18
-1.4016667604446411 1.6059472560882568 6.178728103637695 52 52 52
-0.9124823212623596 1.2273954153060913 6.276597499847412 36 36 36
-1.869940996170044 -0.6484737992286682 7.053584098815918 28 28 28
-1.7932595014572144 0.19781525433063507 6.714985370635986 253 253 253
-2.3789162635803223 0.3968888521194458 6.695162296295166 142 142 142
0.6513670086860657 -1.6649268865585327 5.179015636444092 152 152 152
-1.2265300750732422 1.2538212537765503 6.211892127990723 3 3 3
-1.107564926147461 1.6478439569473267 6.485808849334717 9 9 9
0.6668484210968018 -1.9366410970687866 5.354360103607178 14 14 14
-0.7143675684928894 1.4107797145843506 6.387258052825928 5 5 5
-1.5274341106414795 1.2167760133743286 6.019644260406494 143 143 143
-1.4047520160675049 1.247418999671936 6.118368625640869 45 45 45
0.6547730565071106 -1.381812572479248 5.49213981628418 27 27 27
-1.0969233512878418 1.2675526142120361 6.31897497177124 27 27 27
-0.9333280324935913 1.5744935274124146 6.310308456420898 172 172 172
-0.7995331287384033 1.256569504737854 6.314292907714844 4 4 4
-1.165628433227539 1.4239258766174316 6.230888366699219 82 82 82
0.4965931475162506 0.6488387584686279 5.871979713439941 217 217 217
-2.0418012142181396 1.4357353448867798 5.837722301483154 2 2 2
0.7958341836929321 -1.3524426221847534 5.438371658325195 163 163 163
-1.4047504663467407 1.2474167346954346 6.118364334106445 45 45 45
-2.093808889389038 -0.8034213185310364 6.541150093078613 111 111 111
-1.0969260931015015 1.267581820487976 6.318902969360352 27 27 27
1.4529138803482056 -1.9417272806167603 3.7364675998687744 52 52 52
0.5565692782402039 -1.3570696115493774 5.572568893432617 65 65 65
-1.8760818243026733 1.232433557510376 5.83650541305542 21 21 21
-1.1438429355621338 1.3003952503204346 6.239919185638428 38 38 38
-1.9018969535827637 1.390938401222229 5.771823883056641 46 46 46
-1.0420836210250854 -0.18464520573616028 6.589117527008057 232 232 232
0.10603028535842896 -1.5560122728347778 6.534435272216797 85 85 85
-1.8035554885864258 -0.5890608429908752 6.950987815856934 191 191 191
-2.328124761581421 -0.7044773697853088 6.90962028503418 84 84 84
-1.5722602605819702 1.4058619737625122 5.972182273864746 1 1 1
-1.7451587915420532 -0.8098059892654419 6.4809746742248535 3 3 3
0.6360462307929993 -0.7853226065635681 5.488731384277344 173 173 173
-1.8941391706466675 1.4262394905090332 5.910938262939453 106 106 106
-0.9060807824134827 1.2778242826461792 6.287762641906738 42 42 42
0.6070295572280884 1.7769265174865723 5.6179518699646 54 54 54
0.6246710419654846 0.6848724484443665 5.573847770690918 133 133 133
0.6246704459190369 0.6848727464675903 5.573855400085449 133 133 133
-0.0681978091597557 2.092099666595459 6.1334147453308105 109 109 109
0.8322826623916626 -1.1727327108383179 5.467706203460693 1 1 1
-0.20253528654575348 2.1148834228515625 6.184582233428955 205 205 205
-0.30307668447494507 2.090979814529419 6.096342086791992 67 67 67
0.0838840901851654 -1.4158252477645874 6.697574138641357 38 38 38
-0.15553167462348938 2.117954969406128 6.130990505218506 117 117 117
0.638645350933075 -1.159855604171753 5.426525592803955 71 71 71
0.6132462620735168 1.2253751754760742 5.6172099113464355 0 0 0
-0.19062694907188416 2.477553367614746 6.20896053314209 60 60 60
-0.4559570550918579 0.6459169983863831 6.419544696807861 141 141 141
0.518284797668457 -1.1910971403121948 5.717202663421631 0 0 0
-0.7496495246887207 2.4393622875213623 5.954705238342285 156 156 156
-0.47711941599845886 0.647756814956665 6.507090091705322 148 148 148
-2.0448191165924072 0.5787454843521118 5.937747955322266 15 15 15
0.6487946510314941 0.5128964185714722 5.648725509643555 177 177 177
-2.019195556640625 1.306827187538147 5.795924663543701 99 99 99
-2.037860631942749 0.5323379635810852 5.951655387878418 71 71 71
-1.1322910785675049 1.3738970756530762 6.045317649841309 82 82 82
-1.8941943645477295 1.4262866973876953 5.9110517501831055 106 106 106
0.14916959404945374 -1.2122448682785034 6.454923629760742 50 50 50
0.15699809789657593 2.6650381088256836 5.562887668609619 136 136 136
0.0830923467874527 -1.2044545412063599 6.537050724029541 3 3 3
0.05206597223877907 -1.2451910972595215 6.759867191314697 95 95 95
-1.285641074180603 0.4488198459148407 6.435268402099609 152 152 152
0.015581049956381321 -1.223686695098877 6.752203941345215 94 94 94
0.08304954320192337 -1.204412817955017 6.535090446472168 3 3 3
-1.5456428527832031 0.4240278899669647 6.335399627685547 185 185 185
0.8282268047332764 -0.9854828119277954 5.488785266876221 146 146 146
0.6451947689056396 -0.9738155007362366 5.434298515319824 38 38 38
-2.5805094242095947 0.37959492206573486 5.947889804840088 182 182 182
-1.3361071348190308 0.3991525173187256 6.369323253631592 104 104 104
