ply
format ascii 1.0
element vertex 712
property float x
property float y
property float z
property uchar red
property uchar green
property uchar blue
end_header
1.3620539145542347 -1.7472955831136336 5.464461319416639 12 12 12
1.4964378307186872 -2.378088187394181 5.076056611968923 44 44 44
1.3698618892855925 -1.7747700725999307 5.444829265070651 110 110 110
1.3784602012946383 -1.7325163569508948 5.406924850591812 147 147 147
1.354206276119044 -1.7320083587696233 5.459005532539228 147 147 147
1.4118260622176901 -2.4238388347750286 5.222742388969739 123 123 123
1.3666783421897124 -1.9031949207728434 5.351352521589108 120 120 120
1.3254084809247106 -1.7230471257025886 5.456568615322893 73 73 73
1.3086281384085556 -1.7229149253199294 5.490618394663263 73 73 73
1.3498840493905675 -1.8960875459551851 5.3490398732100966 126 126 126
1.3735641454482728 -2.0309458030626897 5.269209962022627 113 113 113
1.0845250687141188 -0.4059115209755696 5.764009985297794 128 128 128
1.3396441285353882 -2.125587251101856 5.2874836775654535 45 45 45
1.2262575526846338 -0.6180476596419477 5.557434622707672 109 109 109
1.3762773676630375 -2.106606382698656 5.175915368809973 51 51 51
1.3762773679503788 -2.1066063816004474 5.175915364542828 51 51 51
1.3670855676877345 -2.124351197041031 5.163888403471152 106 106 106
1.317369290378069 -2.180245269647365 5.277810177685091 101 101 101
1.227626934165483 -1.733930285215631 5.399704012160444 13 13 13
1.2304732253719046 -1.7862039176278668 5.32765675272119 133 133 133
1.3000319525607251 -2.3759044830349727 5.144383694463676 46 46 46
1.1917041726381772 -1.489999077575476 5.405550026809202 41 41 41
1.206268522979383 -1.722848876663938 5.381736066328941 27 27 27
0.9786885375654614 -0.016958195824380847 5.657032871979719 222 222 222
1.2581705691825282 -2.0942789173467826 5.169157430199138 65 65 65
1.2040430305765433 -1.7332267637816785 5.312403187355906 29 29 29
1.216615668263305 -1.873145825088459 5.252578160575085 108 108 108
1.2495178466671824 -2.066783065499955 5.137704685821769 104 104 104
1.3998648336060735 -3.1757171010968315 4.989078995075207 70 70 70
1.1877226269424273 -1.8743412662519885 5.235404804132678 47 47 47
1.1756527378958015 -1.8750085692367875 5.254791492614596 47 47 47
1.2117678963464533 -1.9961461569337162 5.1658709962159035 41 41 41
1.1902480317891388 -1.883521796439072 5.2111492074302 52 52 52
1.0001436533445234 0.30541992016104275 5.574249266303078 99 99 99
1.1712360397103694 -2.1281820840146977 5.195491140876672 18 18 18
1.1712360395521044 -2.128182084338652 5.195491140508379 18 18 18
1.2155606149341522 -2.120639127098093 5.062966282792932 18 18 18
1.1105398614622586 -1.770344433859522 5.272010176388718 121 121 121
1.0603264253302929 -1.3138827341264814 5.405666709737091 115 115 115
1.320780293479884 -3.0634005332938816 4.962638998222178 108 108 108
1.0044537223860424 -0.2776616681764396 5.514990115398038 255 255 255
1.0992505025633459 -1.801733896814989 5.269250913580639 119 119 119
1.0687501146977738 -1.7006128460875842 5.258221352338941 39 39 39
1.0863430274290773 -1.7871375340529412 5.203063966051773 51 51 51
1.1017767578750441 -1.9862848954165353 5.207463420212617 54 54 54
1.0550825626709037 -1.75855512213041 5.216657136687818 102 102 102
0.945956955467233 0.35234596009416924 5.497275156717345 91 91 91
1.027874271258036 -1.761989064481746 5.199362985914929 97 97 97
0.9816335279397186 -1.3090714894691384 5.382135069078379 138 138 138
0.6225694845759021 0.03896853057036318 5.596526808920467 224 224 224
0.8562576588334069 -1.4287050327562751 5.292658555100805 178 178 178
0.8996117512083559 -1.4269541715281184 5.283339841961819 178 178 178
0.9125175007924731 -1.529927152825125 5.248940343015979 53 53 53
0.9063444370702846 -1.5245756951373817 5.316818049597845 53 53 53
0.866700191787632 -1.493134587027521 5.24757141762545 97 97 97
0.8276536184155426 -1.3668511476281455 5.315214347494157 97 97 97
1.0110234296285627 -2.2991169272938645 4.967472132692141 105 105 105
1.0466651168855312 -2.1399344001923892 4.88154275450656 53 53 53
0.9544458881291097 -2.053632152071594 5.089906768562416 118 118 118
0.8934889219545089 -1.619237641341284 5.175158921309437 43 43 43
0.9373886026295151 -1.9922065876063828 5.106170076245772 26 26 26
0.955106428704515 -2.0398216247866863 4.95409535427917 72 72 72
0.9551064291904162 -2.0398216237528506 4.954095352715572 72 72 72
0.829960167103555 -1.4406086454599771 5.314139136710284 95 95 95
0.9605154896578888 -2.296581891768296 4.955641494755627 111 111 111
0.8935620215962752 -2.1008000114885115 5.014890102002452 144 144 144
0.8935620213603488 -2.1008000111128093 5.014890100987959 144 144 144
0.9936808267292103 -2.2468036083018994 4.767083931564435 53 53 53
0.8183607272393234 -1.8042149150212554 5.119773058997616 86 86 86
0.5699498473542878 0.16785424943350055 5.488410584770294 39 39 39
0.8954130476522646 -2.0711294813735597 4.864070002049983 60 60 60
0.8550635122974284 -2.076295710576147 5.00982474139742 60 60 60
1.002251597787987 -2.7961082371810226 4.738352909852536 70 70 70
0.8059195217714775 -1.9461376508152122 5.049427718455951 37 37 37
0.7683558222111948 -1.7835880540617781 5.104504441445723 92 92 92
0.7248613841037491 -1.578262759957195 5.099595046560786 17 17 17
0.7256492046289914 -1.5722272508028654 5.174789445621202 17 17 17
0.9776405967640611 -2.2560304326021896 4.6311093820929665 13 13 13
0.875936919852427 -2.4102814316639525 4.825242368471966 15 15 15
0.6314258264877263 -1.241331511515146 5.261719032385937 99 99 99
0.5111341170191166 -0.03129171631376917 5.46494482291592 71 71 71
0.4462672362825877 -0.0011293385800174478 5.446587115653274 124 124 124
0.4530419500395953 -0.13193448007628497 5.439012613902543 131 131 131
0.9546234410756038 -2.8827756917979497 4.598785779982865 62 62 62
0.4400614961869861 -0.1002312546454199 5.442047805053345 160 160 160
0.3346125838019575 0.027501946444552117 5.52617548041213 132 132 132
0.4379540382482416 -0.1615385011903968 5.481611914862614 62 62 62
0.7840072075144554 -2.3663547951634505 4.732691113171238 74 74 74
0.8064666448825336 -2.4499161503361484 4.70206547364031 54 54 54
0.45367893359550715 -0.5666099261173855 5.423188706692179 134 134 134
0.3765889583616298 0.10157746587726482 5.50141136441738 56 56 56
0.3354102060840429 -0.34559865619224656 5.44487260823175 159 159 159
0.290159546746438 0.7549066364222983 5.388379747635951 84 84 84
0.40569581449847775 -1.2481388684314338 5.243704781556791 154 154 154
0.35539253460205533 -1.0459218022939925 5.315398527062119 88 88 88
0.37666680212089915 -1.061989960514725 5.216625717262362 88 88 88
0.3573733591383614 -1.0858593342997058 5.283173233247245 166 166 166
0.35684434670554266 -1.033577773478787 5.204441286732947 155 155 155
0.33424426800787965 -1.0824716542166046 5.278467642569523 149 149 149
0.445787412957079 -1.980781717293835 4.842435605241202 25 25 25
0.01673294486153223 1.1022460054557013 5.577426869302124 38 38 38
0.019265828072884787 0.2714747633950781 5.567675759680994 31 31 31
0.0935944352099424 0.20585687301314315 5.399795027884083 31 31 31
0.3872175576699399 -1.9645429503515217 4.849901967227051 84 84 84
0.2458611776200556 -1.4558376298396745 5.109036197560602 106 106 106
0.1991300917589224 -1.2255465791412166 5.198447183473731 95 95 95
0.13605615560168632 -0.948959144084668 5.302181902730801 96 96 96
0.16287313475784812 -0.7128798994225195 5.237487306311188 109 109 109
0.45730496285189437 -2.2216094376483 4.671948265066292 78 78 78
-0.0492770798880178 0.5405119272932981 5.598461422432954 143 143 143
-0.03431611011848203 0.22939246521159912 5.570623754706927 149 149 149
0.5878432639925246 -2.4996524720349274 4.345300948692341 36 36 36
-0.08923521091605337 0.5988034085516784 5.615195599720091 141 141 141
-0.050029007975232714 -0.14286174863030615 5.5179307802108015 38 38 38
-0.03139719228156736 -0.31030067761213137 5.486691022532107 142 142 142
0.37037672884894113 -2.1369098823395576 4.663846946545721 24 24 24
0.17178524517325927 -1.4910565155012805 5.033086299210357 47 47 47
0.23542774395576366 -1.7428302544757641 4.912918456536235 45 45 45
0.10409445596065502 -1.2284650197477949 5.149794852953222 41 41 41
-0.04627143751994693 0.5996458047361165 5.409984946293364 130 130 130
0.03281527182635187 -0.9579599255832011 5.267931796484334 47 47 47
-0.11973101025097854 0.00515498088022141 5.514623317601341 14 14 14
-0.14388362603164723 0.1960876877632627 5.550380711255359 95 95 95
-0.15897494360722617 0.3251726610895402 5.567922795997747 32 32 32
0.40992760004154544 -2.3320076409607653 4.489293502226996 41 41 41
-0.12989434899777005 -0.2954269601799967 5.43287628006559 34 34 34
0.6920285870817598 -2.9659338762781435 4.024812833537605 157 157 157
-0.23664387054580271 0.7397773156169406 5.63732744491496 126 126 126
-0.09073639017351787 -0.5957539662686149 5.356493500331702 24 24 24
-0.09941852423973474 1.149145737009473 5.367422997403842 130 130 130
0.6890783565580868 -2.9769449727625568 4.002677244683801 165 165 165
0.6890783544715211 -2.9769449733279227 4.002677247757131 165 165 165
-0.1447585794441912 0.5437053279904817 5.394197233021244 20 20 20
0.6166768186781654 -2.5464776571401444 3.9505153267835595 89 89 89
-0.30738638069087953 0.5317821900576507 5.600014930975848 157 157 157
-0.332962129359174 1.362197271233226 5.67135159579629 140 140 140
-0.20387687964101892 0.3349038690129247 5.3514380405454895 133 133 133
0.6887073631111743 -3.034286958183043 3.8793860151760464 71 71 71
-0.3748577823116416 0.47385115129256966 5.554903797594868 172 172 172
-0.45853613544882904 1.5094522062882632 5.695609815595762 24 24 24
-0.4041172860756122 0.4704519859171655 5.5075399558621 38 38 38
-0.5014937749265976 0.8763644615729423 5.681680760198113 46 46 46
-0.5458062915263361 1.4258133212535014 5.726888078462386 115 115 115
-0.5449615637546624 1.5835129284334797 5.720761617393852 34 34 34
-0.6243475403627834 1.4630691841784507 5.736233769426162 24 24 24
-0.6243475576283402 1.463069202729669 5.736233800395158 24 24 24
0.3220851534118946 -2.5763779527879573 3.9622342000303203 98 98 98
-0.8253064601790433 1.12258379323467 5.758707148529057 137 137 137
-0.8830826046632572 1.1433832261702006 5.769622147079883 154 154 154
-0.6459904124829972 0.49391492344695515 5.255246292026009 29 29 29
-0.9522152548239196 1.942496163603419 5.816479349402754 43 43 43
-0.937189172272231 1.0901485870193186 5.758301300979315 38 38 38
-1.0136731387987241 1.775033069174347 5.842818812803123 43 43 43
-1.058384975143321 1.727857486155901 5.8514286729519265 135 135 135
-1.1772909634889184 2.0937360780470695 5.882635174042803 112 112 112
-1.204020442254547 2.1502247623015904 5.883218373420141 30 30 30
-1.2137229251638904 1.933097896529481 5.8907951801234235 37 37 37
0.25866365583654094 -2.6560615685249793 3.680870212468066 31 31 31
-1.21700357827367 1.9473510993894014 5.88075940494324 32 32 32
-1.4353470311887015 2.060811443131993 5.936211402158358 154 154 154
-1.4617075983192254 1.5421709372637793 5.889955952453793 131 131 131
-1.529305548149185 2.1094771951520532 5.965510913385589 118 118 118
-1.0781917635990017 -0.23085595046397986 5.216507164086492 37 37 37
-1.0781918299508915 -0.23085592606598082 5.216507248300814 37 37 37
-1.1207299612221857 -0.14443360898745727 5.249266775400308 152 152 152
-1.1129140065727818 -0.18154891494476777 5.230493110671683 34 34 34
-1.1129140435905862 -0.1815489021635409 5.230493157690494 34 34 34
-1.1341186728306893 -0.19760956070114277 5.211988501612027 152 152 152
-1.179080123596011 -0.14509050695179085 5.248755451006893 153 153 153
-1.1790800758428597 -0.14509052297144204 5.248755392047527 153 153 153
-1.1108405713537055 -0.3244530985999008 5.153727593911056 169 169 169
-1.1945924611198415 -0.12001906599735383 5.2369971173924155 26 26 26
-1.723362462411291 2.3029490916686033 6.024920454351837 114 114 114
-1.2119589844258436 -0.13525648538797697 5.2159563378252995 156 156 156
-1.211959066241946 -0.13525645629878527 5.215956440565704 156 156 156
-1.2187090359398218 -0.20929824855300141 5.190802668211935 39 39 39
-1.2187091101626542 -0.2092982243788223 5.190802760894075 39 39 39
-1.2589328623860712 -0.16933933135800555 5.206048356637 154 154 154
-1.2825276531121994 -0.11132745997736575 5.225936385498438 155 155 155
-1.2980607179178814 -0.1365234808981827 5.219596865507737 28 28 28
-0.9055069661345501 -1.1125460660312783 4.719972972063596 168 168 168
-1.9425752828568135 2.4754943837314607 6.0801591433520095 104 104 104
-1.9493319217376122 2.492013376349976 6.062850464870418 87 87 87
-1.3261941349340205 1.4664538942202714 5.3504175257785676 123 123 123
-1.0273315035897164 -1.0841579612396932 4.678073850369653 132 132 132
0.013137155832461228 -2.605266777030748 3.4207902851086467 40 40 40
-0.23415357298861064 -2.3597817374113554 3.7021872633412616 45 45 45
-0.29026242422508164 -2.290396712582107 3.7671740130367177 47 47 47
-0.2283090159893214 -2.3721623467790116 3.6885186201069002 42 42 42
-0.49800006128320135 -2.0475022017993796 4.01172742364228 98 98 98
-2.2856186377708987 2.1202492908050856 6.146698290020757 113 113 113
-5.744849867812113 -1.1765658469812852 11.083565095104344 48 48 48
-0.7389693144940204 -1.734732874542925 4.280884971437649 47 47 47
-0.7979982518594365 -1.649763996362713 4.3236634546004735 52 52 52
-2.338570858518543 2.259620326633858 6.130944730957661 112 112 112
0.0003223873031779241 -2.620216075945361 3.318898331143916 98 98 98
-1.6822315554823568 -0.08531781999774715 5.287638080137861 85 85 85
-1.490917599926499 -0.5560726216577154 5.045926666602454 141 141 141
-2.140721371916988 0.976601763955537 5.775787154532864 115 115 115
-1.5142432543934046 -0.5504717190676258 5.039375904032315 20 20 20
-2.1871560304394375 1.085720595896211 5.814279978380652 122 122 122
-2.312471484231456 1.5108238119347848 5.93698987488684 120 120 120
-1.6240729858321474 1.5452032116165688 5.340668855021574 124 124 124
2.3426677491697068 -1.768678464236695 6.007872550463768 69 69 69
2.0081667398143903 0.2676400674565363 5.401629437737219 40 40 40
2.2531930847815267 -1.4186821236434002 6.058465977852967 133 133 133
2.277439576551419 -1.703969615064628 5.989969451652844 97 97 97
1.9064791154311758 6.531317561997899 21.5948627201499 85 85 85
2.2034204459542637 -1.2097050801900189 5.980000330554736 63 63 63
2.2373716435618616 -1.9385702190704828 5.890479980376056 27 27 27
2.1800035276222505 -1.9342233459278273 5.856292663803645 26 26 26
2.1552926431578276 -2.1488816622378413 5.754901291812794 79 79 79
1.9289888827162807 0.22097483393176864 5.683438879169908 64 64 64
2.1341355659749404 -2.3810141422080378 5.638963421010945 78 78 78
2.110981245004883 -2.2909297092039473 5.649296488865693 23 23 23
2.040140361150198 -1.7977780871866222 5.914140759912923 20 20 20
1.883348987957927 0.5144746838116775 5.56740355653754 33 33 33
2.0589479026655755 -2.0010091463813855 5.749891948200805 104 104 104
1.9646553455194575 -1.3212683214460839 5.881172666486598 22 22 22
1.8340999209378837 -0.9995227161221747 5.79924154503215 254 254 254
1.802330206486206 -0.01095529779069394 5.686108063198709 25 25 25
1.5680195030565056 0.7821631999127682 10.371718134294943 29 29 29
1.8093186380708024 -0.8278624084579306 5.771699721229902 196 196 196
1.8033700606912617 0.5462999080929494 5.548178641965511 118 118 118
2.0303479681135603 -2.4397750907873665 5.480280819536632 79 79 79
1.7769153820511043 -0.5784500464329246 5.763218976027187 147 147 147
1.657638151858284 -0.029939545923715477 5.172471889802531 32 32 32
1.9407425007412296 -1.9460979094220303 5.812664333799052 65 65 65
1.940742502525951 -1.946097905041656 5.812664315186203 65 65 65
1.7870428339042015 -0.9037003650008559 5.786253735046367 68 68 68
1.6513963115009715 -0.9644870835031923 8.646282602186599 100 100 100
1.8194227242021639 -1.6780467249743025 5.80547155382374 98 98 98
1.6972204441992271 -1.0286611934649723 5.736775056094895 254 254 254
1.5465590622326202 0.09934029172157202 7.657689621755714 138 138 138
1.721963589538129 -0.8086917369168475 5.335941030127381 200 200 200
1.908052830847662 -2.5000731518679027 5.34050224696251 89 89 89
1.6647150042651444 -1.0755761782853988 5.7276199335569675 251 251 251
1.2098866492072164 0.22609184411225072 10.416409555090073 45 45 45
1.599261933723881 -0.7573798786079119 5.703293364649743 25 25 25
1.6822928372071717 -0.826643221655727 5.520946944266861 55 55 55
1.7388673903289233 -1.3127568211752862 5.840112980424973 23 23 23
1.7122486304595796 -1.8103503254981677 5.671840662895905 116 116 116
1.2830687600830384 -1.6985954609344913 9.230733659420874 116 116 116
1.5288356146721052 -0.4472439501669197 5.6781409683343265 103 103 103
1.5592465817760113 -1.009207641624391 5.667568939103214 254 254 254
1.6752011182556512 -0.8324790417208421 5.530892407025713 204 204 204
1.2358357799881183 -0.010566119129954124 8.89925182324153 204 204 204
1.5095600711998631 -0.9447089863221361 5.680030876494838 90 90 90
1.6660027729312465 -1.805767568747962 5.595023001990937 69 69 69
1.634774193755896 -1.7482098724238786 5.595038171091631 38 38 38
1.5499322043475243 -1.3408578525678374 5.699991589570301 106 106 106
1.6648132246465683 -2.1971041169923966 5.348000121586238 21 21 21
1.5888622837797377 -2.06300892857844 5.458068701663255 107 107 107
1.557687841781452 -1.9272866195180505 5.522555225496242 112 112 112
1.5040354452825282 0.07472257948516113 5.808505378748669 62 62 62
1.3947705292663217 0.40730096638728935 5.546621535282932 133 133 133
1.538657988514492 -1.7513154065983705 5.514971749194151 123 123 123
1.5392511137896057 -1.8155265548688182 5.472492433441727 70 70 70
1.483054807468703 -1.575561979316813 5.5517858813934895 31 31 31
1.4410600736457977 -1.943975567376525 5.34724677401781 117 117 117
1.3896255858942572 -1.7263400937867426 5.435144683454667 47 47 47
1.2964947009084564 -1.3324795360041184 5.521810168735172 115 115 115
0.3608348548896887 -0.23119863102567062 9.88594055532278 250 250 250
1.0101573426463266 0.39967654711630457 6.3922812136019616 161 161 161
1.1354517364799421 -0.927866345913735 5.751012622159155 250 250 250
1.7036180289347458 -1.590639982327345 2.6512786149390988 112 112 112
1.226465392459701 -1.9743091596133324 5.158510851491762 115 115 115
1.0859514629631652 -1.3513828627511781 5.448540107574177 58 58 58
0.9607461467663868 -1.2842666072317188 5.369175897393617 65 65 65
0.973510722053448 -1.7815199763293417 5.113450861511845 104 104 104
0.9735107239520797 -1.7815199756334914 5.113450859618146 104 104 104
0.7441502953911416 -0.00610880157106206 5.45990677778838 237 237 237
0.9191995259191303 -1.704030178541396 5.14810833964725 16 16 16
1.0243640688814222 -2.0272738826292147 4.967034788529675 122 122 122
-0.37304858664884155 -2.2180326763354317 10.069691521873436 72 72 72
0.542672585689574 -0.5352239838598071 5.930234069773931 249 249 249
2.481496789254123 -2.2127979146793995 -0.414464353560298 161 161 161
0.6259512559771896 -0.06172441300872561 5.488917441597069 82 82 82
1.2836745283592035 -0.7572854398206388 3.658732760307463 76 76 76
-1.2904680576270537 1.8078539025346063 11.058345167738567 32 32 32
0.4151302719812426 -0.6566685822623523 5.371262352052956 158 158 158
0.3750303350641646 0.11396906898369087 5.3810239448401695 117 117 117
-2.511278553533603 -4.0024280867451765 13.589042347346481 58 58 58
2.4898754281331685 -2.1307656992555786 -0.2532897900007766 31 31 31
-3.144507352308666 -4.611381337424721 14.09137076860793 141 141 141
0.13396517520466586 -0.6904556302247781 5.230108327725223 117 117 117
0.024997248218533184 0.2954242985974202 5.376673888857613 136 136 136
-2.077021002912653 2.094785048747441 10.06432606341023 29 29 29
0.1113925768576722 -0.7216517277240364 5.209435449447231 57 57 57
-0.1510675136348742 0.41735072423038727 5.336556695567781 39 39 39
-0.38345065632133635 0.876346006337408 4.3684043202749505 114 114 114
-6.114571807727341 6.121271326310568 13.527453784350962 29 29 29
0.426143911359547 0.17566896464310652 3.827634196012434 38 38 38
-0.48448251253180746 0.8279048574866811 4.172713094157503 52 52 52
-0.004086524236436547 0.34408685630787345 3.516828415064184 24 24 24
-0.9109095907876152 -0.33232165966146376 5.01290203138128 38 38 38
-0.9326313619197742 -0.3504599032609668 4.992697236356895 45 45 45
-0.9619546217230223 -0.24496895516679504 5.036458086511298 36 36 36
1.4679847240439723 -1.1521197510340278 1.4100447177522597 16 16 16
-0.9367831401944522 -0.9033618909026901 4.645269333959971 87 87 87
-1.271351046755246 -0.1149455905119157 5.0593353022959 104 104 104
-0.7872569468992904 0.644261298509832 4.3852390389915925 34 34 34
2.3161718832163762 -1.7636207237602346 5.9470748158660465 99 99 99
2.2377372504303263 -1.4652033753371885 6.15774031224799 133 133 133
2.0038951964952236 0.18390351339480368 6.61079785886808 68 68 68
2.128068332131668 -1.2317976507334014 6.205542646459532 161 161 161
1.926531551255296 0.6138128927560873 6.532302107564774 54 54 54
2.112338058369086 -1.349610180969831 6.0324575542128 48 48 48
1.8597289263999812 0.22878288902019794 6.518050193408515 87 87 87
2.019344297050621 -1.3744019820452593 5.915327395956139 103 103 103
1.85425350563918 -0.43053085597018514 6.386794850172167 42 42 42
1.7898507718537349 0.21662113227591437 6.478124070876608 21 21 21
1.9901103955186674 -1.5029994722571949 5.933432234316299 65 65 65
2.1711191064595305 -2.1367796319692443 5.224516423564326 24 24 24
2.034570309064409 -1.810813673393581 5.687274819794461 71 71 71
2.047318615203624 -1.7613672610057627 5.560195836141385 26 26 26
1.7606437733101659 -0.5809059019472327 6.367595820754807 34 34 34
1.837620922912849 -0.9365678021123872 5.790950436859375 254 254 254
1.7125161796114636 0.2575620096631734 6.42222805214906 138 138 138
1.7125161916805676 0.25756199983083733 6.422227977217058 138 138 138
1.8070054571077288 -1.2853424498308312 6.190895938246916 81 81 81
1.8868839193448814 -1.3672404887226126 5.830723976660031 100 100 100
1.1660716969284868 -0.8882245992010191 8.254401012932043 22 22 22
1.8266522251978787 -1.4178253054122558 6.070260523678729 47 47 47
1.911237776917628 -1.8376291639853413 5.798730263263112 50 50 50
1.673130490291907 -0.6863696371842652 6.358710157255853 25 25 25
1.837065434524221 -1.3077031932597443 5.881015952530698 71 71 71
1.6804780739501144 -0.014253471287998417 6.283906200229976 64 64 64
1.7859534469324594 -1.2367840857955232 5.966825137908173 60 60 60
1.6311648241824588 -0.5337559046806126 6.368027432776965 29 29 29
1.6021076952566153 0.5062098475923028 6.334786639689419 133 133 133
2.0071819078949837 -2.140635684236581 5.145248047520052 81 81 81
0.16398508471175183 -0.3207370998181795 12.462796215599546 193 193 193
1.5775787762487627 0.35806011842107993 6.319031482534847 40 40 40
1.8501385948051774 -1.5554302418425812 5.613742093397125 53 53 53
1.5803085846755123 -0.015523870887695938 6.320589127795558 59 59 59
1.7933208545208388 -0.598731654189472 5.630658168810182 41 41 41
1.8704670188219594 -1.7235287904036074 5.517909326606967 31 31 31
1.7596010774592257 -1.564610172660148 5.91413101566429 24 24 24
1.9198675244244094 -2.2363794622694813 5.360264188031361 103 103 103
1.5817256317073687 -0.21647533834278784 6.270855860745225 21 21 21
1.8060053939759864 -1.8147784339905328 5.699501870943545 105 105 105
1.8730855024668442 -1.8333916342869463 5.394989557911781 80 80 80
1.5416470507476743 -0.7650553448880154 6.238258135274624 41 41 41
1.5416470529515458 -0.7650553430998723 6.238258122948664 41 41 41
1.4336687395759684 -0.667730700403424 6.413909624731139 27 27 27
1.728560729871643 -1.8570090685912244 5.611634484358162 116 116 116
1.7578518660842988 -0.40001662765494717 5.609755694869632 87 87 87
1.533853108522763 -0.8097386221822481 5.917783918530325 45 45 45
1.5193887422253127 -1.0588952450750488 6.045151106891198 145 145 145
1.5334944540695818 -1.1170351882349303 6.015905779575044 245 245 245
1.6916906041632844 -1.5178834564724493 5.5842286648114845 15 15 15
1.629588789579361 -1.5455351491421365 5.808220012565641 15 15 15
1.4019122354260791 0.10640537474716949 6.23403476781906 60 60 60
1.492509867775134 -1.0850046807674394 6.020354208291171 153 153 153
1.6269922855783872 -0.2901615843801127 5.794138674770171 29 29 29
1.6269922745460497 -0.2901615878114029 5.794138735625496 29 29 29
1.704390485207822 -1.806393927251259 5.4382289803497645 80 80 80
1.4002549780899334 -0.6452321170129389 5.905568373595907 24 24 24
1.6485505233126836 -0.1587898459795429 5.691982996031794 24 24 24
1.68021310328855 -0.8494135484483126 5.455743313595899 204 204 204
1.5328121805368182 -1.3397275966114313 5.811664575042954 34 34 34
1.7139223194351545 -2.15041250630633 5.287338321557385 22 22 22
1.3769146603125235 -0.6337672902976622 6.305730515768935 193 193 193
1.6436683595680481 -1.7437881065828835 5.342802081747373 59 59 59
1.3342759715185717 -0.7097866670813213 6.086691488845172 69 69 69
1.550238508080166 -1.6924879101158137 5.5809662594171465 52 52 52
1.3455805655743924 -1.0149824904033962 5.998068281249404 220 220 220
1.5644792888191557 -1.8321974511290877 5.478848187748746 121 121 121
1.3127064315924197 -0.9345238744592795 6.05101452928199 169 169 169
1.6468385949386546 -2.1097937652907484 5.110163696743421 22 22 22
1.4133813811038094 -1.1105118987839895 5.7158372978221985 77 77 77
1.1383607386933083 -0.5661906819736637 6.374308378525986 43 43 43
1.5875098198328617 -0.2426181857703195 5.052883374559073 69 69 69
1.490011814830734 -1.7718578319762188 5.478410559061621 112 112 112
1.630922763506926 -2.080049572038954 5.0054339185723595 24 24 24
1.6309227614252497 -2.0800495748264876 5.005433926657243 24 24 24
1.5891833009630032 -1.9692556946140443 5.110404688713325 115 115 115
1.4461879010073657 -1.6935437468847025 5.529812847443967 109 109 109
1.406928828549487 -1.3291915431391033 5.575875289877216 123 123 123
1.4069288285705108 -1.3291915431586625 5.575875289952752 123 123 123
1.3361558426014106 -1.231985152650123 5.679808913339109 254 254 254
1.156306290556985 0.3796000169200773 6.037776505934998 107 107 107
1.565079552524992 -2.0552134594072204 4.993290511037942 94 94 94
1.6195065356130325 -2.225173509099034 4.7992871356092905 85 85 85
1.5399862392635488 -2.131996403370103 5.003566882723262 97 97 97
1.480478378792124 -1.8866786687517108 5.116691071879702 50 50 50
1.598622776205675 -2.2503160224161753 4.731986478139362 39 39 39
1.3688509979288277 -1.8780683961107716 5.304870791569301 110 110 110
-0.6423988782458573 -2.7450759218958347 11.602695616149434 253 253 253
1.2892054220729625 -1.7390601292567782 5.381799021940473 25 25 25
0.9932321387811922 -0.4746384783522589 6.151150262811484 136 136 136
0.03276594976604163 -1.5512649710933506 8.818378330101948 66 66 66
1.1364773977052174 -1.3180622437874263 5.646405032264687 66 66 66
1.2609323972095285 -1.7624267791532273 5.348075497391875 129 129 129
1.3119013751648072 -1.7008461318491659 5.220832879958837 88 88 88
1.2689795955196912 -1.6883566522401754 5.192138172261227 18 18 18
1.4079698500338225 -2.2993075225374366 4.8091383368053195 124 124 124
1.2993137726365136 -1.860782952998269 5.050338552643944 126 126 126
1.251835139271283 -1.9732085445181946 5.102902111597637 51 51 51
1.230455866667954 -1.9296431448055202 5.129079846677415 103 103 103
0.8635725810103926 -0.023317733818453083 5.903715338345632 232 232 232
1.0634980428317204 -1.2814481680556231 5.4590378602756955 67 67 67
1.092182953030826 -1.70372876803388 5.2073467666978726 13 13 13
1.342825034317847 -2.0816915292423737 4.603050673158627 44 44 44
1.3428250359100864 -2.0816915275312935 4.6030506675959835 44 44 44
0.7961182910360632 0.32208480023059255 5.860980085252106 106 106 106
1.0463349551399692 -1.7549398593504582 5.210166951728045 103 103 103
0.9922632210490018 -1.684200089254255 5.1866975105630955 46 46 46
1.0547706152817375 -1.6817962558959758 5.087639168737485 88 88 88
1.0925627968287501 -1.9818928204884845 4.896702063016102 112 112 112
1.7131357762168453 -2.492110046721919 3.5166848107628015 72 72 72
0.9136721235439959 -1.4379665604377014 5.225252711303727 133 133 133
0.9373082977771355 -1.764388138728863 5.1103502615886915 104 104 104
0.9405475427660851 -1.7713423938796824 5.0816594246094455 109 109 109
0.9405475603139617 -1.7713423795837804 5.081659378805702 109 109 109
1.14780441085209 -2.0466914782508083 4.6477405719651035 72 72 72
0.8962898445648833 -1.771420999450191 5.1099109056501035 114 114 114
0.7694675502792807 -1.3205989000346303 5.366698681852683 122 122 122
0.9241743140970592 -1.630133310317773 5.073326891467637 49 49 49
1.1452726980253618 -2.124741863460118 4.556345181000161 62 62 62
0.24493581629120673 -0.05021306077861637 7.228844818600707 242 242 242
1.038886698744345 -2.032000301483484 4.645092746862887 118 118 118
1.082363194430237 -2.1172226481928296 4.505566314283671 53 53 53
1.0397196509688993 -2.0457187833411563 4.560321763097497 119 119 119
1.0397196471912142 -2.0457187865651094 4.560321771845999 119 119 119
1.0822902865851307 -2.2313356964406936 4.422711970447115 14 14 14
0.5465047236453471 -1.1089828007712241 5.293158226075576 104 104 104
0.37618801656332096 -0.19403995511736472 5.611740476277028 32 32 32
0.41258996938275366 -0.28600707317190466 5.54362076616809 90 90 90
0.3781826491712847 0.027624922923371036 5.580475991050138 26 26 26
0.9804886773270681 -2.254354284611713 4.3414725398458796 61 61 61
0.8308159841515562 -1.8720284872331352 4.5871383758766 50 50 50
0.34278932380562804 -0.1801893299616731 5.456981070609517 125 125 125
1.4514955257909186 -2.5000248502968727 3.3617734890171724 70 70 70
0.3611215409093938 -0.6044783183863016 5.3899270678444635 131 131 131
2.394689068957422 -0.6682490079754767 1.7970695290854928 67 67 67
1.215125708068993 -2.429871034359657 3.754952142274112 74 74 74
1.1827516579435415 -2.4159079657245677 3.795193455137901 58 58 58
1.2157335986453033 -2.434267193872244 3.6754616135285785 148 148 148
0.44258968068623655 -1.051514745877735 5.037886837127201 89 89 89
0.24326383571385315 -0.4084321909130113 5.412725060712926 127 127 127
1.2334856039682314 -2.4708791493781925 3.5056574688313438 141 141 141
0.2080321363798799 0.4184036315558237 5.376485683717469 30 30 30
0.20803212765177317 0.4184036339993632 5.376485699356693 30 30 30
0.5813249607907279 -1.6690500911954516 4.540853556350978 31 31 31
0.5813249526254116 -1.6690500956433783 4.540853570105799 31 31 31
0.17588401093510642 0.3207455457520074 5.2839560554109655 35 35 35
0.17588401727136807 0.32074554425535523 5.283956043517801 35 35 35
0.1561899422020653 0.3329550310920259 5.2895970906537775 55 55 55
0.17843873662297588 -0.12742729588080084 5.1652157720989615 154 154 154
0.17907503119889306 0.005613213082073035 5.158277762029252 130 130 130
0.6093588859353363 -1.7946039855423248 4.336834934161174 27 27 27
1.274649189482836 -2.521174207387031 3.189530685551618 142 142 142
0.2643966985345367 -0.7458075880896684 4.944583036331079 25 25 25
0.21008416024279267 -0.48063216950156307 5.029291458230217 31 31 31
0.12657014149863843 0.09395777227816059 5.16902908777426 29 29 29
0.09252884765063096 1.1899418005428404 5.201076916199242 28 28 28
0.45356308470326867 -1.6941869978764557 4.3910332972567385 32 32 32
0.055128013618964015 0.9507131162107104 5.181724931777392 35 35 35
0.05512800542862224 0.9507131210157546 5.18172494655773 35 35 35
0.3862757570303863 -1.5430080002237754 4.425376768755166 100 100 100
0.6345000301592563 -0.8626279731773695 3.9921640834384005 117 117 117
0.06625951523389167 -0.35132480914483327 4.960505523056801 151 151 151
0.018667906792271673 1.0021257485784612 5.105947292523748 41 41 41
-0.07710116212354531 0.4198901661262718 5.123255659383236 44 44 44
-0.005053045065114035 1.1879898899430443 5.063091621138429 38 38 38
-0.23130724943936762 -0.9048170521324902 5.289014810071543 150 150 150
-0.10743291876264834 0.405910143169175 5.102134827934953 36 36 36
-0.027491097696329046 1.0551284784007813 5.053881119964746 31 31 31
-0.10959529884629281 0.7506406348563966 4.9612684007891446 153 153 153
0.6037096435033624 -2.1609347806275374 3.4997967609613685 22 22 22
-0.15276392893674876 1.1751040657092038 4.861295421123695 132 132 132
2.1925562253516593 -0.2895443924105592 1.4651318271183493 17 17 17
-2.8427388253988184 2.2052504977430734 7.8727829485535645 141 141 141
-0.31670705395478593 0.9090149580181984 4.71235889430331 46 46 46
-0.39290348577662126 1.0017752134631406 4.632966944029274 144 144 144
0.17507128495353355 0.7617200630820811 3.8343502344323377 141 141 141
-0.18818412484081387 -1.9194149090871744 3.723214117856655 59 59 59
0.25300039004833963 -1.810649008326125 3.1973803064307633 60 60 60
-0.19293933149294368 -0.7854818878803111 3.834451808292541 145 145 145
-1.2745839781038943 -1.6781385991748303 4.997127065593374 70 70 70
0.12179171392872423 -1.6103119708784956 3.3432362919726186 65 65 65
-20.66750931044515 0.2735420101518445 26.840372411554753 29 29 29
-8.859095363375632 -3.334191977191372 12.425660040537691 38 38 38
-0.09989877578848316 -1.1854478216381186 3.6262569846916084 70 70 70
-0.13280377198207424 -1.1525299896162455 3.628867178791582 38 38 38
0.39800469190629384 0.6920080415414527 3.3821145651310256 116 116 116
-0.39701654688419963 -0.3933498887071621 4.0038073985072495 88 88 88
-0.3970165617254349 -0.39334988994198555 4.00380741687523 88 88 88
-0.6446676014888535 1.2051227777418514 4.441259651235002 27 27 27
-1.1899367934549716 -0.21649908866071044 4.880366236133824 31 31 31
-0.608930876973262 0.6190447212540996 4.2813637858134985 131 131 131
-0.5916845001860562 1.0974973782503048 4.269876302135709 128 128 128
-0.6686874187680801 1.0737540136113406 4.3247607400320325 129 129 129
0.7964233796662066 -0.808769873766762 2.283610450195598 71 71 71
0.38976909718673475 -2.0612047671948077 2.796499957408366 18 18 18
0.6894742803950589 -1.0650543419248766 2.3611502522758916 16 16 16
0.5073989272450994 -2.183706980713296 2.6486789281486014 17 17 17
-0.6343689786494958 -2.520399964312664 3.8621186510074796 109 109 109
0.3040465765714264 -1.958067753407697 2.883481891893562 16 16 16
-0.0021595260668682004 -1.4968227732885324 3.272474493183365 76 76 76
0.11452129556419982 -1.6916112651307063 3.1197962771334153 105 105 105
0.18341688435606462 -1.7936071063779124 3.024858296589576 17 17 17
0.1834168837880182 -1.7936071069947404 3.024858297286387 17 17 17
-0.6738029854433251 0.5550555193208742 4.224583545913261 144 144 144
0.11652958596500013 -1.7029490243118022 3.1029249802082495 18 18 18
0.1165295837564228 -1.70294902519741 3.1029249824384935 18 18 18
-20.125092863605285 2.240582964053439 25.571183293772965 115 115 115
0.20455241799247922 -1.8291752324800274 2.984038058000612 109 109 109
0.10095840285466756 -1.683821719452066 3.1112478396290886 22 22 22
-0.006418313498115325 -1.5193444834058776 3.2376726633959714 20 20 20
-5.45021772787373 -4.8098095716263325 9.21042575667922 26 26 26
0.8651651607730032 0.23061006594747666 2.390660259860666 106 106 106
-0.3603019268242454 -0.7483335427572302 3.6967965144556856 96 96 96
-4.450804733453823 -0.3791416664163617 7.550857472255226 103 103 103
-0.45473321289971774 -0.5993182142752888 3.8065985922289642 103 103 103
-0.19535420877602488 -1.1597243361792275 3.452184390590678 25 25 25
0.16499494430411826 1.019051740120581 3.37070726841525 110 110 110
0.8504456565207301 0.2219938223937417 2.3828918746217282 22 22 22
-0.3780675139108998 -0.7706261370438126 3.6774657685685224 17 17 17
-0.6064470774624154 -0.1559677066467507 3.937924089735507 58 58 58
2.1277809178607976 4.704428527353595 15.484698817986564 38 38 38
2.1209796742328377 -2.261761035154884 5.89015416257412 68 68 68
1.591639523478426 0.4963279119341796 5.082619182219735 52 52 52
1.641996681858962 -0.6155392020635114 5.918626223405356 144 144 144
1.3280227756196858 -0.6870070293367928 8.595187098479848 93 93 93
1.7641393208481864 -1.4493384752256404 8.631628466772757 10 10 10
1.7666403235374937 -0.28366383383295213 5.769468379119361 54 54 54
1.7147024992787698 -0.7135221568912782 5.76006861540312 133 133 133
1.7147025103464602 -0.7135221762796405 5.760068577710959 133 133 133
1.8856932804420257 -1.8494621807797913 5.849566615157601 75 75 75
1.7709840333693405 -0.36020638103258684 5.862752369397557 76 76 76
1.7198090054117698 -0.3864577642798873 5.808736854977006 34 34 34
1.878088169601556 -2.075363714113778 5.666110530559865 109 109 109
1.2699091483319402 2.6466794928370048 10.815063983517836 112 112 112
1.8645430784723216 -2.1630236698208125 5.608642314085666 90 90 90
1.8354588925223951 -2.098151852781428 5.62426697827717 101 101 101
1.7905517281879288 -2.10711783955872 5.649341142184571 23 23 23
1.1547719241234211 0.4972204290630347 10.736044517288775 249 249 249
1.1812162457425002 -0.09362711586756933 10.613132357494466 139 139 139
1.799571317798264 -2.28183873518142 5.570126215969802 92 92 92
1.610230757152211 -0.26341035830445336 5.84379403169853 25 25 25
1.1271879757743655 0.35419889199348675 10.520149731572607 249 249 249
1.519056115277724 -1.0814277725256627 5.665478281268587 129 129 129
1.544959524090261 -1.1817607524824152 5.712868876210386 78 78 78
1.023193165243549 -0.10993099047241134 10.133265473157078 48 48 48
1.0233647388437417 -0.11452482826932561 10.129215847113555 48 48 48
1.1242772055129233 -1.6765203921900473 9.402416738737834 29 29 29
1.1056061269981172 0.2204265615180832 8.936578427456997 31 31 31
0.8511718655491164 2.4344356549098394 10.365186687729581 38 38 38
0.9631925533751885 0.11288823385869128 9.567208668942182 32 32 32
0.9578478320360598 -0.5561303076536576 9.650026781547385 100 100 100
1.3651171692177821 0.46249383946662603 5.654005923413837 132 132 132
1.4555126533489224 -1.6388103324698018 5.59369548027468 22 22 22
0.521472738668892 -1.4525247011853695 12.42667129560689 236 236 236
1.5200079686402386 -2.1557795042691907 5.303065310457539 77 77 77
1.514111754416126 -2.1564280252010475 5.360851552503685 77 77 77
0.7723322618878744 -1.3751878214888036 9.670224855156532 120 120 120
1.0321781848235285 -1.6371332611681957 7.09491974999359 26 26 26
1.1704325308725412 -1.2652995811504149 5.524254328970585 98 98 98
0.26369921676965385 -0.3167767256996065 10.176249092914537 249 249 249
0.24158928350164013 -0.2938213255282697 10.070501950756736 249 249 249
1.2791948420337325 -2.0754983996524397 5.189115597273087 103 103 103
1.3372599638073472 -2.3653046568807956 4.98321480434854 53 53 53
1.1398025986805453 -1.725811610208961 5.274496424702004 31 31 31
0.9427180944125528 -1.446925485717417 5.33376947656538 55 55 55
0.9262114477059662 -1.647761947893273 5.175998021921258 46 46 46
0.8282160121269602 -1.6179346139999038 5.124947444158119 110 110 110
0.7699785467982001 -1.6369307451665671 5.065282160325456 83 83 83
0.7699785438443515 -1.6369307467911294 5.065282170220016 83 83 83
1.2928241307173305 -1.3257803963409969 2.762234044660583 19 19 19
0.034160356094708105 -0.9223807734418993 5.1848428493672225 27 27 27
-0.5240721665741765 1.4996580885788295 5.343910048304993 59 59 59
0.9040945307632996 -1.371857622182369 2.202742620539812 20 20 20
0.029398341912196833 -0.4318159345838796 5.2728646801500565 219 219 219
0.22180417833359128 -1.455083698761968 3.74762656491523 47 47 47
-5.548862859530799 -1.716466549963014 21.562642587209567 90 90 90
-1.010315935986848 0.9647699495624016 4.665878824247585 19 19 19
2.243523659523708 -1.3319096634022647 6.774045116405265 117 117 117
2.301135871638668 -2.382175545290407 6.134815639301155 20 20 20
1.8753740665581282 0.4387733683231211 6.720684978107218 103 103 103
2.1438064495871845 -2.169136002277069 5.717598886954569 81 81 81
0.10149873957118517 -1.9465315436653645 15.13767697169189 249 249 249
1.366706114584723 -1.6613190654709822 8.77770300656915 99 99 99
1.701229182497835 -0.469607021238991 6.709517301934474 120 120 120
0.8066348927299721 -1.0363131383043724 10.722053184213191 233 233 233
1.9392462469188714 -1.7092761846041151 5.941984637029743 10 10 10
1.8978793003091183 -1.856862442706608 6.078228835458735 22 22 22
0.8985376166680966 -1.0333462720561923 10.151052368712014 31 31 31
-0.1554807765726185 -1.061268812457928 15.343999487644657 48 48 48
1.0356006323099354 1.0182857259943696 9.345461973853878 130 130 130
1.7789666027058761 -1.386586959724202 6.210271036917332 29 29 29
-0.19559041491016504 -0.2567526922761383 14.858513464872688 48 48 48
1.5914811541489575 -1.2662855798842942 6.581048167560453 110 110 110
1.4645940057153994 -0.5278935417099021 6.857982500704758 36 36 36
1.7918807476230536 -1.8837014451609013 5.889576778342985 133 133 133
1.7632678663425534 -1.8112047769798358 5.909843139362481 42 42 42
1.7193194158061522 -1.6244346354395858 6.030195158015734 37 37 37
1.4656022962252757 -0.3707328410680516 6.50616420426802 29 29 29
1.3789034737730346 -1.030063611611106 6.652747517859212 163 163 163
1.2021545572056707 -4.402090982129993 7.835638705074788 74 74 74
0.28962391956287387 -1.262877726411294 10.865654028106885 48 48 48
1.3437638922631865 -1.1912668414990308 6.5735813591252965 102 102 102
1.3895204558784553 -0.7658942039552764 6.146224835894385 44 44 44
1.2377541510135615 -0.5819500269016802 6.704107566233278 32 32 32
1.6838940098906274 -1.8399296635597056 5.53887155376598 122 122 122
1.3653227165962136 -0.8933164597360901 6.302516374869292 249 249 249
0.42794062814936684 -0.8419370841604709 9.990070180669088 249 249 249
1.4355967736111608 -0.8389424485589648 6.006963710250707 249 249 249
1.2967187430361453 0.4219937868461679 6.453855448420722 112 112 112
1.3437661132773815 -0.2638409848527998 6.363694372507901 32 32 32
1.2402896346501862 -1.091420724488285 6.5128396905437285 254 254 254
1.7665941549119046 -2.3646535923101717 5.020067014146502 97 97 97
1.1955324139292205 -1.009340419852971 6.529272267486682 93 93 93
1.3562795371290746 -1.2657726628299677 6.1186492444848914 100 100 100
1.4347879217914639 -0.9824461882181925 5.811997719261199 139 139 139
1.5314121298486687 -1.7569075196882604 5.685070768625234 89 89 89
1.531412126574185 -1.7569075242124514 5.685070783150245 89 89 89
1.5296746329175681 -0.014939208558847918 5.865568294704165 57 57 57
1.5308768759481985 -1.7232572822696104 5.601716113434381 115 115 115
1.1842737356139228 0.7648306214050596 6.455226558043017 69 69 69
0.3277790059949315 -0.5785851636321748 9.408766824224534 48 48 48
0.6329625355400971 -1.9247020904842307 8.401426451577962 94 94 94
1.4350597748789955 -1.7005125081580235 5.537824076407849 120 120 120
1.848561648046866 -0.9924211880801103 4.775277725493773 38 38 38
1.5038738921986772 -2.1604979196557683 5.084970140566707 98 98 98
1.0141317215142232 -1.203147287543189 5.943569162443563 249 249 249
1.061424062384876 -0.8976100045328901 5.721479129213243 253 253 253
1.2316798407465046 -1.8309093350355938 5.281036303277614 40 40 40
0.593140979294143 0.4496207988705974 6.568573996614336 104 104 104
1.1256596758062125 -1.728895826702431 5.394430262385998 133 133 133
1.1947685069905518 -1.9398250353774578 5.1297721759633585 91 91 91
0.44963241409681465 0.4297717998666249 6.249892771389375 89 89 89
0.8780748310204285 -1.67281098107813 5.245075951522687 86 86 86
0.802976866493816 -1.5833567561456168 5.334502786312324 110 110 110
0.7884957784773903 -1.5084757625058853 5.375512770218668 107 107 107
0.7865042532887982 -1.8142336696173564 5.09513854759933 87 87 87
1.0950579168448484 -2.1466568836238116 4.441693925925423 18 18 18
-0.907108813665822 -4.042765991391895 7.868273684575822 64 64 64
472.1627382496242 44.63844390550686 -657.0694959009408 107 107 107
-0.19004782540962464 0.5836807399590634 5.659637403385082 92 92 92
0.5598399141153838 -0.4541520654962249 4.231621169445777 111 111 111
-0.4954233844057368 0.04398290502429912 5.736274611558222 120 120 120
0.7711684154886245 0.5066403396599622 3.0461668346867348 142 142 142
-1.7546895635121822 1.966737090045848 6.434614068996229 13 13 13
0.9407276887195983 0.44826051567888753 2.759151629902878 123 123 123
-0.5882813819634173 1.1372175694534261 4.4106275594335616 25 25 25
-2.7584811129596782 -0.1029020995840765 6.31603126753692 161 161 161
0.3299013930280007 -0.2522720658851594 3.3576937993138283 161 161 161
1.6098228151507077 0.04985385265234336 2.4747253074750364 38 38 38
1.6098227480176088 0.04985388277686944 2.474725423429714 38 38 38
-1.8862436850791167 -2.4031277326433473 5.290946405822885 100 100 100
-11.375467640152781 -5.642044736503384 13.615579748005636 19 19 19
0.30924325780054907 -1.535318939136029 2.6564438100381085 19 19 19
2.1360870898501734 -2.1713552465129804 7.660616031572295 98 98 98
1.6415865430409404 -0.3847996150284473 9.864763368241526 231 231 231
1.1501020392595445 0.3102632868263083 11.844744957488174 81 81 81
1.6102275220376818 -2.4779387168920666 10.698389112389934 96 96 96
0.8211059956964161 1.5655783764150406 12.397734030465836 89 89 89
1.7784652773566447 -1.9035430103019102 8.290956165218489 28 28 28
2.065748516059527 -2.7320989902958788 6.785382869641717 22 22 22
1.240928239283908 -0.989715154654985 10.964519289817307 81 81 81
1.6862407605988592 -1.8993881557139745 8.493067997510455 103 103 103
1.4237467113009878 -0.6971356646161326 9.539401566090865 71 71 71
1.803163699412407 -2.442722592893059 7.9773648354299125 76 76 76
1.6864065223547537 -2.0200678629782796 8.510876582597966 99 99 99
1.1835064307886554 -0.7802161378576814 10.784965292827025 71 71 71
1.7441212815914453 -2.1952688048592526 7.873966907672072 23 23 23
0.770384422806564 0.7636083406266501 11.99532733274576 132 132 132
1.6051558229644705 -1.8096577440446286 8.265306005339397 71 71 71
0.778904954478861 0.6136520094322786 11.96866213440549 130 130 130
1.4505185137112135 -1.266985697217327 8.485090243079082 80 80 80
2.132706152033988 -5.738857821637902 8.99874855100418 74 74 74
1.8128537419668265 -2.2853240094141865 7.017198330047636 147 147 147
1.7781965984599375 -2.2847666237225726 7.155230843638208 42 42 42
1.7545801788109325 -2.2043449157930586 7.1201899638921455 38 38 38
0.6209410598815669 0.8520447696647864 11.957388476224578 134 134 134
1.5304179577975907 -1.8937087084307265 8.185503376135472 25 25 25
0.600982915871257 0.8287342374455009 11.957856078752194 132 132 132
1.9091807330408572 -2.3854516642217045 5.898441125713868 89 89 89
-6.105281235725026 -7.241662030115001 58.803123262598106 48 48 48
1.4484855093441653 -2.0150572749790734 8.234489447814285 57 57 57
1.7112661109995406 -2.439079599482242 7.006826674346205 107 107 107
0.4355099872722353 1.1900472136408902 11.991128470461232 110 110 110
1.5399179415831172 -1.2160728339184204 6.7893256006376355 96 96 96
1.441810504096383 -1.4210059715152774 7.11382119347182 152 152 152
1.3479780644808639 -0.9690898608335189 7.360880034545492 28 28 28
1.5084050633475914 -1.1843546786678472 6.458195566558656 254 254 254
0.7166736383866448 0.21070323720886758 10.189870660637245 23 23 23
6.297695841916085 3.474222455037462 -21.101184352071012 31 31 31
1.3770645758327642 -0.7990806355890391 6.660930140753512 106 106 106
2.480714597755448 0.07196688224518484 0.6229625730399462 48 48 48
1.6617115777825873 -5.510420868255567 8.781821358797696 61 61 61
1.2345387917249937 -2.029766666592081 8.162742786902896 63 63 63
1.5604299530797119 -2.155556859429297 6.467393580824758 118 118 118
0.8452084879654318 0.19401086586363497 8.837033502644248 23 23 23
0.5470719969298306 -0.32844362979779623 10.393442280997157 25 25 25
1.8334441059114972 -2.134828972012535 4.931225601861301 109 109 109
1.1125537751923462 -0.7241684496196478 7.541426432600134 92 92 92
1.605014886302212 -0.745611587958752 5.187789461871766 56 56 56
1.6050125189684654 -0.7456136901769532 5.187801714793757 56 56 56
1.306358613058721 -2.6492271706964257 7.7476281567987195 29 29 29
1.4213267780961671 -0.7429679854887573 5.984197034191368 24 24 24
1.2960635365952649 -2.3680328228250467 7.423282532863347 36 36 36
0.46670813478606177 -0.6170242550449903 10.531536376338265 27 27 27
1.6488427999018127 -2.815351625090697 5.906695196824569 102 102 102
0.7136630512997727 -0.7752124817223084 9.138758155877746 123 123 123
1.4602087484599706 -1.974847033215748 6.280705468995309 94 94 94
1.456730563101308 -1.9994836156249765 6.250717098056256 90 90 90
1.5332593598111426 -0.5630431096634776 5.276866500299958 70 70 70
0.9415479704506424 -2.0110663685837635 8.347711768881535 106 106 106
