ply
format ascii 1.0
element vertex 706
property float x
property float y
property float z
property uchar red
property uchar green
property uchar blue
end_header
-1.9539074897766113 -0.05730845406651497 6.146286964416504 69 69 69
-1.9225999116897583 -0.1247425377368927 6.1417951583862305 38 38 38
-1.8549450635910034 -0.5761178731918335 6.048017501831055 106 106 106
-1.9267053604125977 0.42363569140434265 6.303553581237793 21 21 21
-1.867107629776001 0.25239482522010803 6.2913103103637695 107 107 107
-1.8480565547943115 0.08593636006116867 6.25381326675415 112 112 112
-1.5026979446411133 -1.7963699102401733 5.095850467681885 62 62 62
-1.6574225425720215 -2.416775703430176 5.6434245109558105 133 133 133
-1.8184970617294312 -0.13208484649658203 6.217820644378662 123 123 123
-1.8014947175979614 -0.05518327280879021 6.218118667602539 70 70 70
-1.7523605823516846 -0.33541247248649597 6.158466815948486 31 31 31
-1.6846240758895874 0.0920160710811615 6.3388166427612305 117 117 117
-1.651724100112915 -0.17414700984954834 6.2974042892456055 47 47 47
-1.613390326499939 -0.6360777020454407 6.310550212860107 115 115 115
-1.5046024322509766 -1.0285060405731201 6.23788595199585 250 250 250
-0.9561825394630432 -0.9697516560554504 3.9499220848083496 161 161 161
-1.4936398267745972 -1.0792895555496216 6.216095924377441 250 250 250
-1.7486423254013062 0.11532434821128845 8.685346603393555 112 112 112
-1.4269888401031494 0.1238873079419136 6.489197731018066 115 115 115
-1.3769327402114868 -0.6215770244598389 6.336203575134277 58 58 58
-1.1599477529525757 -0.7089480757713318 6.277426242828369 65 65 65
-1.140127420425415 -0.14136448502540588 6.6017045974731445 104 104 104
-1.140127420425415 -0.14136448502540588 6.6017045974731445 104 104 104
-1.0801551342010498 -2.147631883621216 6.271429061889648 237 237 237
-1.1221144199371338 -0.2361249178647995 6.576381683349609 16 16 16
-1.1320158243179321 0.18240034580230713 6.637811183929443 122 122 122
-1.0619839429855347 0.35055479407310486 6.483210563659668 72 72 72
-1.017624855041504 -1.5378261804580688 6.426268100738525 249 249 249
-0.5594531893730164 -0.4654946029186249 3.546436071395874 161 161 161
-0.9699666500091553 -2.0901236534118652 6.331365585327148 82 82 82
-0.9678026437759399 -1.512367844581604 6.32086706161499 76 76 76
-0.7676251530647278 -1.917030930519104 6.332728862762451 32 32 32
-0.6961792707443237 -1.421301245689392 6.3741135597229 158 158 158
-0.6148845553398132 -2.2177257537841797 6.136488914489746 117 117 117
-0.4693577289581299 1.0753288269042969 6.1526899337768555 58 58 58
-0.3014489412307739 -0.17529606819152832 6.206523418426514 31 31 31
-0.2691667079925537 1.2380332946777344 5.905948162078857 141 141 141
-0.17022694647312164 -1.2860771417617798 5.8090739250183105 117 117 117
-0.15836170315742493 -2.1705431938171387 5.611800193786621 136 136 136
-0.1406782567501068 -1.984817624092102 5.665909290313721 29 29 29
-0.14408420026302338 -1.2628620862960815 5.837056636810303 57 57 57
-0.005050105508416891 -2.303145408630371 5.664966106414795 39 39 39
0.4148116409778595 -5.362213134765625 9.810524940490723 114 114 114
0.8212365508079529 -3.531097650527954 7.362692356109619 29 29 29
0.46037739515304565 -1.729489803314209 3.9011545181274414 38 38 38
0.8423410058021545 -3.8107006549835205 7.041261672973633 52 52 52
0.8380541205406189 -3.599170684814453 7.204885482788086 24 24 24
0.8048760890960693 -1.570945143699646 5.600070476531982 38 38 38
0.8324899673461914 -1.5493674278259277 5.576539516448975 45 45 45
0.8287319540977478 -1.630086898803711 5.550669193267822 36 36 36
1.1479830741882324 -0.7707523703575134 2.430934429168701 16 16 16
1.0266075134277344 -0.9087070226669312 4.689810276031494 87 87 87
1.023824691772461 -1.4231151342391968 4.594964981079102 104 104 104
1.0104584693908691 -2.1568548679351807 4.5555338859558105 34 34 34
-2.5924320220947266 -0.06476038694381714 5.746213436126709 99 99 99
-2.5362167358398438 -0.42017677426338196 5.685205936431885 133 133 133
-2.3576133251190186 -2.0427844524383545 5.360555171966553 68 68 68
-2.5533580780029297 -0.7057210206985474 5.82785177230835 161 161 161
-2.2049825191497803 -2.4051578044891357 5.200142860412598 54 54 54
-2.4777283668518066 -0.5600607991218567 5.825346946716309 48 48 48
-2.2463173866271973 -2.1153573989868164 5.445968151092529 87 87 87
-2.3310697078704834 -0.5267343521118164 5.826483726501465 103 103 103
-2.2609777450561523 -1.5167796611785889 5.656420707702637 42 42 42
-2.1515393257141113 -2.0955662727355957 5.439737796783447 21 21 21
-2.53330659866333 -0.4193638563156128 6.1971659660339355 65 65 65
-2.3938703536987305 0.5032784938812256 6.054029941558838 24 24 24
-2.303971290588379 -0.007630457170307636 5.9420928955078125 71 71 71
-2.287579298019409 -0.045314788818359375 5.925239562988281 26 26 26
-2.367750883102417 -1.451564908027649 6.011198043823242 34 34 34
-3.0003297328948975 -1.2045917510986328 7.114922523498535 254 254 254
-2.0980093479156494 -2.1566994190216064 5.495251178741455 138 138 138
-2.0980093479156494 -2.1566994190216064 5.495251178741455 138 138 138
-2.35331654548645 -0.698042631149292 6.096693515777588 81 81 81
-2.201631546020508 -0.542704164981842 5.909046173095703 100 100 100
-3.451781749725342 -1.7054824829101562 8.125344276428223 22 22 22
-2.167637825012207 -0.5092129111289978 5.8675360679626465 47 47 47
-2.2140157222747803 -0.013792450539767742 5.989269733428955 50 50 50
-2.366352081298828 -1.3824113607406616 6.197288990020752 25 25 25
-2.197695732116699 -0.6235674023628235 5.964004993438721 71 71 71
-1.9382967948913574 -1.8544402122497559 5.41835880279541 64 64 64
-2.241236925125122 -0.7278071641921997 6.077292442321777 60 60 60
-2.31809401512146 -1.539576768875122 6.162228107452393 29 29 29
-1.9223629236221313 -2.362776041030884 5.393387317657471 133 133 133
-2.2119998931884766 0.5001454949378967 6.165765285491943 81 81 81
-2.9585211277008057 -1.7584567070007324 7.4255146980285645 193 193 193
-1.9051804542541504 -2.2321555614471436 5.446630954742432 40 40 40
-2.100604772567749 -0.3121187090873718 5.957692623138428 53 53 53
-2.0289769172668457 -1.9505711793899536 5.711406707763672 59 59 59
-1.9480572938919067 -1.3020228147506714 5.593900203704834 41 41 41
-2.1131227016448975 -0.10868697613477707 6.01954460144043 31 31 31
-2.09309983253479 -0.34879422187805176 5.977710247039795 24 24 24
-2.166559934616089 0.5503710508346558 6.197378635406494 103 103 103
-2.0155398845672607 -1.756149172782898 5.752175331115723 21 21 21
-2.0929794311523438 -0.03768124803900719 6.04569673538208 105 105 105
-2.1025116443634033 0.04265054315328598 6.081593036651611 80 80 80
-2.2813634872436523 -1.332965612411499 6.38729190826416 41 41 41
-2.2813634872436523 -1.332965612411499 6.38729190826416 41 41 41
-2.7563469409942627 -1.6554025411605835 7.272531032562256 27 27 27
-2.0013420581817627 0.011180814355611801 6.1012864112854 116 116 116
-1.2794859409332275 -1.2391471862792969 4.602121353149414 87 87 87
-2.2245943546295166 -1.2776741981506348 6.478658676147461 45 45 45
-2.2212836742401123 -1.009413242340088 6.50097131729126 145 145 145
-2.1906960010528564 -0.9327027201652527 6.450084686279297 245 245 245
-1.9597023725509644 -0.37417933344841003 6.05607795715332 15 15 15
-1.9597023725509644 -0.37417933344841003 6.05607795715332 15 15 15
-1.8414496183395386 -2.0791447162628174 5.742003440856934 60 60 60
-2.1618568897247314 -0.975851833820343 6.477419376373291 153 153 153
-1.3968502283096313 -1.4241859912872314 4.904651165008545 29 29 29
-1.3968502283096313 -1.4241859912872314 4.904651165008545 29 29 29
-1.948311448097229 -0.018247948959469795 6.149664878845215 80 80 80
-2.687178373336792 -1.715938925743103 7.537768363952637 24 24 24
-1.2315164804458618 -1.4545066356658936 4.6218156814575195 24 24 24
-1.5456268787384033 -0.9704869389533997 5.302765846252441 204 204 204
-2.0605478286743164 -0.651116669178009 6.39598274230957 34 34 34
-1.9507697820663452 0.4240233600139618 6.294910907745361 22 22 22
-1.667216420173645 -1.3041034936904907 5.629188060760498 193 193 193
-1.8633912801742554 -0.08705536276102066 6.183443546295166 59 59 59
-2.013357400894165 -1.39794921875 6.4276838302612305 69 69 69
-1.8227243423461914 -0.19288405776023865 6.1402459144592285 52 52 52
-2.0444817543029785 -1.0780969858169556 6.584967136383057 220 220 220
-1.8233262300491333 -0.018379569053649902 6.204061031341553 121 121 121
-2.002711057662964 -1.1661027669906616 6.530488014221191 169 169 169
-1.8445500135421753 0.4053596258163452 6.364630699157715 22 22 22
-1.8732414245605469 -0.8959397673606873 6.326691627502441 77 77 77
-1.8389134407043457 -1.5178210735321045 6.254816055297852 43 43 43
-1.4758386611938477 -1.6431621313095093 5.423951148986816 69 69 69
-1.755822777748108 -0.0984077900648117 6.227534294128418 112 112 112
-1.7910363674163818 0.39503875374794006 6.39322566986084 24 24 24
-1.7910363674163818 0.39503875374794006 6.39322566986084 24 24 24
-1.7779921293258667 0.22243088483810425 6.366034984588623 115 115 115
-1.7374510765075684 -0.2029659003019333 6.241555213928223 109 109 109
-1.699205994606018 -0.6197711229324341 6.165647983551025 123 123 123
-1.699205994606018 -0.6197711229324341 6.165647983551025 123 123 123
-1.748386263847351 -0.7634978294372559 6.321988582611084 254 254 254
-1.4921261072158813 -2.3127245903015137 5.6398844718933105 107 107 107
-1.7085696458816528 0.3534505367279053 6.404637336730957 94 94 94
-1.7233155965805054 0.6454631090164185 6.494414329528809 85 85 85
-1.6999812126159668 0.44002121686935425 6.438210964202881 97 97 97
-1.6449238061904907 0.10064591467380524 6.3530802726745605 50 50 50
-1.6409392356872559 0.6879056692123413 6.452791690826416 39 39 39
-1.6202386617660522 0.0320027656853199 6.400754928588867 110 110 110
-1.473799467086792 -0.4682975709438324 6.192355632781982 253 253 253
-1.5642136335372925 -0.1560257077217102 6.366094589233398 25 25 25
-1.4451911449432373 -1.5438017845153809 5.993178367614746 136 136 136
-1.5580825805664062 -0.6899607181549072 6.394969463348389 66 66 66
-1.5506031513214111 -0.6885632872581482 6.382408142089844 66 66 66
-1.5348029136657715 -0.12988413870334625 6.401573657989502 129 129 129
-1.5121060609817505 -0.16795006394386292 6.374933242797852 88 88 88
-1.456217885017395 -0.18321382999420166 6.388574600219727 18 18 18
-1.4992690086364746 0.6868993639945984 6.586838245391846 124 124 124
-1.4492237567901611 0.05342697724699974 6.466660499572754 126 126 126
-1.4515950679779053 0.1624298393726349 6.51444149017334 51 51 51
-1.4224262237548828 0.09982971847057343 6.470993518829346 103 103 103
-1.3497765064239502 -2.061006546020508 6.15041971206665 232 232 232
-1.4011644124984741 -0.7184792160987854 6.451743125915527 67 67 67
-1.3250248432159424 -0.20192430913448334 6.495673656463623 13 13 13
-1.3547533750534058 0.4787648618221283 6.660661697387695 44 44 44
-1.3547533750534058 0.4787648618221283 6.660661697387695 44 44 44
-1.1932953596115112 -2.346918821334839 5.928297996520996 106 106 106
-1.2885167598724365 -0.1558968722820282 6.513596534729004 103 103 103
-1.2479150295257568 -0.24015526473522186 6.595723628997803 46 46 46
-1.223890781402588 -0.2068367451429367 6.541963577270508 88 88 88
-1.188394546508789 0.19303061068058014 6.599328517913818 112 112 112
-0.7332262992858887 1.356391191482544 5.500917434692383 72 72 72
-1.1374870538711548 -0.5295748710632324 6.514492988586426 133 133 133
-1.1633106470108032 -0.1443965584039688 6.646865367889404 104 104 104
-1.1482906341552734 -0.12960128486156464 6.632686138153076 109 109 109
-1.1482906341552734 -0.12960128486156464 6.632686138153076 109 109 109
-1.043910264968872 0.3452316224575043 6.4466166496276855 72 72 72
-1.1101388931274414 -0.1438765823841095 6.6315131187438965 114 114 114
-1.0867642164230347 -0.7010712623596191 6.523747444152832 122 122 122
-1.0931227207183838 -0.2860029339790344 6.599118232727051 49 49 49
-1.0134186744689941 0.47180381417274475 6.516439437866211 62 62 62
-0.24126771092414856 -1.2537189722061157 4.049781322479248 242 242 242
-0.9535645246505737 0.30908462405204773 6.55084753036499 118 118 118
-0.9259489178657532 0.4667242765426636 6.558784008026123 53 53 53
-0.8801524639129639 0.34557199478149414 6.476544380187988 119 119 119
-0.8801524639129639 0.34557199478149414 6.476544380187988 119 119 119
-0.919562041759491 0.6373810768127441 6.666989803314209 14 14 14
-0.8588228225708008 -0.963614284992218 6.684816360473633 104 104 104
-0.8337094187736511 -1.9580267667770386 6.476665019989014 32 32 32
-0.8074357509613037 -1.8378589153289795 6.410438537597656 90 90 90
-0.7759662866592407 -2.14703106880188 6.304016590118408 26 26 26
-0.7657923698425293 0.6827306747436523 6.759487152099609 61 61 61
-0.5383103489875793 0.07077452540397644 6.0923614501953125 50 50 50
-0.6344046592712402 -1.8902640342712402 6.213151454925537 125 125 125
-0.3465156853199005 1.3560734987258911 5.60772180557251 70 70 70
-0.653850793838501 -1.4827839136123657 6.400895118713379 131 131 131
0.5490989685058594 -0.34123098850250244 2.210582971572876 67 67 67
-0.45655331015586853 1.0990360975265503 6.075411796569824 74 74 74
-0.46233463287353516 1.064786672592163 6.135539531707764 58 58 58
-0.4005637466907501 1.1370632648468018 6.054464340209961 148 148 148
-0.48488134145736694 -0.9463298916816711 6.266538619995117 89 89 89
-0.47352349758148193 -1.6208463907241821 6.128600597381592 127 127 127
-0.2573108375072479 1.225013256072998 5.877331733703613 141 141 141
-0.38280200958251953 -2.3802387714385986 5.8348493576049805 30 30 30
-0.38280200958251953 -2.3802387714385986 5.8348493576049805 30 30 30
-0.3104568123817444 -0.18119770288467407 6.231719493865967 31 31 31
-0.3104568123817444 -0.18119770288467407 6.231719493865967 31 31 31
-0.2748461365699768 -2.2422986030578613 5.742253303527832 35 35 35
-0.2748461365699768 -2.2422986030578613 5.742253303527832 35 35 35
-0.2580629587173462 -2.2489476203918457 5.734365463256836 55 55 55
-0.19976232945919037 -1.7950525283813477 5.757918357849121 154 154 154
-0.18850791454315186 -1.9115556478500366 5.7035980224609375 130 130 130
-0.18952114880084991 0.006775089539587498 6.136818885803223 27 27 27
-0.023069465532898903 1.3941558599472046 5.626152515411377 142 142 142
-0.17442986369132996 -1.201045274734497 5.893577575683594 25 25 25
-0.16005738079547882 -1.4561513662338257 5.816986083984375 31 31 31
-0.14527764916419983 -1.9877957105636597 5.679590225219727 29 29 29
-0.10431227833032608 -2.9652934074401855 5.381011009216309 28 28 28
-0.09071211516857147 -0.14345815777778625 6.21987771987915 32 32 32
-0.05377578362822533 -2.7190980911254883 5.394496440887451 35 35 35
-0.05377578362822533 -2.7190980911254883 5.394496440887451 35 35 35
-0.03649602830410004 -0.32379481196403503 6.157054424285889 100 100 100
-0.05476905778050423 -1.0136419534683228 6.131859302520752 117 117 117
-0.012710793875157833 -1.5916268825531006 5.846875190734863 151 151 151
0.03846515715122223 -2.718998670578003 5.290672779083252 41 41 41
0.0364672988653183 -2.300386667251587 5.676734924316406 44 44 44
0.09613239765167236 -2.851902484893799 5.18997049331665 38 38 38
0.08990057557821274 -1.082144021987915 5.862229347229004 150 150 150
0.07264277338981628 -2.2852256298065186 5.6788225173950195 36 36 36
0.12049699574708939 -2.7243077754974365 5.206820487976074 31 31 31
0.2530180811882019 -2.3987951278686523 5.161310195922852 153 153 153
0.3041574954986572 0.7511889338493347 6.594345569610596 22 22 22
0.3646400570869446 -2.702157974243164 4.955211639404297 132 132 132
1.3030353784561157 -0.3517785370349884 1.0797325372695923 17 17 17
0.5843055844306946 -2.3819081783294678 4.809521198272705 141 141 141
0.5878247022628784 -2.367506742477417 4.820614337921143 46 46 46
0.6945326924324036 -2.385406017303467 4.70492696762085 144 144 144
0.790582001209259 -2.064321994781494 4.131382942199707 141 141 141
1.0288424491882324 0.058380383998155594 4.867950916290283 59 59 59
1.0394965410232544 0.1616041511297226 4.859620571136475 60 60 60
0.9865756630897522 -0.8759978413581848 4.685694217681885 145 145 145
1.045667052268982 -0.39856526255607605 4.58001708984375 70 70 70
1.0458394289016724 -0.07837911695241928 4.822099685668945 65 65 65
1.2350726127624512 -0.6318293809890747 2.4641261100769043 29 29 29
1.061625361442566 -0.3731526732444763 4.612484455108643 38 38 38
1.0354520082473755 -0.5208964943885803 4.760438919067383 70 70 70
1.055477261543274 -0.5530261993408203 4.767739772796631 38 38 38
0.9193878173828125 -1.9057542085647583 3.767421007156372 116 116 116
1.0292367935180664 -1.2008267641067505 4.637864589691162 88 88 88
1.0292367935180664 -1.2008267641067505 4.637864589691162 88 88 88
0.9746088981628418 -2.3919265270233154 4.441183567047119 27 27 27
1.0643833875656128 -1.276115894317627 4.489794731140137 31 31 31
1.0277334451675415 -1.955004334449768 4.490077972412109 131 131 131
1.0283392667770386 -2.3275609016418457 4.4255499839782715 128 128 128
1.0484302043914795 -2.270340919494629 4.399406433105469 129 129 129
1.3242896795272827 -0.7845173478126526 5.769609451293945 71 71 71
1.2093684673309326 0.5274239182472229 4.753046035766602 18 18 18
1.3552061319351196 -0.41684573888778687 6.106377124786377 16 16 16
1.2244199514389038 0.7344160676002502 4.7663116455078125 17 17 17
1.2175099849700928 0.3742537498474121 4.684704303741455 109 109 109
1.214038610458374 0.37793391942977905 4.726889610290527 16 16 16
1.1821225881576538 -0.18530963361263275 4.658907413482666 76 76 76
1.195871353149414 0.03377975523471832 4.686500549316406 105 105 105
1.2081303596496582 0.15997932851314545 4.69349479675293 17 17 17
1.2081303596496582 0.15997932851314545 4.69349479675293 17 17 17
1.0973247289657593 -1.8682825565338135 4.422179222106934 144 144 144
1.2053965330123901 0.047114163637161255 4.673530101776123 18 18 18
1.2053965330123901 0.047114163637161255 4.673530101776123 18 18 18
1.2397644519805908 -0.915703535079956 2.9232518672943115 115 115 115
1.2196704149246216 0.20674008131027222 4.696896553039551 109 109 109
1.210707664489746 0.026243632659316063 4.68570613861084 22 22 22
1.206583023071289 -0.160410538315773 4.631761074066162 20 20 20
1.2014458179473877 0.08491253852844238 3.638343572616577 26 26 26
1.1294093132019043 -2.3869616985321045 5.1438469886779785 106 106 106
1.1731038093566895 -0.8809851408004761 4.561384677886963 96 96 96
1.1701936721801758 -1.0051884651184082 4.550711631774902 103 103 103
1.17190420627594 -1.0038889646530151 4.538951396942139 103 103 103
1.2046611309051514 -0.5161927938461304 4.598903656005859 25 25 25
1.0448120832443237 -2.424100160598755 4.159307479858398 110 110 110
1.1557345390319824 -2.365691900253296 5.136172771453857 22 22 22
1.194344401359558 -0.8608495593070984 4.554058074951172 17 17 17
1.1971640586853027 -1.3316627740859985 4.448441982269287 58 58 58
-3.7511000633239746 -3.442087173461914 8.198254585266113 38 38 38
-2.4862959384918213 0.5008692145347595 6.039331436157227 68 68 68
-3.339348554611206 -3.8990862369537354 8.19068717956543 52 52 52
-2.7676022052764893 -1.589246153831482 7.133753299713135 144 144 144
-2.6784801483154297 -1.3206192255020142 6.856745719909668 93 93 93
-2.2913904190063477 -0.18230846524238586 5.936500072479248 10 10 10
-2.2716498374938965 -1.7112314701080322 5.969236850738525 54 54 54
-2.4419867992401123 -1.3375020027160645 6.487030982971191 133 133 133
-2.4419867992401123 -1.3375020027160645 6.487030982971191 133 133 133
-2.2284319400787354 0.017804700881242752 6.014926433563232 75 75 75
-2.1134703159332275 -1.5397144556045532 5.7060089111328125 76 76 76
-2.170086622238159 -1.5753401517868042 5.92132043838501 34 34 34
-2.2087063789367676 0.27521926164627075 6.102679252624512 109 109 109
-2.1842281818389893 -2.504136323928833 6.072197914123535 112 112 112
-2.192824602127075 0.38136741518974304 6.143549919128418 90 90 90
-2.163642168045044 0.3008180558681488 6.138862133026123 101 101 101
-2.109320878982544 0.3121626377105713 6.155612468719482 23 23 23
-2.2050533294677734 -1.259671926498413 6.500429153442383 249 249 249
-2.246004819869995 -1.0083832740783691 6.613018989562988 139 139 139
-2.1156444549560547 0.5283525586128235 6.224541664123535 92 92 92
-1.9034887552261353 -1.6268144845962524 5.66496467590332 25 25 25
-2.147507905960083 -1.217704176902771 6.434206008911133 249 249 249
-2.1883163452148438 -0.9349721074104309 6.662284851074219 129 129 129
-2.062615156173706 -0.7786769270896912 6.371802806854248 78 78 78
-2.0587072372436523 -1.2789043188095093 6.460361480712891 48 48 48
-2.0583953857421875 -1.2776049375534058 6.460140705108643 48 48 48
-1.9284940958023071 0.0003284158883616328 6.164285182952881 29 29 29
-1.7661362886428833 -1.329003930091858 5.683874130249023 31 31 31
-1.8239294290542603 -2.3867480754852295 5.879195213317871 38 38 38
-1.8426989316940308 -1.315494179725647 6.067237377166748 32 32 32
-1.8732326030731201 -0.7516224980354309 6.219761848449707 100 100 100
-1.6452069282531738 -2.389392614364624 5.6023993492126465 132 132 132
-1.7705258131027222 -0.25065770745277405 6.190016746520996 22 22 22
-1.56520414352417 -0.6140569448471069 5.327186584472656 236 236 236
-1.7862921953201294 0.3701298236846924 6.356840133666992 77 77 77
-1.7862921953201294 0.3701298236846924 6.356840133666992 77 77 77
-1.7262449264526367 -0.19798535108566284 6.215580940246582 120 120 120
-1.4184712171554565 -0.3767446279525757 5.716368198394775 26 26 26
-1.5279802083969116 -0.7122309803962708 6.36996603012085 98 98 98
-1.4936636686325073 -0.8461514711380005 6.3110456466674805 249 249 249
-1.4500551223754883 -0.8515411615371704 6.245513916015625 249 249 249
-1.5095149278640747 0.2632560133934021 6.492032051086426 103 103 103
-1.5250638723373413 0.6765059232711792 6.609511375427246 53 53 53
-1.3746665716171265 -0.18670868873596191 6.4194793701171875 31 31 31
-1.2140158414840698 -0.5254197120666504 6.419946193695068 55 55 55
-1.1356810331344604 -0.3017278015613556 6.5460286140441895 46 46 46
-1.0204805135726929 -0.34797316789627075 6.60427713394165 110 110 110
-0.9424610137939453 -0.3315943479537964 6.663022041320801 83 83 83
-0.9424610137939453 -0.3315943479537964 6.663022041320801 83 83 83
-0.11076992005109787 -0.5957266688346863 5.589641571044922 19 19 19
-0.05087264999747276 -1.061191439628601 5.8151469230651855 27 27 27
0.5133394598960876 -2.4019365310668945 4.245136737823486 59 59 59
1.0941375494003296 -0.6058039665222168 5.010153770446777 20 20 20
0.5445395708084106 -0.8956508040428162 3.3199119567871094 219 219 219
0.7975663542747498 -0.4170275032520294 3.882838726043701 47 47 47
0.6064221858978271 -0.3786410093307495 2.6878466606140137 90 90 90
1.0291738510131836 -2.2942659854888916 4.5764265060424805 19 19 19
-2.8578240871429443 -0.6471658945083618 5.877101898193359 117 117 117
-2.714564561843872 0.561271607875824 5.984711170196533 20 20 20
-2.2284164428710938 -2.2136354446411133 5.29486083984375 103 103 103
-2.48075270652771 0.39216962456703186 6.0145111083984375 81 81 81
-4.2786641120910645 -1.2519176006317139 9.139239311218262 249 249 249
-2.333869695663452 -0.5266203284263611 5.919808387756348 99 99 99
-2.3031373023986816 -1.5022984743118286 5.83923864364624 120 120 120
-2.8656654357910156 -1.394639015197754 6.854002475738525 233 233 233
-2.273181438446045 -0.18452507257461548 5.916614055633545 10 10 10
-2.292198419570923 -0.05078014358878136 5.999830722808838 22 22 22
-2.7572343349456787 -1.3474830389022827 6.7323479652404785 31 31 31
-4.076932907104492 -1.8030521869659424 9.01335334777832 48 48 48
-1.990575909614563 -2.2234153747558594 5.386963844299316 130 130 130
-2.2543816566467285 -0.5793339610099792 6.002021312713623 29 29 29
-3.732703685760498 -1.9691938161849976 8.552929878234863 48 48 48
-2.4654717445373535 -0.8087120056152344 6.463772296905518 110 110 110
-2.4251511096954346 -1.572931170463562 6.355554580688477 36 36 36
-2.138444423675537 -0.0037186373956501484 6.047778129577637 133 133 133
-2.1136281490325928 -0.08881833404302597 6.03646183013916 42 42 42
-2.078035593032837 -0.30729883909225464 5.969419956207275 37 37 37
-1.9894356727600098 -1.5881545543670654 5.821451663970947 29 29 29
-2.3787498474121094 -1.0988967418670654 6.633492469787598 163 163 163
-1.4613010883331299 1.2713723182678223 5.072212219238281 74 74 74
-2.5292012691497803 -1.3427276611328125 7.044857025146484 48 48 48
-2.3555688858032227 -0.9384517073631287 6.736712455749512 102 102 102
-2.4241063594818115 -1.392795205116272 6.868307113647461 44 44 44
-2.2071707248687744 -1.547228455543518 6.501441478729248 32 32 32
-1.9504789113998413 -0.009122001007199287 6.113712787628174 122 122 122
-2.1681606769561768 -1.1889926195144653 6.467360496520996 249 249 249
-2.1681606769561768 -1.1889926195144653 6.467360496520996 249 249 249
-2.1555397510528564 -1.2197520732879639 6.44711446762085 249 249 249
-1.6889197826385498 -2.2405707836151123 5.506196022033691 112 112 112
-1.766015648841858 -1.6607437133789062 5.721553802490234 32 32 32
-2.2449865341186523 -1.0495938062667847 6.7664666175842285 254 254 254
-1.9646291732788086 0.770164430141449 6.38371467590332 97 97 97
-2.157404661178589 -1.128417730331421 6.683006763458252 93 93 93
-1.9568177461624146 -0.7626082301139832 6.326350688934326 100 100 100
-1.871640920639038 -0.9968470931053162 6.135666370391846 139 139 139
-1.8383926153182983 -0.14381109178066254 6.137131214141846 89 89 89
-1.8383926153182983 -0.14381109178066254 6.137131214141846 89 89 89
-1.2680646181106567 -1.6283551454544067 4.828642845153809 57 57 57
-1.8241420984268188 -0.17402847111225128 6.153855800628662 115 115 115
-1.5888917446136475 -2.538508176803589 5.463165283203125 69 69 69
-1.8261504173278809 -1.3938816785812378 6.13455867767334 48 48 48
-1.7560975551605225 -0.355057954788208 6.098034381866455 94 94 94
-1.7226088047027588 -0.20197537541389465 6.209991931915283 120 120 120
-0.7799972295761108 -0.6127497553825378 4.196091651916504 38 38 38
-1.6973716020584106 0.44056540727615356 6.432014465332031 98 98 98
-1.5664098262786865 -0.8483710885047913 6.417868137359619 249 249 249
-1.4588875770568848 -1.1128848791122437 6.209604740142822 253 253 253
-1.4789416790008545 -0.04355116933584213 6.423057556152344 40 40 40
-1.4754022359848022 -2.5087974071502686 6.3017168045043945 104 104 104
-1.418684959411621 -0.19695080816745758 6.4147138595581055 133 133 133
-1.3904364109039307 0.10682071000337601 6.492119789123535 91 91 91
-1.0224932432174683 -2.340710401535034 5.921855449676514 89 89 89
-1.1490474939346313 -0.2736210525035858 6.58761739730835 86 86 86
-1.1226353645324707 -0.40663081407546997 6.561291217803955 110 110 110
-1.1136196851730347 -0.4875459671020508 6.55692720413208 107 107 107
-1.041816234588623 -0.11467037349939346 6.734814643859863 87 87 87
-0.8840339183807373 0.5078170895576477 6.453632831573486 18 18 18
-0.5012773871421814 0.964649498462677 6.016862392425537 64 64 64
-6.824165344238281 -9.72130012512207 44.38176345825195 107 107 107
-0.024083174765110016 -2.205246686935425 5.332655906677246 92 92 92
-0.019729774445295334 -1.4158689975738525 5.6275835037231445 111 111 111
0.14002549648284912 -1.7880538702011108 5.490963459014893 120 120 120
0.5651050209999084 -2.711181640625 5.343010425567627 142 142 142
1.0664539337158203 -1.16813063621521 3.3309640884399414 13 13 13
0.6944035887718201 -2.5344045162200928 4.939052104949951 123 123 123
0.9307754635810852 -2.494690179824829 4.77372407913208 25 25 25
1.016419529914856 -1.1145187616348267 4.065210819244385 161 161 161
1.019461750984192 -1.1835750341415405 4.038911819458008 161 161 161
0.9453177452087402 -1.0110185146331787 2.53359317779541 38 38 38
0.9453177452087402 -1.0110185146331787 2.53359317779541 38 38 38
1.2042354345321655 -0.11950041353702545 5.011371612548828 100 100 100
1.3800538778305054 0.2979537844657898 6.3329925537109375 19 19 19
1.3987864255905151 0.01691819727420807 5.744548797607422 19 19 19
-2.599292039871216 -0.1706419438123703 5.89586877822876 98 98 98
-2.5224223136901855 -1.71559476852417 5.652103424072266 231 231 231
-2.275634765625 -2.1022889614105225 5.484358310699463 81 81 81
-2.530975818634033 -0.5212246179580688 5.964746475219727 96 96 96
-1.9589258432388306 -2.5890443325042725 5.140599727630615 89 89 89
-2.4706039428710938 -0.553115963935852 5.994004249572754 28 28 28
-2.4954521656036377 0.5476077198982239 6.14559268951416 22 22 22
-2.365497589111328 -1.4426823854446411 5.8237433433532715 81 81 81
-2.4260168075561523 -0.602773129940033 6.00906229019165 103 103 103
-2.3877856731414795 -1.5728164911270142 5.867265701293945 71 71 71
-2.3264334201812744 -0.07069138437509537 5.958256244659424 76 76 76
-2.262572765350342 -0.5121575593948364 5.845451831817627 99 99 99
-2.2147717475891113 -1.5224782228469849 5.687924385070801 71 71 71
-2.2817909717559814 -0.2720106244087219 5.959640979766846 23 23 23
-1.9096933603286743 -2.241395950317383 5.277535915374756 132 132 132
-2.4125723838806152 -0.6502100825309753 6.1043314933776855 71 71 71
-1.9278889894485474 -2.180368661880493 5.3169684410095215 130 130 130
-2.9370906352996826 -1.207785964012146 6.724018096923828 80 80 80
-1.2373491525650024 1.1854084730148315 4.84113073348999 74 74 74
-2.266662836074829 0.03541082143783569 6.040529727935791 147 147 147
-2.2373435497283936 -0.008936528116464615 6.017844200134277 42 42 42
-2.2284514904022217 -0.06964049488306046 6.0255446434021 38 38 38
-1.8396705389022827 -2.2907631397247314 5.295377254486084 134 134 134
-2.27319073677063 -0.5835330486297607 6.05998420715332 25 25 25
-1.82929265499115 -2.280059576034546 5.301207065582275 132 132 132
-2.196885824203491 0.4848406910896301 6.154194355010986 89 89 89
-25.28339385986328 -8.35153579711914 35.714683532714844 48 48 48
-2.0869970321655273 -0.484094500541687 5.923699378967285 57 57 57
-2.141542434692383 0.10110250860452652 6.086488246917725 107 107 107
-1.7507389783859253 -2.4482719898223877 5.271243095397949 110 110 110
-2.8104727268218994 -1.0062720775604248 6.874096870422363 96 96 96
-2.817915916442871 -0.8895896077156067 7.000688076019287 152 152 152
-2.6763386726379395 -1.3485628366470337 6.752949237823486 28 28 28
-2.702953815460205 -0.9846402406692505 6.894216537475586 254 254 254
-2.1547014713287354 -2.2682876586914062 6.000241279602051 23 23 23
-3.807352066040039 -1.581300139427185 8.231348991394043 31 31 31
-2.6331260204315186 -1.4420690536499023 6.8276286125183105 106 106 106
-5.210684299468994 -2.497507095336914 10.356124877929688 48 48 48
-1.1069347858428955 1.1039040088653564 5.022124290466309 61 61 61
-1.9120140075683594 -0.5222756266593933 5.980639457702637 63 63 63
-1.941033124923706 0.0017846925184130669 6.099532127380371 118 118 118
-1.5106086730957031 -1.9634474515914917 5.273179531097412 23 23 23
-1.876428484916687 -1.8256138563156128 5.814826011657715 25 25 25
-2.016843557357788 0.6087166666984558 6.338464736938477 109 109 109
-2.4617652893066406 -1.610897183418274 6.7002105712890625 92 92 92
-2.611665964126587 -1.2580982446670532 6.960501670837402 56 56 56
-2.611665964126587 -1.2580982446670532 6.960501670837402 56 56 56
-1.8817301988601685 -0.008658330887556076 6.104112148284912 29 29 29
-2.521796941757202 -1.407759428024292 6.8487348556518555 24 24 24
-1.874518871307373 -0.13882549107074738 6.136765003204346 36 36 36
-1.5585969686508179 -1.564740777015686 5.50269889831543 27 27 27
-2.008871555328369 0.7856406569480896 6.471660614013672 102 102 102
-1.935243010520935 -1.5554991960525513 6.0785908699035645 123 123 123
-1.848196029663086 -0.1286095678806305 6.137977600097656 94 94 94
-1.8467270135879517 -0.09986662864685059 6.158687114715576 90 90 90
-1.8397984504699707 -1.3229529857635498 5.97932243347168 70 70 70
-1.8202733993530273 -0.591090977191925 6.11784029006958 106 106 106
-0.5093730092048645 -1.0285803079605103 4.100942611694336 77 77 77
-0.8343159556388855 -1.6439480781555176 4.50905179977417 23 23 23
-1.512400507926941 -2.29890513420105 5.44327974319458 132 132 132
-1.8350650072097778 0.04769335687160492 6.2460036277771 127 127 127
-1.7360750436782837 -0.34783482551574707 6.07471227645874 94 94 94
-2.308976888656616 -1.5624806880950928 6.790877819061279 138 138 138
-1.7824676036834717 0.01812836341559887 6.273798942565918 127 127 127
-1.8467848300933838 0.2243501991033554 6.480520725250244 117 117 117
-1.40216064453125 -2.343400001525879 5.510034084320068 112 112 112
-1.5395985841751099 -2.143590211868286 5.766613006591797 26 26 26
-1.5819453001022339 -1.597531795501709 5.949526309967041 97 97 97
-0.5910454988479614 1.1132659912109375 4.8263468742370605 135 135 135
-1.5711193084716797 -0.03687747195363045 6.292492866516113 70 70 70
-1.5992156267166138 0.5756045579910278 6.533107280731201 81 81 81
-1.5992156267166138 0.5756045579910278 6.533107280731201 81 81 81
-1.5301496982574463 0.09986084699630737 6.3892951011657715 121 121 121
-1.5592049360275269 -1.037105917930603 6.369032859802246 255 255 255
-1.350738763809204 -0.6377781629562378 6.18513822555542 123 123 123
-1.2915050983428955 0.11886344850063324 6.530540943145752 54 54 54
-1.085114598274231 -1.6615837812423706 5.9208478927612305 255 255 255
-1.059625267982483 -2.3590455055236816 5.764239311218262 93 93 93
-1.1462980508804321 -0.3508351445198059 6.485814571380615 12 12 12
-1.069764494895935 0.2668551206588745 6.450016021728516 49 49 49
-1.120312213897705 -0.1465224176645279 6.561925888061523 80 80 80
-1.194753646850586 0.16059495508670807 6.772799968719482 78 78 78
-1.1239014863967896 -2.1890320777893066 6.37727689743042 232 232 232
-1.058780312538147 0.06413034349679947 6.695059299468994 46 46 46
-0.3399433195590973 0.9649432897567749 5.365347385406494 66 66 66
-1.038325309753418 -0.5413386821746826 6.5763092041015625 84 84 84
-1.0185927152633667 -0.5262706279754639 6.591125965118408 20 20 20
-1.0373756885528564 -0.5042451024055481 6.649231433868408 102 102 102
-1.5747292041778564 -2.2393946647644043 7.4291510581970215 224 224 224
-0.6827300190925598 -1.1374114751815796 5.906774997711182 233 233 233
-0.722004234790802 0.3669903874397278 6.216962814331055 113 113 113
0.4483118951320648 -0.9501861333847046 3.7311196327209473 231 231 231
-0.9693880081176758 -0.6783758997917175 6.597877502441406 96 96 96
-0.9693880081176758 -0.6783758997917175 6.597877502441406 96 96 96
-0.8262888193130493 -0.3947136700153351 6.553998947143555 23 23 23
-0.8333255052566528 0.19771860539913177 6.697441101074219 119 119 119
-0.3331109881401062 0.8877199292182922 5.702818870544434 64 64 64
-0.8452072143554688 -0.6407652497291565 6.647563457489014 66 66 66
-0.6412386298179626 0.6463062763214111 6.633164882659912 64 64 64
0.30626043677330017 0.7258145213127136 4.481482982635498 101 101 101
1.6060320138931274 -0.39546313881874084 1.7593644857406616 13 13 13
-0.22680127620697021 -0.2710288465023041 5.895618438720703 109 109 109
-0.2146206498146057 -0.7646548748016357 5.775875568389893 88 88 88
-0.08838748931884766 -0.7284597158432007 5.6025896072387695 121 121 121
-0.03776392340660095 -0.9096447229385376 5.464934825897217 117 117 117
-0.04102712124586105 0.8632875680923462 5.910482883453369 20 20 20
-0.007189163006842136 0.04734667390584946 5.668984889984131 42 42 42
-0.0064632464200258255 0.06378760933876038 5.8208112716674805 21 21 21
-0.020310692489147186 0.777656614780426 5.950786590576172 28 28 28
0.06230125203728676 -1.547464370727539 5.158227443695068 34 34 34
0.01615840569138527 0.25851142406463623 5.822033405303955 17 17 17
0.0980517715215683 -1.9192875623703003 5.147624492645264 34 34 34
0.062216658145189285 0.24356871843338013 5.862673282623291 22 22 22
0.12797927856445312 -2.0987837314605713 5.150631904602051 104 104 104
0.31192314624786377 -2.0509350299835205 4.6327223777771 154 154 154
0.13787731528282166 -0.8606951832771301 5.503063678741455 129 129 129
0.39121803641319275 -1.3071796894073486 4.926352500915527 165 165 165
0.26583051681518555 -2.0203661918640137 5.126697540283203 170 170 170
0.4141560196876526 0.8456445932388306 6.202877044677734 16 16 16
0.5097878575325012 0.9104151129722595 6.002561569213867 107 107 107
-0.5713797807693481 -5.735729217529297 10.698136329650879 105 105 105
-0.4711311459541321 -5.519857883453369 10.309494018554688 105 105 105
1.6260031461715698 -0.11892566084861755 2.0421035289764404 131 131 131
1.609838604927063 -0.3310850262641907 1.8004709482192993 89 89 89
1.2473012208938599 -1.436814785003662 2.9777400493621826 38 38 38
1.2061262130737305 -0.8259038329124451 3.620990514755249 156 156 156
1.2109733819961548 -0.6986314058303833 3.6540772914886475 137 137 137
1.674584984779358 -0.1279238611459732 1.9115476608276367 20 20 20
1.2715747356414795 -0.722145676612854 3.414015531539917 22 22 22
1.2431018352508545 -1.2985577583312988 3.290698766708374 136 136 136
1.252518892288208 -1.074097990989685 3.367746114730835 31 31 31
1.448083519935608 -0.01007543783634901 3.023178815841675 22 22 22
1.0827531814575195 -0.9763424396514893 5.2371721267700195 85 85 85
1.2232940196990967 -1.7468935251235962 3.617166757583618 39 39 39
1.3172961473464966 -0.28490713238716125 3.588818311691284 20 20 20
1.6153672933578491 -0.14572377502918243 2.7727651596069336 16 16 16
1.2938203811645508 -1.4872591495513916 3.225123882293701 128 128 128
1.122134804725647 -0.9760435223579407 5.2679643630981445 102 102 102
1.3230565786361694 -1.0194424390792847 3.341294288635254 24 24 24
1.4450956583023071 -1.0372729301452637 2.7820613384246826 27 27 27
1.3096842765808105 -0.9612968564033508 3.765329122543335 104 104 104
1.332606554031372 -1.4215859174728394 3.178553581237793 26 26 26
1.3374812602996826 -1.364901065826416 3.208517551422119 27 27 27
1.5074676275253296 -1.041022539138794 2.817415475845337 24 24 24
1.3663798570632935 -1.0141873359680176 3.272730827331543 103 103 103
1.4758542776107788 -1.000478744506836 2.624621868133545 122 122 122
1.4141544103622437 -1.2935091257095337 2.8718857765197754 27 27 27
1.4268248081207275 -0.11256446689367294 3.469787120819092 118 118 118
1.3684852123260498 -1.453386664390564 3.107332468032837 121 121 121
1.375881314277649 -1.4318512678146362 3.1039769649505615 133 133 133
1.4406107664108276 0.1717722862958908 3.6199731826782227 18 18 18
1.4616179466247559 -0.3284126818180084 3.0286877155303955 33 33 33
1.4580150842666626 0.015767164528369904 3.4528391361236572 18 18 18
1.450377106666565 -0.10305800288915634 3.4342424869537354 106 106 106
1.450858473777771 -0.3209902346134186 3.380406618118286 19 19 19
1.3328015804290771 -0.9072796702384949 5.42561149597168 20 20 20
1.4448045492172241 -0.9947458505630493 3.1642954349517822 113 113 113
1.4448045492172241 -0.9947458505630493 3.1642954349517822 113 113 113
1.5092090368270874 -0.9624234437942505 2.552821636199951 136 136 136
1.515380620956421 -0.955611526966095 2.532777786254883 136 136 136
-2.73336124420166 -0.011887341737747192 5.797550678253174 104 104 104
-2.68109130859375 -0.10816054046154022 5.8110551834106445 104 104 104
-2.380679130554199 -0.05152270197868347 5.93970251083374 95 95 95
-2.3774325847625732 -1.268315315246582 6.16810941696167 66 66 66
-2.836561441421509 -1.4124022722244263 7.382749557495117 168 168 168
-2.024343967437744 -2.4641623497009277 5.380335330963135 121 121 121
-2.2108218669891357 -1.564998984336853 5.901257038116455 37 37 37
-2.0288007259368896 -2.3677477836608887 5.4097065925598145 134 134 134
-2.1135051250457764 -1.815138339996338 5.723937511444092 24 24 24
-2.1577394008636475 -0.2052375227212906 6.01230525970459 28 28 28
-2.1852595806121826 0.48935607075691223 6.1852240562438965 25 25 25
-2.264616012573242 -2.2136967182159424 6.413841247558594 28 28 28
-2.3196802139282227 -0.9148902893066406 6.670847415924072 92 92 92
-2.247345447540283 -1.249941110610962 6.519007205963135 64 64 64
-2.111234426498413 0.312973290681839 6.160961627960205 3 3 3
-2.231757640838623 -1.2969473600387573 6.621415138244629 72 72 72
-1.934021234512329 -0.5571945309638977 5.883148670196533 109 109 109
-1.7684636116027832 -1.2540706396102905 5.614891529083252 246 246 246
-1.8850994110107422 -0.39604443311691284 6.070674419403076 75 75 75
-9.594252586364746 -4.51633358001709 32.168975830078125 85 85 85
-1.6869786977767944 -1.3959319591522217 5.478923797607422 46 46 46
-1.831192135810852 -0.1319613754749298 6.186187744140625 115 115 115
-1.775900959968567 -0.33336010575294495 6.141052722930908 35 35 35
-1.7320383787155151 0.3917311131954193 6.39024543762207 22 22 22
-1.629241704940796 -0.28020355105400085 6.249461650848389 14 14 14
-1.6006959676742554 -0.1173921748995781 6.297826766967773 36 36 36
-1.466976284980774 -1.99760901927948 6.003210544586182 133 133 133
-1.5126036405563354 0.22688253223896027 6.486029148101807 18 18 18
-1.4950592517852783 0.04235297068953514 6.418286323547363 129 129 129
-3.1462907791137695 -0.401277095079422 13.647154808044434 83 83 83
-1.2632673978805542 -0.6730334162712097 6.375073432922363 129 129 129
-0.8986756205558777 -0.12526428699493408 6.7799553871154785 83 83 83
-0.8441494107246399 -0.49399644136428833 6.691409111022949 79 79 79
0.41427910327911377 -1.2180562019348145 3.143850803375244 12 12 12
0.859504222869873 -0.280307799577713 3.0353376865386963 142 142 142
0.859504222869873 -0.280307799577713 3.0353376865386963 142 142 142
0.7919189929962158 -2.41742205619812 4.32320499420166 118 118 118
0.9981886148452759 -0.6368435025215149 4.709686279296875 100 100 100
0.9973999857902527 -0.8280168175697327 3.7023093700408936 55 55 55
-2.7332499027252197 0.5668653845787048 6.013330936431885 19 19 19
-106.52267456054688 -12.555057525634766 169.04953002929688 73 73 73
-74.32486724853516 -9.938551902770996 118.97050476074219 200 200 200
-3.220881462097168 -1.5257947444915771 7.488795280456543 33 33 33
-2.304595470428467 -2.0106825828552246 5.934104919433594 53 53 53
-2.320997476577759 -0.6945337057113647 6.136801242828369 55 55 55
-2.274689197540283 0.5252628922462463 6.167701721191406 82 82 82
-2.0915770530700684 -1.8041012287139893 5.703571319580078 24 24 24
-2.5908772945404053 -0.8202476501464844 6.701325416564941 132 132 132
-2.174955129623413 0.09254415333271027 6.06664514541626 114 114 114
-2.191823720932007 0.37628844380378723 6.144507884979248 93 93 93
-2.11554217338562 -0.08834801614284515 6.041001319885254 42 42 42
-1.8395153284072876 -2.528379440307617 5.365738868713379 39 39 39
-2.12945818901062 -1.0895953178405762 6.006527900695801 214 214 214
-2.3735814094543457 -1.6401499509811401 6.606198310852051 77 77 77
-1.5521265268325806 -1.6459568738937378 5.1867170333862305 24 24 24
-1.8671268224716187 -0.1051761582493782 6.183338165283203 61 61 61
-1.3835482597351074 -1.2086483240127563 5.194221496582031 41 41 41
-1.7987531423568726 -0.1380195915699005 6.183331489562988 136 136 136
-1.2564666271209717 -0.6298765540122986 5.033809185028076 26 26 26
-9.699140548706055 -10.880342483520508 22.58453369140625 146 146 146
-1.6103463172912598 -1.0691587924957275 5.8282928466796875 224 224 224
-1.810584545135498 0.3856070339679718 6.351060390472412 20 20 20
-1.8019428253173828 -0.8134024143218994 6.341627597808838 104 104 104
-8.82250690460205 -5.5092058181762695 21.138710021972656 109 109 109
-1.6481307744979858 -0.049247369170188904 6.286385536193848 138 138 138
-1.4846155643463135 -2.174990653991699 5.820162296295166 135 135 135
-1.3616759777069092 -2.3112125396728516 5.679276466369629 133 133 133
-1.5189341306686401 -0.13451461493968964 6.3515777587890625 151 151 151
-0.6967670917510986 -0.7543879747390747 7.2219767570495605 112 112 112
-1.4305258989334106 0.12648119032382965 6.486757755279541 114 114 114
-1.2593066692352295 -0.7858418226242065 6.311703681945801 83 83 83
-1.1547787189483643 -0.3998778164386749 6.531827926635742 75 75 75
-1.1448956727981567 -0.3090851604938507 6.558695316314697 45 45 45
-1.1212495565414429 -0.4081405997276306 6.556717395782471 85 85 85
-1.0773884057998657 0.7889404296875 6.665586948394775 78 78 78
-0.7322335839271545 -0.3562408983707428 5.494882583618164 18 18 18
-1.0316224098205566 -0.5434078574180603 6.5653533935546875 90 90 90
-1.0411152839660645 -2.97019362449646 7.894586086273193 27 27 27
-0.049771226942539215 -2.1626861095428467 5.276584625244141 23 23 23
0.8554350733757019 -1.049247145652771 2.6741559505462646 12 12 12
0.9239926934242249 -1.4619418382644653 3.806089401245117 103 103 103
1.3768541812896729 -0.9039446115493774 2.6366121768951416 99 99 99
1.3807003498077393 -0.9068981409072876 2.6238553524017334 99 99 99
0.8597174286842346 -2.1305055618286133 4.200704574584961 118 118 118
1.0180554389953613 -1.1369682550430298 4.418263912200928 100 100 100
1.0180554389953613 -1.1369682550430298 4.418263912200928 100 100 100
0.9886454343795776 -1.8044217824935913 3.5542893409729004 35 35 35
1.0628247261047363 -0.20298437774181366 2.9033350944519043 107 107 107
1.1877957582473755 -1.2730838060379028 3.6546669006347656 118 118 118
1.0999245643615723 -0.49592965841293335 2.6695077419281006 25 25 25
-2.7508723735809326 -0.09720586240291595 5.871823310852051 104 104 104
-2.834942579269409 -0.6389521360397339 5.930044651031494 74 74 74
-2.2899391651153564 -2.199916124343872 5.243198394775391 90 90 90
-2.16018009185791 -1.5036115646362305 5.319741249084473 245 245 245
-2.299025535583496 -1.49525785446167 5.465005397796631 245 245 245
-2.5705461502075195 0.14914917945861816 6.009920120239258 86 86 86
-2.148298740386963 -2.210529088973999 5.274784564971924 98 98 98
-2.609391212463379 -0.9733506441116333 6.09217643737793 72 72 72
-2.41355299949646 -0.04534488543868065 5.97205114364624 95 95 95
-2.5121288299560547 0.8770886659622192 6.2502641677856445 77 77 77
-2.406996726989746 -0.5599095821380615 5.969385147094727 32 32 32
-0.10914637893438339 -0.4094090759754181 3.804839611053467 99 99 99
-1.9240238666534424 -2.3017759323120117 5.3097004890441895 134 134 134
-2.85653018951416 -1.1299850940704346 6.684309005737305 66 66 66
-1.9271177053451538 -1.6068751811981201 5.5596818923950195 29 29 29
-1.9271177053451538 -1.6068751811981201 5.5596818923950195 29 29 29
-2.5874907970428467 -0.804015040397644 6.570162773132324 139 139 139
-2.1339876651763916 0.8115478157997131 6.28798770904541 86 86 86
-2.609377384185791 -1.0475660562515259 6.772543907165527 131 131 131
-2.0694806575775146 -0.05882735922932625 6.1397576332092285 134 134 134
-2.066602945327759 -1.783772587776184 5.942653179168701 70 70 70
-1.7281668186187744 -2.208423137664795 5.440258026123047 102 102 102
-2.099672317504883 -1.7187325954437256 6.051437854766846 25 25 25
-2.432996988296509 -1.6031389236450195 6.618308067321777 121 121 121
-2.432996988296509 -1.6031389236450195 6.618308067321777 121 121 121
-1.9363892078399658 -0.22246576845645905 6.106764316558838 93 93 93
-2.2055323123931885 -1.6610780954360962 6.371582508087158 104 104 104
-1.0515550374984741 -1.4811718463897705 4.722184658050537 24 24 24
-1.7354004383087158 -2.1589138507843018 5.664290428161621 76 76 76
-1.7354004383087158 -2.1589138507843018 5.664290428161621 76 76 76
-0.7534441947937012 1.2304960489273071 4.653099060058594 140 140 140
-1.861311912536621 -0.12989898025989532 6.15583610534668 101 101 101
-1.5784825086593628 -1.8780206441879272 5.6075215339660645 64 64 64
-1.763204574584961 -0.3315129280090332 6.128535747528076 35 35 35
-0.7991858124732971 1.1334702968597412 4.978558540344238 64 64 64
-1.7254458665847778 0.7258409261703491 6.41657829284668 110 110 110
-0.9691200852394104 1.0548794269561768 5.263627529144287 104 104 104
-1.7201814651489258 0.45570483803749084 6.397337913513184 99 99 99
-1.7201814651489258 0.45570483803749084 6.397337913513184 99 99 99
-1.6525613069534302 -0.6592690348625183 6.1534929275512695 59 59 59
-1.6442254781723022 0.7125698924064636 6.501502513885498 140 140 140
-1.5571961402893066 0.4750198423862457 6.474742412567139 91 91 91
-1.532183051109314 0.6648095846176147 6.480790138244629 50 50 50
0.1294306516647339 -0.8846768140792847 3.431962728500366 245 245 245
-1.4530812501907349 -0.2950912415981293 6.331586837768555 17 17 17
-1.5159952640533447 -2.2557404041290283 6.155645847320557 106 106 106
-1.3952981233596802 -0.22316795587539673 6.380729675292969 63 63 63
-0.03229864686727524 -0.5724729895591736 4.0070929527282715 64 64 64
-1.2145713567733765 -0.1694411039352417 6.539829254150391 103 103 103
