ply
format ascii 1.0
element vertex 837
property float x
property float y
property float z
end_header
0.8703893423080444 -1.5760576725006104 3.4660847187042236
0.9124941825866699 0.48535996675491333 3.674253225326538
0.9538371562957764 -0.9951596260070801 3.783682346343994
0.8776900768280029 1.1851816177368164 3.480705499649048
0.8661523461341858 -1.615267038345337 3.416508913040161
0.8896957635879517 1.6153459548950195 3.491224527359009
0.8897712826728821 1.5435693264007568 3.479297637939453
0.9449645280838013 -0.13427670300006866 3.6900792121887207
0.8768741488456726 1.050987720489502 3.406416893005371
0.8919297456741333 0.9555538892745972 3.474527597427368
0.8817979097366333 0.9679360389709473 3.4152560234069824
0.8834871053695679 0.6833060383796692 3.397953510284424
0.8919029235839844 1.0903068780899048 3.41521954536438
0.9063135385513306 1.562612771987915 3.4679372310638428
0.9004250168800354 1.2085282802581787 3.4396004676818848
0.9101163148880005 1.4056273698806763 3.4467554092407227
0.9659197926521301 -0.5146018266677856 3.6502323150634766
0.89463210105896 0.6320991516113281 3.3673408031463623
0.9016944766044617 0.8018744587898254 3.396850347518921
0.9180725812911987 1.7080621719360352 3.451796770095825
0.9034605622291565 1.4181207418441772 3.35732364654541
0.9034605622291565 1.4181207418441772 3.35732364654541
0.9368709325790405 -0.8323281407356262 3.51224946975708
0.923317551612854 1.1312977075576782 3.4454915523529053
0.9069768786430359 0.7062339186668396 3.315004587173462
0.9150484800338745 0.6641882658004761 3.3571465015411377
0.9317665696144104 1.2666053771972656 3.426223039627075
0.9336575865745544 1.3396714925765991 3.4206275939941406
0.9457831382751465 1.6699278354644775 3.4600625038146973
0.9743920564651489 -1.0055656433105469 3.5408198833465576
0.9367323517799377 1.121840238571167 3.3939731121063232
0.934886634349823 -1.6511701345443726 3.393354654312134
0.9591607451438904 -1.151371955871582 3.4707348346710205
0.9605221748352051 -1.1910265684127808 3.4722015857696533
0.9907333850860596 -0.6855385303497314 3.5750675201416016
0.9383042454719543 0.9816865921020508 3.3791990280151367
0.9446840882301331 1.583004355430603 3.4312644004821777
0.9477777481079102 1.1672993898391724 3.3937876224517822
1.0486125946044922 -0.9925206303596497 3.7317986488342285
1.0486125946044922 -0.9925206303596497 3.7317986488342285
0.9726054668426514 1.6763585805892944 3.463031768798828
1.0492310523986816 -1.0114235877990723 3.7215793132781982
0.9571603536605835 1.2167447805404663 3.410646438598633
0.9554781913757324 0.6923543810844421 3.339261293411255
0.9550957679748535 0.7329161167144775 3.338198184967041
0.9500280618667603 1.173880934715271 3.3192331790924072
0.9893262982368469 -0.8053788542747498 3.454251289367676
0.9746493101119995 1.3056182861328125 3.384281873703003
0.99140465259552 1.2417094707489014 3.4452779293060303
0.9954946041107178 1.5452240705490112 3.4212427139282227
0.9683473110198975 0.9280114769935608 3.354182004928589
0.9757893681526184 1.354529857635498 3.385526418685913
0.985084593296051 1.5588728189468384 3.417311429977417
0.9950951337814331 -1.285125970840454 3.429978847503662
0.9907480478286743 1.5752006769180298 3.409592866897583
0.9833460450172424 1.0313773155212402 3.3417534828186035
1.1867485046386719 -0.8063331842422485 3.990800380706787
0.9946280717849731 0.7035203576087952 3.311232328414917
1.0120095014572144 1.4291799068450928 3.3720035552978516
1.0120095014572144 1.4291799068450928 3.3720035552978516
1.015455722808838 1.2056965827941895 3.364320993423462
1.0016804933547974 1.0129879713058472 3.3180296421051025
1.0016005039215088 0.9846464991569519 3.3089218139648438
1.0162875652313232 1.106088638305664 3.3430540561676025
1.0162875652313232 1.106088638305664 3.3430540561676025
1.065234661102295 0.5333927273750305 3.446284055709839
1.0146632194519043 0.9717661142349243 3.305598735809326
1.0190130472183228 0.9409464597702026 3.3081250190734863
1.015834927558899 -1.6133110523223877 3.3110361099243164
1.011735439300537 0.7854084372520447 3.264068126678467
1.0411698818206787 1.448077917098999 3.343939781188965
1.0260437726974487 0.7630126476287842 3.274850845336914
1.0691800117492676 0.5622169375419617 3.413119077682495
1.0689504146575928 0.5619534850120544 3.4101829528808594
1.0282716751098633 0.991685688495636 3.2930166721343994
1.0329105854034424 1.1684294939041138 3.283114194869995
1.079936146736145 0.5470617413520813 3.4319050312042236
1.0735688209533691 -1.0203418731689453 3.4001078605651855
1.0517196655273438 1.1955455541610718 3.3139405250549316
1.0459914207458496 0.9479048848152161 3.2868762016296387
1.2791051864624023 -0.44519421458244324 3.9817185401916504
1.2958120107650757 -0.2571374177932739 4.0461506843566895
1.0542470216751099 0.8834437727928162 3.2756974697113037
1.0542470216751099 0.8834437727928162 3.2756974697113037
1.0649547576904297 1.4641709327697754 3.3338677883148193
1.0654680728912354 1.241398572921753 3.323838233947754
1.074014663696289 1.5013710260391235 3.327655792236328
1.3020542860031128 0.14760039746761322 4.026800155639648
1.0580652952194214 0.6507468223571777 3.2661399841308594
1.054166555404663 0.7275940775871277 3.259672164916992
1.0600359439849854 0.7025856971740723 3.2549514770507812
1.0640767812728882 0.9149488806724548 3.253852128982544
1.0851938724517822 1.2995262145996094 3.3091728687286377
1.091866135597229 -1.3296409845352173 3.3404898643493652
1.0591398477554321 1.0110019445419312 3.24310040473938
1.0856356620788574 0.982126772403717 3.304093360900879
1.08314049243927 1.1343998908996582 3.2897531986236572
1.0909737348556519 1.3230081796646118 3.3016364574432373
1.098944067955017 1.4099642038345337 3.2982747554779053
1.1122206449508667 -1.5515295267105103 3.317072629928589
1.0601555109024048 0.8515163660049438 3.1530802249908447
1.1189483404159546 1.5652810335159302 3.3091282844543457
1.1095131635665894 1.1223335266113281 3.253084421157837
1.124043345451355 1.364469051361084 3.2773611545562744
1.1105042695999146 1.1829428672790527 3.2405223846435547
1.1266120672225952 1.5038257837295532 3.274705171585083
1.4223958253860474 0.13608910143375397 4.091681480407715
1.1006025075912476 0.9587901830673218 3.1919310092926025
1.1172802448272705 0.9545575380325317 3.237152576446533
1.1313291788101196 1.4783716201782227 3.2695305347442627
1.4428808689117432 -0.47205883264541626 4.163211345672607
1.1363120079040527 1.4038043022155762 3.274836540222168
1.3566254377365112 -0.5667665004730225 3.9098660945892334
1.1084542274475098 0.9231530427932739 3.1513376235961914
1.1463794708251953 1.4997005462646484 3.279170036315918
1.132528305053711 0.8993544578552246 3.221310615539551
1.141620397567749 1.2893587350845337 3.237704038619995
1.1602932214736938 1.369491696357727 3.3180038928985596
1.480341911315918 0.25213873386383057 4.1974778175354
1.1893560886383057 0.6164788007736206 3.373309373855591
1.1487250328063965 1.3769170045852661 3.255697011947632
1.1489914655685425 1.4467506408691406 3.2530250549316406
1.131853461265564 0.7401764988899231 3.200507402420044
1.4461548328399658 -0.28552085161209106 4.08586311340332
1.148837924003601 1.1654201745986938 3.2324233055114746
1.1473886966705322 1.1613883972167969 3.2254507541656494
1.1557066440582275 1.3802158832550049 3.2409660816192627
1.1557066440582275 1.3802158832550049 3.2409660816192627
1.137753963470459 0.6890780329704285 3.1834042072296143
1.1433124542236328 0.9688243269920349 3.1917097568511963
1.392623782157898 -0.609060525894165 3.9007515907287598
1.172061800956726 -1.1881483793258667 3.240330696105957
1.1441344022750854 0.7349517345428467 3.1845877170562744
1.158726453781128 1.0679417848587036 3.2205467224121094
1.1609958410263062 1.087021827697754 3.2309463024139404
1.1797614097595215 1.4000251293182373 3.237903594970703
1.2095855474472046 0.6092506647109985 3.3510117530822754
1.1647676229476929 1.2198915481567383 3.221686601638794
1.1570500135421753 1.3733748197555542 3.1680185794830322
1.1517826318740845 0.862999677658081 3.1691272258758545
1.1767868995666504 0.7725380063056946 3.210963726043701
1.1771703958511353 1.2228318452835083 3.2186920642852783
1.2447929382324219 0.5395667552947998 3.386314868927002
1.2275842428207397 0.603031575679779 3.33833909034729
1.4264649152755737 -0.5671554207801819 3.8770911693573
1.1822962760925293 1.1967713832855225 3.205810546875
1.1822962760925293 1.1967713832855225 3.205810546875
1.1814119815826416 0.8367570042610168 3.236483097076416
1.173872947692871 0.6656708717346191 3.17423939704895
1.1664156913757324 0.9268588423728943 3.1310949325561523
1.4353245496749878 0.34567970037460327 3.900273323059082
1.4353245496749878 0.34567970037460327 3.900273323059082
1.1855963468551636 0.7794824242591858 3.232619285583496
1.1855963468551636 0.7794824242591858 3.232619285583496
1.1714997291564941 1.0030646324157715 3.1297454833984375
1.197824239730835 1.3510065078735352 3.2159054279327393
1.2037795782089233 1.4044681787490845 3.2072641849517822
1.1921114921569824 1.2746635675430298 3.1936194896698
1.1793569326400757 0.634540319442749 3.1619861125946045
1.2340227365493774 0.5809070467948914 3.3006749153137207
1.2325222492218018 -0.9509153962135315 3.2952423095703125
1.1816861629486084 0.8937935829162598 3.1611292362213135
1.183779239654541 0.680137038230896 3.150733232498169
1.1981029510498047 1.2228389978408813 3.1842234134674072
1.208704948425293 1.4299360513687134 3.2108280658721924
1.192940354347229 0.9846580028533936 3.1601645946502686
1.2152880430221558 1.3663661479949951 3.2420947551727295
1.2034343481063843 1.0396218299865723 3.1730732917785645
1.5268291234970093 0.055448856204748154 4.020283222198486
1.2085630893707275 1.2108477354049683 3.1790452003479004
1.1930217742919922 1.1697992086410522 3.1311068534851074
1.2032090425491333 0.8739128708839417 3.1555068492889404
1.2107367515563965 1.0430189371109009 3.158409595489502
1.3057399988174438 -0.6075530052185059 3.4041805267333984
1.2105402946472168 0.9477782249450684 3.1278300285339355
1.2217192649841309 1.0900644063949585 3.136153221130371
1.2186726331710815 1.0189114809036255 3.1506123542785645
1.2335114479064941 1.2567052841186523 3.177342414855957
1.594093680381775 0.15424883365631104 4.099355697631836
1.2881163358688354 -0.7016675472259521 3.351924419403076
1.2104765176773071 0.9890024662017822 3.102431535720825
1.561720609664917 0.17908403277397156 4.003349781036377
1.2390763759613037 1.30962336063385 3.1555049419403076
0.8567019104957581 -0.6818979382514954 2.182464122772217
1.2394856214523315 1.2671905755996704 3.153367280960083
1.2307757139205933 0.8278005123138428 3.117502212524414
1.2327934503555298 0.8667893409729004 3.119760751724243
1.2612823247909546 1.0479577779769897 3.2275121212005615
1.2307977676391602 0.9601041674613953 3.113467216491699
1.2307790517807007 0.7142304182052612 3.110651969909668
1.2648512125015259 1.1712603569030762 3.221346139907837
1.2535306215286255 0.7017596960067749 3.1971702575683594
1.2961901426315308 0.587921142578125 3.265990734100342
1.2559881210327148 1.2748959064483643 3.1543164253234863
1.2478631734848022 1.0970207452774048 3.104444742202759
1.309205412864685 0.5539241433143616 3.2296743392944336
1.3006843328475952 -0.7118280529975891 3.2448394298553467
1.2502179145812988 1.1460518836975098 3.084831476211548
1.2565209865570068 1.0783790349960327 3.115767002105713
1.2662944793701172 1.1891497373580933 3.1340415477752686
1.2517213821411133 0.6919146776199341 3.096696615219116
1.2649617195129395 1.2170571088790894 3.132498264312744
1.2579715251922607 0.8912671208381653 3.1023459434509277
1.2732957601547241 1.2431973218917847 3.137146472930908
1.2513526678085327 1.0266772508621216 3.0842182636260986
1.3089041709899902 -0.753648042678833 3.2271933555603027
1.284600019454956 1.3957645893096924 3.1580657958984375
1.2403144836425781 0.7857104539871216 3.038085699081421
1.2748737335205078 1.1863218545913696 3.11726713180542
1.3666952848434448 -0.6040863990783691 3.347245216369629
1.2658995389938354 1.2852468490600586 3.048334836959839
1.29934561252594 0.6652808785438538 3.135042667388916
1.4065935611724854 0.4041009843349457 3.389857292175293
1.3462438583374023 0.632897138595581 3.222681760787964
1.3163179159164429 1.369140863418579 3.1626534461975098
1.3092671632766724 1.3987969160079956 3.1257710456848145
1.3081462383270264 1.241174340248108 3.11769962310791
1.3183051347732544 0.6741692423820496 3.116231679916382
1.2959588766098022 0.9221562147140503 3.0791280269622803
1.299227237701416 0.707546591758728 3.0788285732269287
1.288391351699829 0.9504966735839844 3.01513671875
1.288391351699829 0.9504966735839844 3.01513671875
1.324765920639038 1.309192419052124 3.095520496368408
1.340625286102295 1.2789809703826904 3.1110470294952393
1.340625286102295 1.2789809703826904 3.1110470294952393
1.3483576774597168 1.2650083303451538 3.125181198120117
1.323251485824585 0.7705128192901611 3.044342041015625
1.3406367301940918 1.2790052890777588 3.1110875606536865
1.350124716758728 1.2762932777404785 3.089036464691162
1.3302903175354004 1.0022172927856445 3.043349504470825
1.3333972692489624 1.179476261138916 3.050393581390381
1.3490660190582275 1.3145438432693481 3.0652637481689453
1.3213804960250854 1.0391358137130737 3.0067977905273438
1.3516101837158203 1.066483497619629 3.01812744140625
1.3729630708694458 1.2073513269424438 3.051265239715576
1.3746309280395508 1.2090964317321777 3.0532095432281494
1.3753207921981812 0.9863461852073669 3.0618221759796143
0.8960561752319336 -0.33748605847358704 1.9505094289779663
1.4086434841156006 -0.26687121391296387 4.156162261962891
0.8385288715362549 -0.6154907941818237 3.545346736907959
-0.7266219854354858 0.5542578101158142 3.7045176029205322
-0.8726450800895691 1.0589364767074585 3.633742094039917
0.6620135307312012 0.12272856384515762 1.5780109167099
1.5137274265289307 0.07945923507213593 4.048264980316162
1.0083314180374146 0.3577386438846588 3.735224485397339
1.5089627504348755 0.05611210688948631 4.075727939605713
0.9377747774124146 0.4363037347793579 3.6471426486968994
0.9506016969680786 0.4283923804759979 3.701098918914795
1.4978481531143188 -0.2989117205142975 4.169259548187256
0.9414257407188416 0.4487655758857727 3.6708805561065674
-0.427175909280777 0.22840572893619537 3.978239059448242
-0.7266291975975037 0.5542657971382141 3.7045536041259766
-0.8560234904289246 1.1946418285369873 3.6257076263427734
1.471721887588501 -0.04260801896452904 3.952996015548706
1.511454701423645 0.0505099892616272 4.061800003051758
0.9401288628578186 -0.668569028377533 3.6227872371673584
-0.44248291850090027 -1.7866911888122559 3.6633682250976562
-0.9539326429367065 0.11668519675731659 3.4539072513580322
0.9154824614524841 -0.6720390915870667 3.6415367126464844
1.3627060651779175 0.14873817563056946 4.073103427886963
1.3481932878494263 -0.20934830605983734 4.068378925323486
0.8550267815589905 -0.43906524777412415 3.6028435230255127
1.3642523288726807 0.15061986446380615 4.080073833465576
0.838415801525116 -0.6153577566146851 3.544839382171631
-0.884953498840332 1.1962087154388428 3.5350661277770996
1.4733092784881592 -0.39922499656677246 4.073580265045166
1.447121024131775 -0.20945265889167786 4.082281589508057
0.9401299953460693 -0.6685768365859985 3.622795581817627
0.9401335716247559 -0.6685733199119568 3.622849464416504
0.8385388255119324 -0.6155024766921997 3.5454013347625732
-0.8410407900810242 0.8637536764144897 3.5218288898468018
1.4079229831695557 0.32422584295272827 3.93993878364563
-0.7498031258583069 -0.550251305103302 3.509976863861084
-0.7610654234886169 -0.5596923828125 3.5628249645233154
-0.22433775663375854 0.32180145382881165 4.1539740562438965
-0.7297291159629822 0.7058172821998596 3.7312796115875244
1.0208395719528198 -0.6410543918609619 3.593587636947632
1.4302564859390259 -0.11857853084802628 4.053812503814697
-0.5787303447723389 0.21974311769008636 3.8754405975341797
-0.9573730230331421 -0.02129962481558323 3.4331607818603516
-0.6061839461326599 0.0681932345032692 3.812443971633911
1.209372639656067 0.6091358065605164 3.3504457473754883
-0.594865083694458 0.6950721740722656 3.8749403953552246
0.9531195759773254 0.4162748157978058 3.7093183994293213
-0.33303359150886536 -1.7560538053512573 3.895185947418213
0.10602226108312607 0.4764779806137085 4.235262393951416
-0.9539505243301392 0.11668326705694199 3.453934669494629
-1.0572497844696045 1.5615246295928955 3.451199531555176
-0.9485490918159485 -0.6804342865943909 3.311657667160034
-0.9400370717048645 0.6030992865562439 3.5066802501678467
0.949416995048523 -0.7697919011116028 3.481531858444214
-0.7021987438201904 1.498475193977356 3.8214571475982666
-0.4192672073841095 0.2262951135635376 3.9794185161590576
1.3406559228897095 1.2790290117263794 3.111140251159668
1.2066316604614258 0.3756655156612396 3.652951955795288
0.19718025624752045 0.287405788898468 4.381219863891602
-0.543388307094574 1.742921233177185 3.9531567096710205
-0.3902709484100342 0.4959668219089508 3.941239595413208
-0.9354216456413269 0.9473393559455872 3.5504469871520996
-0.6136357188224792 -1.1821764707565308 3.5836739540100098
0.9067212343215942 1.341587781906128 3.4185993671417236
0.8029365539550781 1.4933009147644043 3.4950737953186035
1.1663637161254883 1.4109199047088623 3.2644152641296387
1.2222392559051514 0.4762662649154663 3.439607858657837
1.20380437374115 1.4045125246047974 3.2073543071746826
-0.5226023197174072 0.3707979917526245 3.9963557720184326
-0.972172200679779 -0.20467089116573334 3.426452875137329
0.1528460532426834 1.122982144355774 4.091042995452881
-0.4206807613372803 0.658205509185791 3.999130964279175
0.8884891867637634 1.3428447246551514 3.431168794631958
-0.5948450565338135 -0.09614265710115433 3.7942280769348145
-0.16963274776935577 0.4699741303920746 4.299758434295654
1.1798336505889893 1.4001200199127197 3.2382092475891113
-0.9698541164398193 -0.20320358872413635 3.420044183731079
-0.4003695547580719 0.503642201423645 4.034545421600342
-0.5519016981124878 1.1462359428405762 3.9610729217529297
-0.8681157231330872 0.5784599781036377 3.585162878036499
1.4465826749801636 -0.26720955967903137 4.091397285461426
-0.9519931674003601 0.44198763370513916 3.505258560180664
0.9708338975906372 0.39740443229675293 3.7410876750946045
-0.3958682715892792 0.6565459370613098 4.013611316680908
1.2131057977676392 1.4344449043273926 3.2588746547698975
-0.9640154838562012 -0.8549079298973083 3.326592206954956
-0.8691872358322144 1.0559430122375488 3.6271986961364746
1.209951639175415 0.3958794176578522 3.6294240951538086
1.1447224617004395 -1.0740575790405273 3.3789255619049072
-0.4417828917503357 0.04656805098056793 3.948770523071289
0.8167820572853088 1.0363614559173584 3.507171630859375
-0.7214961051940918 0.5928126573562622 3.7018535137176514
-0.4528276324272156 -0.27185946702957153 3.9114694595336914
1.033119559288025 0.36335742473602295 3.835833787918091
-0.47577160596847534 0.35865482687950134 3.993959903717041
-0.9021342396736145 -0.39047807455062866 3.4216411113739014
-0.1706467866897583 -0.9509784579277039 4.1693115234375
1.351692795753479 -0.4745658040046692 4.04924201965332
-0.5816014409065247 0.529927134513855 3.8797292709350586
-0.7367941737174988 0.27757617831230164 3.6966984272003174
0.8556919097900391 1.3531354665756226 3.477909803390503
1.3779139518737793 0.40374600887298584 3.4697656631469727
-0.5815908908843994 0.5299228429794312 3.8796768188476562
-0.6254454851150513 0.6867493391036987 3.7775588035583496
-0.7351943254470825 0.4016580283641815 3.6700596809387207
0.9588168859481812 -1.0770986080169678 3.4921951293945312
0.6496999859809875 0.5554041266441345 3.7689619064331055
-0.46664121747016907 -1.845584511756897 3.598734140396118
0.9124901294708252 0.4853576421737671 3.6742377281188965
-0.4165038764476776 0.8225241303443909 4.071176528930664
-0.41650328040122986 0.8225244283676147 4.071172714233398
0.47823432087898254 0.7687121629714966 3.7367401123046875
-0.9070739150047302 0.7260239720344543 3.457780599594116
0.4925788640975952 0.8080326914787292 3.7478697299957275
-0.25820741057395935 0.32840508222579956 4.102672100067139
-0.279184490442276 -0.7740408778190613 4.056065082550049
-0.2461530566215515 0.924138605594635 4.189035415649414
0.5479496717453003 0.8436556458473206 3.705278158187866
-0.266031950712204 -1.9586719274520874 3.9474375247955322
0.7279154658317566 0.49465692043304443 3.7192835807800293
-0.3356613516807556 -1.9268828630447388 3.88684344291687
-0.475833922624588 0.35870909690856934 3.994508743286133
-0.7533116340637207 0.08290921151638031 3.6297600269317627
-0.6020785570144653 -1.7500298023223877 3.539402484893799
-0.6151147484779358 -1.7840656042099 3.613839626312256
-0.7142205238342285 0.8702607154846191 3.7588255405426025
-0.3941839635372162 0.9551435112953186 4.063188552856445
0.22015318274497986 0.9405040740966797 3.9582881927490234
1.0936665534973145 -1.1491153240203857 3.3419811725616455
-0.7905026078224182 -1.044856071472168 3.565084457397461
-0.7725895643234253 -0.05883374065160751 3.673591136932373
0.7739285826683044 1.1865206956863403 3.53977632522583
-0.8792169094085693 1.2105456590652466 3.608144998550415
0.9466079473495483 -1.6411713361740112 3.355893135070801
-0.7235761880874634 0.2712595760822296 3.6686365604400635
1.0093640089035034 -0.9412542581558228 3.667024612426758
-0.879166305065155 1.2104613780975342 3.607924699783325
-0.9671960473060608 -0.8571845889091492 3.331685781478882
0.8311440348625183 1.2161898612976074 3.5439414978027344
0.9022810459136963 -1.6326695680618286 3.384990930557251
-1.0177438259124756 -0.029114658012986183 3.347435235977173
-0.930742621421814 1.2327945232391357 3.5913593769073486
-0.43956705927848816 0.045606303960084915 3.942364454269409
-0.6016513705253601 0.21897129714488983 3.6931705474853516
0.7713961005210876 0.5398255586624146 3.6813924312591553
0.9906375408172607 -0.8859260082244873 3.4588561058044434
0.9445515871047974 -1.588645339012146 3.3500375747680664
-0.3143414855003357 -1.5497665405273438 3.9281005859375
-0.9668410420417786 -0.35400310158729553 3.3874564170837402
-1.2544288635253906 -0.8459230065345764 3.2701449394226074
-0.9378743767738342 -1.3314359188079834 3.3060390949249268
1.0333577394485474 -0.873994767665863 3.4012744426727295
-0.9640451669692993 -0.8549460172653198 3.326693058013916
-0.7807456851005554 -0.3908964991569519 3.5885655879974365
-0.5195448994636536 -1.7119905948638916 3.6545372009277344
1.1719634532928467 -0.872081458568573 3.3114147186279297
-0.9933556914329529 -1.5202760696411133 3.258392095565796
-0.5195674300193787 -1.7120176553726196 3.6546473503112793
-1.0028033256530762 -1.5238384008407593 3.2714853286743164
-0.8473712205886841 1.3420417308807373 3.5717740058898926
-0.6054218411445618 0.3916197419166565 3.9185495376586914
1.3507001399993896 -0.47483426332473755 4.048503875732422
-1.2277411222457886 0.2808625102043152 3.420820951461792
-1.2277913093566895 0.33548542857170105 3.4160242080688477
-0.5441626906394958 0.6625372767448425 3.7643628120422363
-0.8523662090301514 0.879321277141571 3.5458014011383057
0.2202504426240921 0.9403731226921082 3.9577417373657227
0.7209641933441162 0.554111659526825 3.7437081336975098
-0.1271992325782776 0.4693467319011688 4.328049182891846
-0.8856087923049927 0.9010574817657471 3.56528377532959
-0.3539288341999054 -0.2823803424835205 4.095367908477783
-0.5766292810440063 0.6773781776428223 3.8408799171447754
-0.9519559144973755 0.4419521689414978 3.5051443576812744
-0.11732834577560425 0.46169352531433105 4.285277843475342
0.4993566572666168 0.9885244369506836 3.762380361557007
0.8687652349472046 1.6779232025146484 3.5305891036987305
-0.16220566630363464 0.4255637526512146 4.214643955230713
-0.3280986547470093 -1.5304608345031738 3.9149625301361084
-0.8026717901229858 -1.319785237312317 3.3814470767974854
-0.46544522047042847 -0.5955596566200256 3.8815083503723145
1.1492191553115845 -0.9374857544898987 4.554159641265869
-0.5948265194892883 -0.09615101665258408 3.7941973209381104
-0.9049158096313477 -0.20337341725826263 3.4772732257843018
0.7811901569366455 0.46809059381484985 3.6832239627838135
-0.6065336465835571 -0.4109824299812317 3.778219223022461
-0.9902036786079407 -0.25957539677619934 3.335648775100708
-0.22342149913311005 0.3565714657306671 4.173614025115967
0.1639367938041687 0.7829664945602417 4.049434661865234
-0.7022340297698975 1.4991803169250488 3.8224377632141113
-0.15508060157299042 0.6221521496772766 4.224763870239258
-0.6265238523483276 0.22956690192222595 3.750934362411499
-0.169039785861969 0.16988998651504517 4.346397399902344
0.5313470959663391 0.8233270645141602 3.7485320568084717
0.7022980451583862 1.1744498014450073 3.607100009918213
-0.7301164269447327 0.5826396942138672 3.7001490592956543
-0.4431818127632141 -1.8168748617172241 3.659233331680298
1.1587270498275757 1.0679486989974976 3.220553398132324
1.000836730003357 1.2215957641601562 3.3467400074005127
-0.7804759740829468 -1.5200896263122559 3.4787631034851074
0.4949936270713806 1.1590784788131714 3.774188280105591
0.0817534402012825 0.7539680600166321 4.036822319030762
-0.026658963412046432 0.9308857917785645 4.172613620758057
0.5643090605735779 1.1588959693908691 3.698025941848755
-0.9639587998390198 -1.0008881092071533 3.296884059906006
-0.45469123125076294 0.5198008418083191 4.02719783782959
0.1506752222776413 0.9333690404891968 4.011072158813477
-0.7369149923324585 -0.5012966990470886 4.59026575088501
-0.3859144151210785 0.3472583591938019 4.062844276428223
-0.46736425161361694 -0.7119171619415283 3.858680009841919
-0.6319239735603333 -1.0727218389511108 3.771125316619873
-0.7514997124671936 -0.8824576735496521 3.5120372772216797
-0.597978413105011 -0.09486283361911774 3.80185604095459
-1.0297319889068604 0.1242092177271843 3.414721965789795
-0.4547721743583679 -0.06829182058572769 3.9330673217773438
-0.8362897634506226 1.665852665901184 3.6545979976654053
-0.4461328983306885 0.505272388458252 3.9443862438201904
-0.7409545183181763 -0.37654367089271545 3.5123884677886963
1.1828911304473877 0.5234172344207764 3.606443166732788
0.473327100276947 0.6045166254043579 3.715898275375366
-0.46543681621551514 -0.5955480337142944 3.881485939025879
-1.01730215549469 -0.020511839538812637 3.347949504852295
0.6310223340988159 1.149513602256775 3.655620574951172
1.2054417133331299 -0.7239728569984436 3.4024195671081543
1.0790609121322632 1.2364648580551147 3.3028037548065186
-0.12968115508556366 0.9108530282974243 4.24041223526001
0.8395722508430481 1.2515716552734375 3.5132598876953125
0.3192768394947052 1.2910491228103638 3.9539339542388916
-0.18299059569835663 -1.426025390625 4.142966270446777
-1.0031057596206665 -0.4831056594848633 3.318573236465454
0.9931872487068176 1.061389446258545 3.347736358642578
1.1700509786605835 0.5083597302436829 3.515073776245117
-0.3119787275791168 -1.4079338312149048 3.9316844940185547
-1.228014349937439 0.3355472683906555 3.4163386821746826
0.8263940215110779 -0.4901365637779236 3.5333681106567383
-0.8223413825035095 -1.0123755931854248 3.423611879348755
0.8399190306663513 1.0467222929000854 3.4762158393859863
-0.9261816740036011 0.44033297896385193 3.502354383468628
0.9613076448440552 -0.6256730556488037 3.6573288440704346
1.039489984512329 0.3800978362560272 3.866105318069458
1.0432751178741455 0.3646862208843231 3.71706485748291
-0.41662833094596863 0.1978600174188614 3.97459077835083
-0.7141550779342651 0.8702189326286316 3.7586865425109863
-0.951960027217865 0.44194677472114563 3.5051560401916504
-0.9931904077529907 0.44494518637657166 3.5183990001678467
-0.7344983220100403 0.25546663999557495 3.6728322505950928
-0.9748430848121643 -0.8599345088005066 3.305722236633301
-0.7553388476371765 0.24655728042125702 3.6778039932250977
0.7713748812675476 0.5397952198982239 3.681288957595825
1.1359026432037354 -0.8930924534797668 3.4350547790527344
0.7916087508201599 1.1752198934555054 3.507589340209961
-0.5815839171409607 0.5299196243286133 3.8796563148498535
-0.7532410025596619 0.08291639387607574 3.6296253204345703
-0.8797560334205627 0.4282120168209076 3.5428476333618164
1.0432684421539307 0.36467549204826355 3.7169811725616455
-0.41266149282455444 0.19926440715789795 3.913451671600342
-0.13959664106369019 2.124880790710449 4.250267505645752
0.9655731320381165 -0.6047417521476746 3.641195774078369
0.8167819976806641 1.0363590717315674 3.507164239883423
-0.8883255124092102 1.2001456022262573 3.5415806770324707
-0.862250804901123 0.43295976519584656 3.5431902408599854
1.4256727695465088 -0.17628419399261475 4.05818510055542
0.944620668888092 0.4537716805934906 3.748591661453247
-0.7338401079177856 0.6062921285629272 3.768458127975464
0.9129803776741028 0.45415744185447693 3.7583000659942627
-0.6062830686569214 0.3942866325378418 3.921527147293091
-0.9561441540718079 -0.5399733185768127 3.3510406017303467
0.8204286098480225 1.0407177209854126 3.5244171619415283
-0.8106730580329895 0.5718233585357666 3.6302199363708496
-0.852373480796814 0.5720129609107971 3.523333787918091
1.5137284994125366 0.07946094125509262 4.048269271850586
0.8311507105827332 1.2161974906921387 3.543961524963379
0.19702474772930145 0.2875434160232544 4.382297039031982
-0.9294149875640869 1.2295516729354858 3.584871768951416
-0.8726229071617126 1.058933973312378 3.633732557296753
-0.5054246783256531 0.054136741906404495 4.126083850860596
-0.868384063243866 0.8784979581832886 3.616046190261841
1.3850783109664917 -0.27933013439178467 4.053864479064941
-0.48788660764694214 -1.7954331636428833 3.577284097671509
1.3653976917266846 0.14980164170265198 4.084145545959473
-0.8691808581352234 1.0559335947036743 3.627176284790039
-0.5112245082855225 -1.7924782037734985 3.6203176975250244
-0.44513627886772156 -1.8194841146469116 3.6640725135803223
-0.7611175179481506 -0.5597092509269714 3.562925338745117
-0.6168681383132935 -1.787645936012268 3.6158320903778076
-0.33565908670425415 -1.9268755912780762 3.8868348598480225
-0.44177842140197754 0.04656725376844406 3.948758125305176
-0.9588516354560852 -0.5364136099815369 3.3600528240203857
0.9297066330909729 1.531801462173462 3.4599180221557617
-0.7351797819137573 0.40165287256240845 3.6700165271759033
-0.4528057277202606 -0.271842896938324 3.9112370014190674
-0.869152843952179 1.0559093952178955 3.6270792484283447
1.3850817680358887 -0.279315322637558 4.053874492645264
0.9022823572158813 -1.63267183303833 3.384986400604248
0.9458008408546448 0.4173111021518707 3.63087797164917
1.17976975440979 1.4000370502471924 3.237933874130249
-0.4654539227485657 -0.5955507159233093 3.881521463394165
-0.46544334292411804 -0.5955525636672974 3.881514549255371
0.9545144438743591 0.4212140440940857 3.7161638736724854
0.9289774298667908 0.4239022731781006 3.7153587341308594
-0.5960693359375 0.21910706162452698 3.8291776180267334
-1.2358282804489136 0.2894425094127655 3.4335145950317383
1.2358909845352173 0.4969474971294403 3.50514817237854
1.0049318075180054 0.3660050928592682 3.7428197860717773
0.4755801260471344 0.7826013565063477 3.7455391883850098
-0.8790111541748047 0.8937865495681763 3.5933520793914795
1.093612790107727 -1.1489596366882324 3.3415725231170654
1.3096673488616943 -0.2695980966091156 3.938601016998291
-0.4654504060745239 -0.5955589413642883 3.8815224170684814
-0.559673011302948 0.20899783074855804 3.5981802940368652
1.2177228927612305 -0.7006446123123169 3.2758395671844482
-0.44455426931381226 0.2195332646369934 3.998460531234741
-0.4165036976337433 0.8225235939025879 4.071176528930664
0.2903076410293579 0.7939968705177307 3.9188830852508545
-0.24747991561889648 -1.7765750885009766 3.8863492012023926
-0.9254421591758728 0.7353399395942688 3.5290277004241943
0.36901676654815674 0.786797821521759 3.790721893310547
0.3794201910495758 0.8095929026603699 3.8900442123413086
-0.33303311467170715 -1.7560535669326782 3.8951849937438965
-0.2699669301509857 -0.7423006892204285 3.8868062496185303
1.2060747146606445 -0.7503380179405212 3.256465435028076
-0.33303341269493103 -1.7560540437698364 3.895185947418213
-0.919249415397644 0.7487131953239441 3.521052598953247
-0.9401429891586304 0.6031561493873596 3.5068633556365967
-0.7297285795211792 0.7058176398277283 3.731278419494629
-0.33303382992744446 -1.7560632228851318 3.895199775695801
-0.9401445388793945 0.6031569838523865 3.5068750381469727
0.4925800561904907 0.8080345392227173 3.7478840351104736
-0.9342305064201355 0.9099292755126953 3.5392873287200928
0.940129280090332 -0.6685718894004822 3.622786045074463
-0.7567435503005981 -0.059484414756298065 3.5978238582611084
1.2012799978256226 -0.6460980176925659 3.507077217102051
-0.9401258826255798 0.6031463742256165 3.50681734085083
-0.7266236543655396 0.5542603135108948 3.7045187950134277
1.051831603050232 -0.6394752860069275 3.5720882415771484
-0.7752334475517273 -0.8728690147399902 3.541480302810669
-0.9333906769752502 0.9096229076385498 3.537872791290283
-0.7141531109809875 0.8702113628387451 3.7586536407470703
-0.4814438223838806 0.3621859848499298 4.0101637840271
-0.4331378638744354 0.6791145205497742 4.119969367980957
-0.4758446514606476 0.35872209072113037 3.9945600032806396
-0.9539622664451599 0.11668501794338226 3.453965663909912
-0.420680969953537 0.6582000255584717 3.999128580093384
-0.41425663232803345 0.1999291181564331 3.908514976501465
0.7279176712036133 0.49465566873550415 3.7192869186401367
-0.966836154460907 -0.3539954721927643 3.3874294757843018
-0.5658418536186218 0.5097887516021729 3.8735079765319824
1.4623022079467773 -0.3629065752029419 4.088654041290283
0.7593421339988708 0.4763907790184021 3.695876359939575
0.7593411207199097 0.47639000415802 3.695866346359253
-0.5948213934898376 -0.0961526483297348 3.794185161590576
0.6493422985076904 0.5571772456169128 3.779212713241577
-0.3899989128112793 0.49461662769317627 3.9367852210998535
0.9446250796318054 0.45377832651138306 3.748722791671753
-0.8560260534286499 1.194644808769226 3.625718355178833
-0.7492260336875916 -0.5501900911331177 3.507322072982788
0.15068112313747406 0.9333612322807312 4.011041164398193
-0.5195319056510925 -1.7119766473770142 3.6545231342315674
-0.7890871167182922 0.8862289190292358 3.727447748184204
0.4831549823284149 0.6211317181587219 3.776097536087036
-0.8750308752059937 -0.5155708193778992 3.3520047664642334
-0.8843489289283752 0.11588210612535477 3.4832401275634766
-0.21243952214717865 2.084700107574463 4.113055229187012
-1.0632827281951904 0.336111843585968 4.740139007568359
-0.7644432783126831 -0.5568140149116516 3.578157901763916
-0.8305521011352539 0.10206145793199539 3.567946434020996
-0.3941774070262909 0.9551878571510315 4.063203811645508
-0.9069399237632751 -0.39138609170913696 3.429706335067749
0.4635366201400757 0.8271350264549255 3.7939467430114746
-0.8945382237434387 -0.5194783806800842 3.38448166847229
-0.7259160876274109 0.2733977735042572 3.6734981536865234
-0.4817209839820862 0.20462162792682648 3.8739757537841797
-0.7533434629440308 0.08290068060159683 3.6299262046813965
-0.22438335418701172 0.3218347728252411 4.154147148132324
-0.22401364147663116 0.3216513395309448 4.1483330726623535
-0.5162831544876099 -1.811505913734436 3.5748367309570312
-1.057246446609497 1.5615220069885254 3.4511947631835938
-1.057251214981079 1.5615257024765015 3.4512014389038086
-0.5238668918609619 -1.7882184982299805 3.580712080001831
-0.8855881690979004 0.9010363221168518 3.565199613571167
-0.5363388061523438 -1.7654848098754883 3.5603365898132324
0.33800581097602844 1.7550004720687866 3.9632039070129395
0.8395727276802063 1.251574158668518 3.5132644176483154
-0.7800272107124329 -1.3471662998199463 3.4836134910583496
-1.0136663913726807 -0.020562902092933655 3.3424055576324463
-0.8821234107017517 0.2709178030490875 3.461515188217163
-0.6061632037162781 -1.7455650568008423 3.6021928787231445
-0.15818816423416138 -0.6340277194976807 4.18969202041626
1.2038171291351318 1.4045377969741821 3.207399845123291
-0.8997078537940979 -0.5308344960212708 3.446589708328247
-0.41930776834487915 -1.772650122642517 3.6831631660461426
1.1537871360778809 1.3959566354751587 3.2231667041778564
0.7038787007331848 1.485762119293213 3.609997272491455
1.4079197645187378 0.32422417402267456 3.939922571182251
-0.3112921118736267 -1.5878312587738037 4.046341896057129
-0.33397674560546875 -1.537420392036438 3.9324817657470703
1.0008381605148315 1.2216007709503174 3.3467469215393066
0.7714045643806458 0.539836585521698 3.6814334392547607
-0.3198746144771576 -1.577286958694458 3.998905658721924
-0.6012220978736877 0.6995182633399963 3.8905816078186035
0.949422299861908 -0.7698160409927368 3.481595754623413
-1.0177502632141113 -0.029115695506334305 3.347444772720337
0.9855418801307678 -1.0573397874832153 3.4104745388031006
-0.40776756405830383 0.8078304529190063 3.9902446269989014
-0.5492665767669678 0.6780837178230286 3.8318026065826416
-0.9214994311332703 -0.394133985042572 3.4541513919830322
1.095984935760498 -0.8196462392807007 3.612856149673462
0.2964739501476288 1.1308541297912598 3.943665027618408
-0.004053405951708555 1.560994267463684 4.253513336181641
-0.5180577635765076 -1.6804304122924805 3.6912941932678223
-0.22563093900680542 0.3693821132183075 4.222945213317871
-0.9677677154541016 -0.027393558993935585 3.4685463905334473
-0.279188871383667 -0.7740497589111328 4.0561113357543945
-0.28872716426849365 0.4910232424736023 4.183446407318115
-0.940947949886322 -0.7250062227249146 3.500868320465088
-0.5441178679466248 0.6625142097473145 3.7642557621002197
-0.9046823978424072 -0.05391700193285942 3.502934694290161
-0.5519039630889893 1.1462451219558716 3.9611048698425293
1.2735084295272827 -0.6187407970428467 3.3205583095550537
-0.637479305267334 -1.394889235496521 3.695394277572632
-0.3524540662765503 -0.28210827708244324 4.077571392059326
-0.5206500291824341 0.21636033058166504 3.908621072769165
-0.4242754876613617 -0.27744442224502563 3.907306671142578
-1.3299757242202759 0.5972119569778442 4.882200717926025
-1.003111720085144 -0.48309364914894104 3.318580150604248
-0.8283059000968933 1.3376507759094238 3.5799331665039062
-0.4547777473926544 -0.06828776746988297 3.933094024658203
1.3457821607589722 -0.17501726746559143 4.023773670196533
0.16350694000720978 -1.5427911281585693 4.157834529876709
-0.9046751856803894 -0.053923893719911575 3.5029304027557373
0.04627614840865135 0.6860611438751221 4.091649055480957
-0.4154267907142639 0.6503642797470093 3.9498233795166016
-1.0021790266036987 -0.8677676320075989 3.3858683109283447
-0.6126654744148254 -1.0534590482711792 3.6644954681396484
-0.9932037591934204 0.44495025277137756 3.5184214115142822
0.8476560115814209 0.5058336853981018 3.622278928756714
0.494990736246109 1.159084439277649 3.7742044925689697
-0.7090064883232117 1.1917545795440674 3.818157911300659
-0.28476664423942566 0.4609057605266571 4.192729949951172
-0.1550886482000351 0.6221635937690735 4.224796295166016
-0.7741626501083374 -0.062490954995155334 3.6799535751342773
0.40428683161735535 -1.6375335454940796 3.7691593170166016
0.4623611569404602 0.982918381690979 3.776397228240967
-0.45413118600845337 0.5036908388137817 4.000155448913574
1.170237421989441 -1.1130808591842651 3.2763924598693848
1.1319454908370972 -1.193708062171936 3.341700553894043
-0.45358479022979736 0.5194568037986755 4.0241875648498535
-0.7107245922088623 0.690693736076355 3.7276358604431152
-0.5714529156684875 0.3753850758075714 3.8347036838531494
-0.17929847538471222 -1.4197731018066406 4.124828815460205
0.763069212436676 1.1461851596832275 3.56474232673645
0.702299177646637 1.174464225769043 3.6071267127990723
-0.975320041179657 -1.1729050874710083 3.285127878189087
-0.5445270538330078 0.36959248781204224 3.8434767723083496
0.7771282196044922 0.46828967332839966 3.6743733882904053
-0.5160838961601257 0.20515523850917816 3.7450404167175293
-0.9332655668258667 0.9465932846069336 3.546961784362793
0.948695957660675 0.8705896735191345 3.3806753158569336
-0.6255545020103455 0.8219340443611145 3.653834581375122
0.805230438709259 1.2377647161483765 3.5015344619750977
0.9783550500869751 0.5569487810134888 3.5186047554016113
0.7095646858215332 1.1517404317855835 3.597966432571411
-0.32098621129989624 -0.801247775554657 4.045281410217285
-0.1299688071012497 1.3746650218963623 4.306910991668701
-0.5854014158248901 -0.24602115154266357 3.797950029373169
-0.9887537360191345 -0.25731736421585083 3.3346686363220215
0.6120887994766235 1.164550542831421 3.671189308166504
-0.934502124786377 -0.035253170877695084 3.4165899753570557
1.041651964187622 0.3679240345954895 3.8661386966705322
-0.4528166651725769 -0.27185705304145813 3.9113521575927734
1.3826450109481812 -0.27669548988342285 4.04626989364624
-0.492236465215683 0.3570813834667206 3.9150068759918213
1.2096277475357056 0.6093026995658875 3.3512513637542725
-0.9649598598480225 -0.22180597484111786 3.3879826068878174
1.0333750247955322 -0.8740220665931702 3.4013636112213135
0.936524510383606 0.4574844539165497 3.649705410003662
0.8311508893966675 1.2161928415298462 3.5439484119415283
-0.9294108748435974 1.2295527458190918 3.5848662853240967
0.4914052486419678 1.3007105588912964 3.7835946083068848
1.2060688734054565 -0.750336229801178 3.2564496994018555
-0.8845192193984985 1.1980719566345215 3.5352654457092285
-0.9340525269508362 1.2275221347808838 3.5952513217926025
0.8356983661651611 1.2550334930419922 3.6194329261779785
0.9292331337928772 1.1919994354248047 3.411684513092041
-0.8797565698623657 0.4282112717628479 3.5428459644317627
0.9738238453865051 1.2192156314849854 3.3881289958953857
-0.5902712345123291 0.19213469326496124 3.7964608669281006
-0.8613797426223755 0.43320372700691223 3.548884391784668
1.3779348134994507 -0.2441731095314026 4.1414475440979
-0.5162579417228699 -1.8113747835159302 3.5746188163757324
-0.5112243890762329 -1.7924692630767822 3.620306968688965
-0.8266397714614868 1.1623692512512207 3.5098578929901123
-0.6161796450614929 -1.7844468355178833 3.6105780601501465
0.7590039968490601 1.1700940132141113 3.5423974990844727
-0.33565646409988403 -1.9268717765808105 3.886827230453491
-0.8560283184051514 1.1946485042572021 3.6257283687591553
1.3779325485229492 -0.24417376518249512 4.141436576843262
1.1875007152557373 -0.7189974784851074 3.349705696105957
-0.8491063117980957 1.3460136651992798 3.5803065299987793
-0.8560237288475037 1.1946308612823486 3.6257002353668213
-0.8894723057746887 1.365509271621704 3.603943347930908
0.9110189080238342 0.4378041923046112 3.7151970863342285
0.9466085433959961 -1.6411733627319336 3.3558969497680664
0.7653920650482178 1.15018630027771 3.5215201377868652
-0.7644734382629395 -0.5568234324455261 3.5782318115234375
0.8242121338844299 1.3458583354949951 3.512342929840088
0.902283251285553 -1.6326735019683838 3.3849892616271973
0.8432958126068115 1.371540904045105 3.5417072772979736
-0.416613906621933 0.19785699248313904 3.9745497703552246
0.9446200728416443 -1.5887575149536133 3.3502907752990723
-1.0716840028762817 1.0910700559616089 3.4042742252349854
-0.6920306086540222 1.4730266332626343 3.761676549911499
-0.97931969165802 -0.8669161200523376 3.378868341445923
1.450936198234558 -0.19392287731170654 4.133538246154785
-0.5276302099227905 0.5167617797851562 3.849773406982422
0.727907657623291 0.4946250021457672 3.7191145420074463
-0.7342212796211243 0.40112224221229553 3.6651713848114014
1.1355078220367432 -0.8930097818374634 3.431875467300415
-0.9682542085647583 -1.4770110845565796 3.210341691970825
-0.247461199760437 -1.7765402793884277 3.88627290725708
-0.7185471057891846 0.3847748935222626 3.688480854034424
-0.33303359150886536 -1.7560538053512573 3.895185947418213
1.3578869104385376 -0.1567969173192978 4.092660903930664
-0.4479908049106598 -0.29590508341789246 3.8597359657287598
-0.988720178604126 -0.25730758905410767 3.3346173763275146
-0.33303365111351013 -1.7560601234436035 3.895195484161377
1.0304172039031982 0.37072208523750305 3.747481107711792
1.153786540031433 1.3959553241729736 3.223165273666382
1.011765480041504 0.3654894232749939 3.7646608352661133
-0.8739057183265686 1.0600507259368896 3.636183023452759
-0.8691648840904236 1.055917501449585 3.6271064281463623
1.4494223594665527 -0.314793199300766 4.096107482910156
-0.5714987516403198 0.37539297342300415 3.8348116874694824
0.33554625511169434 1.7572805881500244 3.987133502960205
1.234829068183899 0.49613869190216064 3.4981253147125244
1.3884226083755493 0.10200115293264389 4.052711009979248
-0.5948485136032104 -0.09615004807710648 3.7942495346069336
0.9401324987411499 -0.668571412563324 3.6228206157684326
1.3654563426971436 0.14972969889640808 4.0843939781188965
-0.43725520372390747 -0.11081188172101974 3.944427013397217
0.8209640383720398 1.6756582260131836 3.5689918994903564
-0.4742002785205841 -1.5835750102996826 3.7700116634368896
-0.7548441290855408 -0.07135215401649475 3.639899730682373
-0.4758397936820984 0.3587140738964081 3.994563102722168
-0.4814484417438507 0.3622034788131714 4.010183334350586
-0.7053212523460388 0.5574996471405029 3.700570583343506
-0.7266290187835693 0.5542662143707275 3.7045366764068604
-0.9046845436096191 -0.05392403155565262 3.502946615219116
-0.710601806640625 0.548860490322113 3.629314422607422
-1.2206372022628784 0.2961602807044983 3.395338773727417
-0.7570261359214783 -0.05924985930323601 3.598942518234253
-0.9740101099014282 -1.3133054971694946 3.257718086242676
-0.7744930982589722 -0.05968517065048218 3.6823246479034424
-0.5625278949737549 0.5070528388023376 3.8648266792297363
-0.7568941712379456 -0.05938775837421417 3.598323345184326
1.365699291229248 -0.4160209000110626 4.055302619934082
0.8384238481521606 -0.6153692007064819 3.5448808670043945
1.0437469482421875 -1.010364055633545 3.3927149772644043
-0.8883786201477051 -0.049841322004795074 3.4408113956451416
-0.9046821594238281 -0.05391700193285942 3.502934217453003
-0.8523783683776855 0.572018027305603 3.523350477218628
0.9657580852508545 -0.6241772770881653 3.6646342277526855
-1.2289745807647705 -0.03492582589387894 3.3691751956939697
-0.4391784965991974 0.3324805200099945 3.971153974533081
-0.31984636187553406 -1.5772498846054077 3.9988179206848145
-0.9783769845962524 -0.038305677473545074 3.4448788166046143
-0.9684985876083374 -0.026963578537106514 3.4713141918182373
-0.32013607025146484 -1.5785003900527954 4.002123832702637
-0.31129190325737 -1.5878303050994873 4.0463409423828125
-0.8790024518966675 0.893774151802063 3.5933117866516113
-0.433123916387558 0.67910236120224 4.119822025299072
-0.433141827583313 0.679105818271637 4.1199469566345215
-0.9704312086105347 -0.542854368686676 3.340745687484741
-1.25063955783844 -0.5389338135719299 3.318214178085327
-0.8640961647033691 0.8726512789726257 3.599111795425415
-0.7645041346549988 -0.5568330883979797 3.5782887935638428
-0.9588509202003479 -0.5364135503768921 3.3600516319274902
1.3638911247253418 0.14782913029193878 4.077333450317383
-0.46544507145881653 -0.5955439209938049 3.8814706802368164
1.0348676443099976 -1.0594372749328613 3.392338752746582
-0.9400429725646973 0.6031023859977722 3.506690502166748
1.0792491436004639 -1.0524859428405762 3.344669818878174
-0.544118344783783 0.6625146865844727 3.764258623123169
-0.16830457746982574 0.7421656847000122 4.295359134674072
1.165096640586853 -1.0469456911087036 3.276630401611328
0.5151380300521851 0.8251312971115112 3.7578868865966797
0.49258050322532654 0.8080347776412964 3.7478842735290527
0.3690210282802582 0.7867934107780457 3.790693759918213
-0.4250876307487488 0.21222347021102905 3.942697286605835
-0.7130106091499329 0.6892483830451965 3.740363836288452
-0.9644238352775574 -1.1855387687683105 3.304643392562866
-0.44173985719680786 0.21847642958164215 3.990398406982422
-0.7435269951820374 0.2644979953765869 3.659036636352539
1.3077722787857056 -0.4626433849334717 3.9147167205810547
1.294954538345337 -0.4816499650478363 3.9957408905029297
-0.726566731929779 0.24574162065982819 3.621356725692749
1.513725757598877 0.07945464551448822 4.048261642456055
-0.8845702409744263 0.7420061826705933 3.576155185699463
-0.5815961956977844 0.5299249291419983 3.879686117172241
-0.9298326373100281 0.0986500233411789 3.43466854095459
-0.8567100763320923 0.8872542381286621 3.6121199131011963
