ply
format ascii 1.0
element vertex 697
property float x
property float y
property float z
property uchar red
property uchar green
property uchar blue
end_header
1.402407177548013 -0.3394365201729123 2.8930283703926962 49 49 49
0.8320371895746037 -0.162046834299354 3.209721168055925 142 142 142
0.8174107625996668 -0.19458868524413322 3.2092925845488165 33 33 33
0.7015667054799305 -0.04657028090956318 3.274625679578106 106 106 106
1.3909746408800014 -0.13522763757963788 2.91091338856663 161 161 161
0.110626114422764 -0.06049651494632355 3.49415160707479 221 221 221
0.6036805105096891 -0.03725795121693234 3.2509540363778346 112 112 112
1.333298802402415 -0.31685855731342144 2.8661718056722174 75 75 75
0.5879256654581843 -0.30877356101751985 3.2035312830607485 157 157 157
2.7485684803255923 0.08852037927542417 2.234130563320372 121 121 121
0.8761167730462847 0.08450433925543602 3.011428469029242 121 121 121
2.652785669840965 0.08173694886559675 2.2761617124607567 121 121 121
0.5631086161153707 0.5713744971316983 3.2637422440123376 156 156 156
1.8672148085285372 0.05137865625983275 2.6234799479498196 121 121 121
1.5613566169773851 0.051018168748746984 2.7599460268822993 121 121 121
1.1975401527056955 0.062607816993527 2.9233104106699574 121 121 121
-0.3158004661636156 0.3077411395390022 3.6064454283532608 17 17 17
0.47644750923370877 0.22183814164439444 3.258948150183637 121 121 121
0.5644520083714515 0.270365513198474 3.220029033866535 121 121 121
0.5428282818390426 0.5631646842790218 3.2315761763906234 147 147 147
1.5756808179036057 0.03543166781070624 2.6841089238553657 52 52 52
0.4132417450246144 0.0030404193792977372 3.118615403052114 40 40 40
0.3746919169736522 0.33768667040855666 3.155013765565806 35 35 35
0.41420630478472925 0.4480240455313054 3.1343207763353895 146 146 146
0.39449399806509766 0.0858815355193113 3.1031820878316108 125 125 125
0.3156414430034683 0.30181351938773354 3.093321676210631 129 129 129
0.2937911993248743 0.4146723166953073 3.071434410986176 54 54 54
0.25578104111848526 0.21094961133499596 3.050397611108771 31 31 31
0.3006579347361616 0.4400182198784663 3.056614950817992 121 121 121
0.2023231309636966 0.1376528003331335 3.05396218261153 65 65 65
1.804024709849372 0.1774570428544227 2.34262104528208 145 145 145
0.263679144615061 0.5740338016518728 3.0744577397281314 78 78 78
0.1776156257670048 0.2718187904103561 3.053193067556085 32 32 32
0.19001685132610835 0.257416662969514 3.044983680591319 32 32 32
0.1756347283839937 0.27294331107581177 3.0380886743504933 155 155 155
0.17179340536876675 0.11359908926190011 2.9910259585161434 79 79 79
0.7594679235837601 -0.04711409868049672 2.8002223932684385 170 170 170
0.19261171704611604 0.48191640456047297 3.0208078366242535 52 52 52
0.8060360108859735 -0.03860420341159782 2.7841546042516696 170 170 170
0.16380626778491145 0.5163666706527776 3.0064048249358803 111 111 111
1.7514982061406343 0.042508206499315415 2.508703239965754 163 163 163
0.8138019654505252 -0.11931826309269994 2.740120531158775 93 93 93
0.8038753219570244 -0.13394242830930525 2.733171237912187 85 85 85
0.787369879351868 -0.06428979918174457 2.732048659444443 101 101 101
0.7706992506420972 -0.09904368623770066 2.7047096823357166 94 94 94
0.7706992482990985 -0.0990436865266728 2.704709683474513 94 94 94
0.7698780079400814 -0.24788322234804078 2.679027833442157 21 21 21
0.8188461347276141 -0.27134593942957014 2.639716777389021 89 89 89
0.7669515740985351 -0.13725055849034998 2.6646544824832508 105 105 105
0.7534403819611925 -0.11396479743976695 2.6686415711361864 114 114 114
0.7370648223875682 -0.06946577172483547 2.6755781448942604 67 67 67
0.8288741443076834 -0.2860548639839162 2.628157903428028 149 149 149
0.7937145501235494 -0.273093494260519 2.622437993241307 38 38 38
0.7548261234931997 -0.2804838221281874 2.5986253723049844 30 30 30
0.22994962697669333 -0.3263427644815628 2.51379229607122 211 211 211
-0.20992010508448453 -0.3097904023733136 2.708939151064424 49 49 49
0.45123318301027393 -0.19253384764419765 2.495717670243965 49 49 49
0.46261736568509815 -0.1344252769640297 2.480961248222724 143 143 143
-0.4396757720318401 -0.38284242930871 2.6595173462593484 56 56 56
0.45236976176648364 -0.1995226994174862 2.451933313529075 56 56 56
0.42651568198726664 -0.1689720219922083 2.444164975535205 59 59 59
0.5048420536171232 -0.24257785863803172 2.397846693634053 157 157 157
0.03709353283432984 0.5406655237465101 2.458068214034587 39 39 39
0.32776386305320476 -0.1445034096817676 2.3521671593119002 34 34 34
0.07918773461367766 0.4823034036801565 2.4255169878512333 33 33 33
1.8631086148704157 -0.17783311311958602 2.2296679562788633 166 166 166
1.922449450782327 -0.031107370240986962 2.2479939620903484 166 166 166
0.01655483980664444 0.2606962545150515 2.311457816734379 175 175 175
0.0165548341029213 0.26069625501359517 2.3114578172225855 175 175 175
0.028929857028330605 0.3422587312556644 2.313552432700528 30 30 30
0.25148889507771816 -0.15276940160858893 2.215104649728804 135 135 135
2.0844884189532045 0.1562898201836888 2.230476139628225 24 24 24
-4.305160281243969 1.4301525444692293 2.3587680425081876 176 176 176
0.2383788232620027 -0.11758457904943585 2.197202710305662 36 36 36
0.10888705755911768 0.02923201039809981 2.175527530207801 42 42 42
-0.7328337656254157 0.7051857178462163 2.2240339806343132 176 176 176
0.1034707121433653 0.03877617190369908 2.1678602754681235 45 45 45
0.024786829412775477 0.1374058243611311 2.1390790315260513 26 26 26
0.07444220499972207 0.010073949134697946 2.1261544518807916 159 159 159
2.1068637375821244 0.07393538574451348 2.1933189698625735 212 212 212
0.057721446815825916 0.011482783320760226 2.1073355857301226 168 168 168
0.9124176715871816 -0.25125803560052823 2.104371381705624 60 60 60
0.033875843915811006 0.010591927428322639 2.0755919883838385 173 173 173
1.4946241853080526 0.1919117600871278 2.1007784744810354 234 234 234
0.01861469255013639 0.019294952540687076 2.052014993584183 54 54 54
0.002025212639184336 0.11832211950859527 2.0504170896022704 105 105 105
0.8416052141417573 -0.2657539805296808 2.0384250562657162 36 36 36
0.5419497873088912 -0.11701385944837776 2.0329981271087263 193 193 193
0.53855586588232 -0.04788282872930364 2.035943541566359 220 220 220
0.4899163819777624 -0.09413682569700453 1.98587130339706 202 202 202
0.5488207564528634 -0.16996254201223268 1.974487671859247 184 184 184
0.5488207462422328 -0.16996254351303192 1.9744876720879767 184 184 184
1.2970337994810965 0.2941301111735818 2.0369691604321267 176 176 176
1.2990148354180402 0.1874046654921659 2.416983785092145 105 105 105
1.1943338838626574 0.034436195192903675 2.1458637785830987 196 196 196
1.0448622873430957 0.15767969945535265 2.216965764393943 115 115 115
0.8950281950904024 -0.1383711177566889 2.1915768056993397 240 240 240
0.9888266174237315 -0.016706105939148425 4.23044714922063 34 34 34
0.6613058997514873 -0.3003165912091399 2.2128801864022627 140 140 140
0.7898426977620436 0.4205399391707636 2.5589844579222216 150 150 150
0.1150408880768173 -0.8675435222585305 4.123420146537229 165 165 165
-3.5210160803311097 -2.657185171908626 6.987086288628719 29 29 29
-3.132539392525128 -0.007823045142147395 7.845113204519231 88 88 88
-1.941175257466381 -0.9828736446007805 4.4241426064666225 53 53 53
-2.2912120930320237 -1.2316126524932673 4.75350587900861 122 122 122
1.5051685783499187 -0.10453101860803506 2.576006528798671 48 48 48
0.4616159777436379 -0.363100596400057 4.831367076201836 250 250 250
0.9462075707366278 -0.002968838200745805 2.058269119963415 219 219 219
-3.7133284765382903 -1.686884443271878 7.559202162443876 78 78 78
-4.496655006412972 -2.67491340631988 7.548835119448642 240 240 240
1.282109260867949 0.17430473476823452 1.156975222795964 128 128 128
1.0846937633103193 -0.46472423191290396 3.48811603826148 42 42 42
1.0729514433297642 -0.6552370367207868 3.357073406240963 111 111 111
1.344911930538035 0.06084080479954935 2.0809131845253703 212 212 212
1.1555816493573876 0.008401632426368677 2.508697592627923 71 71 71
1.189862948056324 0.1521884043036185 2.1040882154497993 59 59 59
1.0763802735477128 0.18065246988589506 2.2127559596880144 122 122 122
1.0277165100282533 0.1940348770088395 2.282404914188943 108 108 108
1.0103660258082332 -0.17009365189767767 2.4025439777284134 59 59 59
-0.059463753944302936 -0.5682146194974993 4.4828585450644916 135 135 135
0.9529622883015832 -0.48595762456920827 2.469761976628184 139 139 139
0.9690030038844302 -0.14605282426267016 2.276339049507428 206 206 206
-0.2971771278559624 0.17226792187745738 4.345388010361388 137 137 137
1.0327890158477402 0.11595121489650573 2.053998173537228 130 130 130
0.9863088865024395 0.11142489548027816 2.0575799798759187 145 145 145
0.24219343378021338 -0.48741737063592105 2.601836650662633 250 250 250
-0.20560747535157847 0.23484781804114238 2.022268804141917 27 27 27
1.6613367333932736 0.07702392337217072 2.2876845909064585 150 150 150
0.5356149901393115 -0.4941538493135096 3.403487452101453 69 69 69
1.7797964396115962 0.08867783402858521 2.1996464680019856 14 14 14
1.8353330120532216 0.129950533913235 2.180858650093445 123 123 123
1.7259434073502105 0.09950569866695537 2.2305406917366626 115 115 115
1.7633958299720986 0.16861903477529577 2.113325438920755 40 40 40
1.6255749785556348 0.1887996856089976 2.1390878939263613 70 70 70
1.6523458246481133 0.12317100913630377 2.1326796424110688 26 26 26
1.5663035748569836 0.1393139327873157 2.122909387330225 16 16 16
1.6538836727799877 0.20446854731025899 2.137928560633557 38 38 38
-2.9387364963019618 -0.633573887836723 3.7247873985397675 111 111 111
2.3546439898616485 0.2622341803924293 1.7094309430108816 122 122 122
-0.29244467856897616 -0.011545127765464092 3.063577749673145 137 137 137
1.6723452957979428 0.07512233190516893 2.2391948528483874 125 125 125
0.3295488634831949 -0.25969026528403744 2.365473682599294 140 140 140
1.6922423107829847 0.15203866922130013 2.2302435832950547 139 139 139
0.6788256482202644 -0.16166666098019686 3.112054540764493 117 117 117
1.4626910431612667 0.04123526779856935 2.362122673908018 117 117 117
1.4510579260007004 0.04470191769281897 2.3616532133436694 105 105 105
1.2682684381558356 0.17243703674497657 2.4670283548616636 45 45 45
-1.022615255786925 -0.8361396815230069 4.602666408750839 142 142 142
0.7542001862326326 0.6780404406980275 2.5222085914513963 57 57 57
1.2510085555955333 0.00011376655096282263 2.3048457409965555 32 32 32
1.1843530441898902 -0.04156719412062405 2.2875032422834667 137 137 137
-0.2555933960249392 0.23928687675096103 3.202740493120421 45 45 45
-0.35349545587731257 -0.3515504156541465 2.80642930664482 37 37 37
1.1687976702774485 -0.025986171475406585 2.2622611004230015 47 47 47
0.21746234260618025 -0.17142785013177578 2.6080580674172817 43 43 43
1.172561573396253 0.0018527729855753955 2.2479186692225306 34 34 34
-0.8494268330409962 -0.2004581261635917 4.016246454560886 231 231 231
1.1197374944832752 0.013553659986140875 2.1930112545973204 29 29 29
1.1037858516282106 0.22314487472278235 2.1811992456401272 21 21 21
1.1051546732430717 0.02017400808881496 2.1719530547614747 25 25 25
1.0881092362953908 0.0009195447590902546 2.1673814235370794 34 34 34
1.0730107229578032 -0.029436268724058575 2.1681088566698685 187 187 187
1.0876790782206802 0.12973447607037053 2.1404935411228525 30 30 30
1.049160812637285 0.1147233386542266 2.098777504928164 136 136 136
1.0384704391042372 0.01962018769170767 2.090380987465782 31 31 31
-2.1251104985649856 -0.20029848268730885 3.5110592393997178 55 55 55
0.9903931853213293 -0.09386057998552307 2.083822787730703 50 50 50
0.9882828549777851 -0.15140756768665203 2.080713005850402 55 55 55
-9.5483813899881 -1.8715905108608668 11.895117999372568 83 83 83
0.35008869868407444 -0.10719025611173852 3.985541528506187 210 210 210
1.7790443716433888 0.001977736496407325 2.9092309389000763 139 139 139
0.5284990865522254 -0.2543314214456892 3.639820144074733 173 173 173
0.5291712348561742 -0.19561133774531508 3.6363226985994133 90 90 90
0.5323369478707257 -0.27249043523510574 3.620025381131735 209 209 209
-0.13534469008222705 -0.12237617347788493 4.051314368522121 226 226 226
0.45359878844786583 -0.23825398548190485 3.5985764081715352 40 40 40
1.5060490415941654 -0.03917240816426862 2.978379720217714 226 226 226
0.16247865673086823 -0.17452302359727404 3.7577870837655913 128 128 128
0.2643281963630593 -0.18000343229551716 3.5510326179173894 149 149 149
0.26781353171009614 -0.25798258436843696 3.5323437267495232 142 142 142
0.267813495623399 -0.25798258941910485 3.532343744599556 142 142 142
-0.4650119626088073 0.32868278868672984 3.687173821059261 117 117 117
0.010039951884787833 0.8584311662679612 3.523608086732214 139 139 139
-4.090847753253026 1.7624390058841515 5.792551229771009 139 139 139
-1.1166186598545094 -0.012918246918058079 3.7104266699095025 19 19 19
-0.18774357876340497 -0.007587881372478153 3.3420833914947403 42 42 42
-1.2006821132762948 -0.01649340700288042 3.731482078204094 120 120 120
-0.8556344092932329 -0.027444937361895242 3.5616384398568726 112 112 112
-1.7391633452950908 0.7987103669383814 3.8576587885389477 21 21 21
-0.8302759522562017 -0.024314110900972984 3.384918547903613 22 22 22
-1.462609198289044 0.2170477179845976 3.6274204492198243 28 28 28
-1.4718273228729017 0.22288862685085406 3.5596635730679216 30 30 30
-1.2550235747761858 0.0852584960080559 3.4384180782287395 128 128 128
-3.4039755758267995 1.7854221043322174 4.2364265362749824 73 73 73
-3.878603133841522 1.8183261854077313 4.315103024142237 154 154 154
0.642278188095267 -0.1669652859436674 2.7656628276062905 131 131 131
0.6335236524942385 -0.18401570786866564 2.731070898418631 127 127 127
-2.6235852283373386 0.8144181820206484 3.539377588747539 108 108 108
0.5804018750520175 -0.07433602637632726 2.6852766912875508 132 132 132
-1.9166349170454857 0.69884834605202 3.1468337789338734 109 109 109
-1.4126555573786508 0.4901697624995245 2.9813026470099806 109 109 109
-0.16738083758078526 -0.7351959508767821 2.700118897601805 72 72 72
0.25814992082914917 -0.242668671825229 2.515225433982401 112 112 112
0.24962199205047636 -0.23199418674680758 2.495583193912115 46 46 46
-0.7344726048015793 -0.3125756911281341 2.625431568222488 46 46 46
1.6083362198436812 0.09344210150978387 2.285750911146581 56 56 56
-0.8846745708056523 -0.4635082595638338 2.6575252611307665 158 158 158
1.3682598058179267 -0.2826860944070821 2.317668614345946 42 42 42
-0.15539447071266163 -0.15895959451254002 2.276753944589166 135 135 135
1.2427481034088896 0.20927419945561065 2.3159421539898326 49 49 49
-1.2944099231940265 0.030184172409983792 2.380502198179545 114 114 114
1.6814744994405857 0.1579677830654417 2.2768090459876484 39 39 39
0.09589488417847057 -0.19605229624393383 2.2862942354688034 141 141 141
1.638223561889274 0.032914755584926986 2.372876563134146 161 161 161
0.008632268598741142 -0.16997436685715936 2.2788116569863224 18 18 18
0.058528465156843304 -0.1939315606742359 2.273435095568119 35 35 35
1.614091011513306 0.03378582342590515 2.32300690177179 53 53 53
0.08758213048586405 -0.19114862730613508 2.2560491555135096 36 36 36
1.583995353488579 0.25588374127379515 2.3225255764670956 23 23 23
0.1094350953072442 -0.17862147668574085 2.1875830828973624 30 30 30
-1.2593676963409073 -0.2274421605160671 2.1654144459124534 203 203 203
1.631482221703632 0.06632894914908387 2.28396967721806 83 83 83
-0.835229814769352 0.08694872451677009 2.114134945074406 137 137 137
-0.9423940367118351 0.44592883516843834 2.217743277016643 34 34 34
-0.6555495601285662 0.10896313682198686 2.059234980082037 50 50 50
-0.08178229654883129 0.046820987520156634 2.0085256971222116 147 147 147
1.8819494369281495 0.11833588969621922 2.1918976162414823 126 126 126
0.8957252562702684 -0.08366503772993414 2.071187140641593 185 185 185
1.9402826519385121 0.1389391843334939 2.1488258799495563 15 15 15
-0.3079027600637593 -0.30000722111120365 4.795897371096676 53 53 53
-1.1558057680607827 -0.8174628498227099 5.640821169076172 63 63 63
-0.4679843328536627 -0.36430030483908366 4.777767926014882 239 239 239
-1.1807403659923108 -0.12502247342235942 5.387434832687717 67 67 67
-0.9716128991384368 -0.9534789421682747 5.195519965454401 160 160 160
-0.9716125436771559 -0.9534788167149859 5.1955196141880045 160 160 160
-0.7522311499007657 -0.4169984941194352 4.982840248226884 197 197 197
-0.7611496892331517 -0.3487550193325822 4.955942533804793 116 116 116
-0.830291901659166 -0.035645225239923736 4.9633272799109935 188 188 188
-0.752263820253294 -0.37256217769181976 4.88206144234913 226 226 226
1.265647352848509 -0.03971432349199057 3.002686581643517 226 226 226
-0.8487899443829627 -0.11823722483753504 4.929181743686417 55 55 55
-0.741161906165157 -0.37036165143452837 4.869991775629628 226 226 226
-0.7041712110783943 -0.38498536725234833 4.8041809821636665 122 122 122
-0.6243614435240694 -0.8382063298889075 4.639886502207276 105 105 105
-0.7659490262809809 -0.8969233797800147 4.772834124691616 108 108 108
1.2914833092179387 0.09230392906631675 2.9256318685007328 202 202 202
-0.35362192718022945 0.004224760423595439 4.257747816782603 202 202 202
-0.6433769522833562 -0.6469833532775424 4.404309528611496 29 29 29
-0.5602153178548208 -0.26712502797057697 4.3212381949060035 230 230 230
0.6708770109747808 -0.5156924085550748 3.3303537423290015 194 194 194
-0.4297273683901521 -0.33048443556490015 4.174675544443767 151 151 151
0.08645414373606534 -0.15353170693964904 3.871633442906649 12 12 12
-0.23308307449782084 -0.2564288153159112 3.8997024745508115 47 47 47
-0.4185618351117705 -0.45354173932850744 3.967607772082647 21 21 21
-0.13390959018177107 -0.24960883804867195 3.7672033253033255 66 66 66
1.633736269212632 0.032902554415704034 2.3809101240470385 126 126 126
0.40895396557264935 0.6864680034712202 3.377169811102533 146 146 146
0.13497125100502966 0.8433478492238121 3.5953290870173324 146 146 146
-0.09207428875987785 0.9949899608941762 3.778041860478936 146 146 146
1.3280145142649211 0.30021587021152324 2.6526442660408116 146 146 146
1.9651906029409232 0.17389920683292107 2.130392151506201 146 146 146
-0.10277904683893196 0.0034150823916089114 3.4466814714944065 42 42 42
1.9420294631409627 0.1676763594847353 2.1373724657101967 4 4 4
1.4101858990568321 0.11002334433568228 2.426253234821808 27 27 27
0.6497614844920004 -0.3038922458040113 2.8708100059236568 97 97 97
0.6771973351632212 -0.3080034562043954 2.842667841288245 18 18 18
0.695442296897587 -0.2796670207504522 2.8151463778296395 24 24 24
-0.019325658095485785 -0.7209340725368159 3.760850276964525 139 139 139
1.5593045405789498 -0.18539806699347688 2.326394510140383 139 139 139
-0.031808488932720966 -0.7268582504977321 3.7689826859142985 139 139 139
0.7177470687785256 -0.28128080944551886 2.77321532840193 13 13 13
1.5105497674164314 0.1277299350333543 2.3400287631245877 116 116 116
1.4636780629432287 0.126278920535122 2.346707811390647 79 79 79
1.463678039952453 0.12627891970569274 2.3467078224826046 79 79 79
-0.8729070432230231 -1.057738742280737 3.7821117780661693 22 22 22
1.3365861533319332 0.09068842529662552 2.402115469457904 22 22 22
0.9617486491632953 -0.026855861133191 2.6063428164351303 64 64 64
0.9087697598192209 -0.06879637209980295 2.630654730878479 117 117 117
1.3888374946190116 0.10984788826232986 2.3725143125723225 107 107 107
1.52126738568702 0.1417384859641742 2.311818451327768 60 60 60
1.6526990945602351 0.18570675357324407 2.252526711454728 55 55 55
1.635058924117883 0.2032485604950339 2.261481192733042 13 13 13
1.4717211975017275 0.13863577158931953 2.3225048220203153 128 128 128
1.5473616469523925 0.2319115419843194 2.296638986908539 28 28 28
0.7642677226666755 -0.22662144032430898 2.65915303960541 21 21 21
0.8521668434435172 -0.10544909077999652 2.6242151088009527 53 53 53
0.9174760835054017 -0.04312582599826286 2.5826717063624365 117 117 117
0.9314040256731007 -0.027215274681107935 2.5740834107367196 79 79 79
0.8465335996351104 -0.12102262580139286 2.6029905697578566 25 25 25
0.7372625512732989 -0.26498122641335226 2.640356024560263 127 127 127
0.8040376187165731 -0.11700285359034295 2.529656662687583 21 21 21
0.9118233556590003 -0.3780372163512585 2.974972453536216 24 24 24
1.1279044464584769 0.27092271110284033 2.3341048328178684 109 109 109
0.8134070624529348 -0.06822311748726839 2.40068245851659 171 171 171
0.7455845363545331 -0.12063900466970626 2.382565365095792 46 46 46
0.7483515803035713 -0.06294318066855127 2.3387331076034865 193 193 193
0.8782325334033884 0.3640542945688561 2.3256119163690783 119 119 119
0.878232561523378 0.3640542895769716 2.3256119098395898 119 119 119
0.7073592399077138 -0.09388491601394133 2.2968781400619656 156 156 156
0.6988680383733894 -0.13274880050568488 2.296132845897896 49 49 49
-0.6833759459551847 0.4361253558650527 2.601552974387565 185 185 185
0.712352119800154 -0.06474791072892115 2.2745487035719982 45 45 45
0.7060136748554677 -0.07626689356813579 2.274355143520263 144 144 144
-1.9275492921448356 0.7947247890370227 2.9868708329713822 143 143 143
0.7559052318765562 0.0107436815872326 2.2400097376957016 44 44 44
0.8072206195420679 0.2179105191004807 2.2435686038383684 84 84 84
0.8036949594322206 0.12260488273512173 2.2371653034484225 62 62 62
0.7290776516528329 -0.025204739844242752 2.2330890913436874 25 25 25
0.6882981048314326 -0.07898721523331806 2.239010659085191 131 131 131
0.7691631707059982 0.08216496558724184 2.230788444765538 26 26 26
0.7943666176373452 0.22883210170091714 2.2279109214562403 129 129 129
0.7358793501890531 -0.18072339044659202 2.237095246928301 113 113 113
0.7668865257779787 0.11697927816218641 2.2003366221190337 58 58 58
0.723648762679345 0.1247862496951409 2.205682041640065 67 67 67
0.7335872807206948 0.15190790642018476 2.1974248046137363 174 174 174
0.7168377386459517 0.1123920907953968 2.189735685101488 158 158 158
0.7168377464747566 0.11239209096130247 2.1897356834481676 158 158 158
-0.6527119577865269 0.2676091319490477 2.384424874140134 35 35 35
0.7143298699151754 0.13546523556699736 2.185029753013398 163 163 163
0.7143298662943889 0.1354652355597135 2.185029753392324 163 163 163
0.7078580019999392 0.21339697337792646 2.1906209301767516 26 26 26
0.7101554693975989 0.010490544515496527 2.164067530755179 25 25 25
0.6894669906932348 0.14422821574392092 2.162415495156576 35 35 35
0.638015911026579 -0.07227750425749249 2.1522346925266134 28 28 28
0.6288930570034534 -0.10829104753923527 2.1512190200162373 45 45 45
0.6224935726199863 -0.11728351538534053 2.1510750741279714 120 120 120
0.6224935741108999 -0.11728351506314004 2.1510750741173665 120 120 120
0.6625855861267417 0.04246347357777739 2.152521060185934 23 23 23
0.6564907286386997 0.3123003518285524 2.1686446398175825 41 41 41
0.6650832573838321 0.10314910408409862 2.151497096971308 36 36 36
0.6199144704667264 0.37066932086560545 2.1703989565802084 29 29 29
0.6299139824717401 -0.07380537619463719 2.141341528115646 183 183 183
-0.6236968902907969 0.009006198857622475 2.25974807741306 156 156 156
-0.6236969019489125 0.009006198594924486 2.259748077848146 156 156 156
-1.5850541958380284 0.7500395509997587 2.5641838058216244 143 143 143
0.6167082164011322 -0.06573993895041266 2.1232553282909166 203 203 203
0.6505522340937185 0.10752515104858423 2.123772290007731 42 42 42
0.6426890544318146 0.13396776384425005 2.123857593824281 165 165 165
0.24900706683716423 -0.553418807840779 2.96487202619531 95 95 95
0.6233036859467114 0.04973264050631186 2.087079480629333 51 51 51
-0.6538787944236369 0.1091790937524552 2.161452974762035 161 161 161
0.5910522964561015 0.04242873094894796 2.0548942490342763 55 55 55
0.591052294425446 0.04242873080777561 2.05489424946902 55 55 55
-0.6174435795372658 -0.039748441285755685 2.0935104375680367 188 188 188
0.5719781830238754 0.08009403869575683 2.034169488354744 145 145 145
0.4212066688750301 -0.15392667128593868 2.0385554287452425 153 153 153
1.0167707882640473 0.20066458041480167 2.3884766411968363 42 42 42
2.560980712165143 -1.5539702202975296 5.154884297447234 143 143 143
1.3235488242412203 0.17709437344718845 2.567116840574189 98 98 98
1.642523422117872 0.22371256158875313 4.5980545511044015 122 122 122
1.130699937381163 -0.09664655399730886 2.2231189619886003 78 78 78
0.7501511484748815 -0.06095193379622303 2.9580074031484953 34 34 34
0.7614213708367935 -0.05021708809711859 2.952156440508127 123 123 123
0.8352351889375693 0.10949013638656048 2.492321725077903 28 28 28
0.36802999090396277 -0.4117726470236804 3.3141427020772247 171 171 171
0.5589405830578685 -0.2573547685662729 3.9145802771013645 181 181 181
0.2533308051382764 -0.26286977542002077 2.773141742937137 162 162 162
0.3271843536084935 -0.15140741387677228 2.589393876135695 40 40 40
0.6043316437408159 0.1340059275081363 2.4346209594368347 60 60 60
0.10930974593923487 -0.15365334752517018 3.0430388154000667 135 135 135
0.2728680741769563 -0.10704057042278241 2.549220090775767 164 164 164
-0.1270237388128672 -0.1870390023729046 4.034501590000228 129 129 129
-0.48547244841729636 -0.4697678811110191 2.9407938474084143 94 94 94
1.3479333842949852 0.16289264739967965 2.5754451709254433 123 123 123
1.346167018487671 0.1616737001089451 2.580666167616752 33 33 33
1.3478984514635874 0.1628574654254628 2.5751975769246767 26 26 26
0.5959563197158407 0.3164535837069079 3.0839067533667053 78 78 78
0.8049591574413189 -0.004273458410538771 2.644057491858212 160 160 160
0.778890043082527 -0.017985420784928867 2.657731166163964 27 27 27
0.7618630872858442 0.004857670520968244 2.540238984495133 38 38 38
-0.7742206945032667 -0.6770773848082321 3.6313048825548977 22 22 22
-0.33359456603755316 -0.29814399846551515 2.6694645204177125 156 156 156
-0.8372020349332866 -0.8155636409338309 3.2221107592118012 90 90 90
-0.5047246103034156 -0.5241610867586564 2.611612860999753 46 46 46
1.1113268701359549 0.09802157980430623 2.7094440220108984 30 30 30
0.9850916009148767 -0.04158278802154351 2.806117429831115 31 31 31
0.9745446438682683 0.19537627656309936 2.5160757507485965 141 141 141
0.9000804786486438 0.1504888159393007 2.5156507974572047 195 195 195
0.0011027032451828127 -0.2228494580010223 4.2433413270224385 86 86 86
0.575019130505207 0.036581182589266036 2.5282421596284075 70 70 70
0.46978106676709946 -0.2743630705363004 2.694217264160069 204 204 204
-1.2956004461074708 -0.9495613289281588 4.250772650127037 33 33 33
-0.05918509188130873 -0.22288192593748515 2.548680167993701 155 155 155
1.2381822693620874 0.1296713175985168 2.6530422417517743 115 115 115
1.4538666793741926 0.20091972103018316 2.5554955890295954 212 212 212
0.8496569525564915 0.3259964823949639 2.695050985041278 129 129 129
0.8304962713786908 0.20773523636842983 2.7098592597770756 129 129 129
-0.16866324581728667 -0.25756430736566366 2.885615813781267 147 147 147
0.5943289329367627 -0.08434348649074698 2.6539122863528886 28 28 28
0.6196865991589068 -0.0666114843408759 2.62584904663003 144 144 144
-2.480390049603001 -1.3325157700011818 3.145878762647651 93 93 93
0.44644777795407087 0.2142721416887523 2.7315898323854824 48 48 48
1.252698906626064 0.1434112970652987 2.5525018620375213 120 120 120
1.3518575334454481 0.16439586326815617 2.5712217709558387 39 39 39
-0.04638717172664194 -0.30841306132380275 3.168104597065373 93 93 93
-0.05339354794099527 -0.2738847084812828 3.169138146937504 152 152 152
-0.9032818421231409 0.6491885240595979 3.6822732229027086 122 122 122
-0.12179618649765357 -0.2749849606886138 2.8831061521609724 166 166 166
0.5039462347853794 -0.1873277142854565 2.684842438689585 153 153 153
0.5166971685938972 -0.10589152961354432 2.6108221007805374 163 163 163
-0.3657049520457761 -0.307230674517688 3.109166746702347 48 48 48
0.5166178592408622 0.23416154995564828 2.6147893765276096 122 122 122
-0.7838840667060826 -0.21954627257993684 2.939394378822511 197 197 197
-1.2355490583541984 -0.28466662461390724 4.64155761992216 129 129 129
-0.9740438492462764 -0.7409365876191139 4.12890172249917 147 147 147
-0.2115403209168721 -0.09736155264343656 3.735205206066706 152 152 152
1.2347767401493484 -0.13975793753655277 2.8886302857049353 101 101 101
-3.5298736537112325 -0.02363965582558023 4.759662925879395 64 64 64
0.7426155609990018 -0.053688358395560826 3.1148640958883442 101 101 101
0.5266506064239567 0.005470920378462382 3.216782841398533 101 101 101
-1.2452860451791774 0.4896505888551133 3.7720922183688668 101 101 101
1.342426755282241 0.16905389861871425 2.574261553809786 131 131 131
0.15914789134432508 -0.2885650733481679 3.1215469686725528 55 55 55
1.2679010447165615 0.14391083576618582 2.6258421744049794 60 60 60
1.271074488277014 0.1484594901172509 2.6218110836114494 113 113 113
-0.3136643807016733 -0.30813110582794356 2.777421800174851 91 91 91
-0.4016776267797907 -0.46540985090520026 2.6361400940967714 151 151 151
-0.684857855851807 -0.37959389404063054 2.513394532892758 90 90 90
1.2790609636734742 0.1506971052148499 2.619588805911972 109 109 109
-0.9829215721836533 -0.2870023432741452 2.1125291465041522 10 10 10
1.3525900328823068 0.1680788862897506 2.5773139736848067 78 78 78
-4.6305206340358005 1.1267405611356909 1.8847961990515547 187 187 187
-0.8627711279791725 0.49508824757710673 3.695173645489725 23 23 23
0.8429478120311 0.1868140755220931 2.7295740034047498 23 23 23
0.7628327579415511 0.11293366775839578 2.719927396560669 143 143 143
0.6721924457385657 0.2129340475635811 2.7651212236569105 65 65 65
0.7773940186629957 0.1553427109044769 2.7207062095166115 48 48 48
-1.3516191536116209 1.3538741578431248 3.867642927742079 66 66 66
-1.160404098500077 0.9207101360215116 3.4493848712389017 66 66 66
-0.8623258226155956 -0.19010717310861341 3.269775731667703 70 70 70
-0.6998384481475448 -0.35693010123057584 2.921191224078618 37 37 37
-0.688893650393197 -0.4708374790844397 2.9238423156680464 93 93 93
-0.22465767751997337 -0.3316619719595708 2.739749226651361 133 133 133
-0.678175962291297 -0.4763435335139393 2.864752905495734 43 43 43
-0.33391113998584165 -0.4563358758630873 2.633466620503173 157 157 157
-0.6549388898954329 -0.4073041534132459 2.683418677634034 156 156 156
-4.035074616861272 0.04638363778500259 4.030352611609234 124 124 124
-0.31943215561499594 -0.3024877806762294 2.5273185499529447 32 32 32
0.22086075537150154 0.009437500068192835 2.3883693155723815 143 143 143
0.048617442118423726 0.0563322475852917 2.434222446220398 143 143 143
-0.22800679535812557 0.12659769542697183 2.4771999849364756 166 166 166
-0.277955654697575 0.2180430312500524 2.4871231068067314 138 138 138
-0.3038048963314659 -0.2889618388664219 3.269558194638936 175 175 175
-0.3875221567734735 0.287266661140451 2.4544564340243875 30 30 30
-0.38097150300601706 0.2536122208993749 2.420425789789343 40 40 40
-0.29431737665586977 0.10827899400502973 2.3917141183067123 195 195 195
-0.36092584001037364 0.012085100700055846 2.334343081250245 30 30 30
-1.1857228300802525 0.7361746283598656 2.458905801174767 185 185 185
-0.3959293077698304 0.07347929643956791 2.290015432623121 161 161 161
-0.38029154936426013 0.004455713136925166 2.277007716379331 56 56 56
-1.1765713289184743 0.03908154036817768 2.3948743206060232 74 74 74
-0.3982489184249954 0.07750728259635775 2.27179769361505 48 48 48
-0.3934376763237009 0.049591825143885424 2.242582908225854 148 148 148
-0.400927763853 0.06646502700486934 2.218226971049228 166 166 166
-0.4141923500698997 0.06292075066544517 2.1928472082411687 160 160 160
-0.31825063968661754 -0.18498032290873728 2.1845639563988817 206 206 206
-4.663560427351571 1.5415555882617218 2.292141031954523 48 48 48
-2.55500781696249 -0.9654933145783491 5.917711287939293 60 60 60
0.15844901690403929 -0.2232219658482885 3.584102553536872 127 127 127
0.3270177035379191 -0.11448166567243138 3.419420336963042 219 219 219
0.6993295132041659 0.03498084505251786 3.0830459972062925 239 239 239
0.6361057295117459 -0.013357250986216767 3.063039207306655 183 183 183
1.3957917904683577 0.07986807628564095 2.536798431507254 152 152 152
0.6542614572283766 -0.003575050531259479 2.9743484241895395 94 94 94
-1.4427611943326897 0.9343531415544791 3.7468100809373244 98 98 98
-1.0887850964262726 0.6119322173006262 3.757270553721288 152 152 152
-0.11316477577178857 0.17473775702389582 3.2008608518659196 152 152 152
-0.6650110991437659 -0.014961514515296476 3.4689021650565075 153 153 153
-0.9455884008673957 -0.6056234367703811 3.65194516991392 92 92 92
-1.4349256056708923 -0.5123075702800763 3.8981733687601667 180 180 180
-1.0401762893313142 -0.6098109958920512 3.6922567892336247 32 32 32
0.35601491352265796 0.02101972621923601 2.933116871028006 124 124 124
-0.8773267341090129 -0.6590963844833135 3.586633765248442 24 24 24
-1.0203749143033924 -0.7116622552829238 3.614593293200183 48 48 48
0.16398304397516064 0.16865875509635736 2.9898747003090533 136 136 136
-2.5459293928606828 -0.47182784308511494 4.122483118331202 153 153 153
-1.4699092542643941 -0.650844045723603 3.7890346242555917 112 112 112
-1.4699089586132363 -0.6508439669136101 3.7890344836382104 112 112 112
-0.4858121136609779 0.34195874241416824 3.24189934261112 70 70 70
-0.36805205146375597 0.30583563222307486 3.183911052465575 56 56 56
0.13122892539671394 0.12332272716376581 2.96361253001769 127 127 127
-1.6980057182739579 0.7054292411757866 3.6841357168309785 44 44 44
-1.1125112408558433 0.5335626403323543 3.395032698402965 134 134 134
0.01934047506682786 0.15673441114703202 2.9379117832857102 32 32 32
-0.3403268106820855 0.27505352892910756 3.0751978955948274 193 193 193
-0.014843266605753025 0.15683406123109242 2.9382881876713443 153 153 153
-0.03180461737016521 0.143520323112112 2.936968292575021 48 48 48
-0.6551026765346469 0.38032376562387027 3.1609414852318167 58 58 58
0.011138393610812355 0.040376166858750374 2.8873067807483648 96 96 96
-1.242041982231754 -0.5528554196004033 2.997360902927944 34 34 34
-1.176831722686237 -0.8049731493212441 2.969800035257958 216 216 216
-3.4634167567239875 1.6549482401882059 3.61681504092777 160 160 160
-1.306791543760008 -0.5512353462940509 2.9775979268900787 43 43 43
-1.3142736834743056 -0.5654166595289042 2.9653027656409123 31 31 31
-1.318816629275702 -0.572136610386993 2.965107788233432 34 34 34
-1.243527786173582 -0.7945584065562297 2.915539890279463 213 213 213
-1.4071893720355848 -0.4906022540949095 2.9487748147155406 43 43 43
-0.8245173996427535 -0.36404306263053365 2.780444209437723 180 180 180
-1.461216846055564 -0.5310515245120464 2.952450479678732 180 180 180
-1.2914366070850638 -0.7040653229960725 2.9597040393729017 37 37 37
-1.4117162462737611 -0.5665164356273557 2.9106395412754815 152 152 152
-1.3592499752175062 -0.6237202872105192 2.860155299431278 37 37 37
-1.4030054606885698 -0.5409210007284142 2.8562334412253634 146 146 146
-1.2757524980094923 -0.48451777985843014 2.767826768955085 172 172 172
-1.2757524717239859 -0.48451777037373306 2.767826763541642 172 172 172
-1.3119220943456114 -0.5927258329296969 2.7719948692724414 141 141 141
-1.366532241811267 -0.8656109892142912 2.7854538306363392 127 127 127
-1.3665324391266456 -0.8656110564825709 2.7854538561992896 127 127 127
-1.222823938541725 -0.5914501396954185 2.7630368778167838 100 100 100
-1.3401777894454612 -0.8755457411331458 2.736698617860001 214 214 214
-1.29804426636036 -0.5907365115251074 2.7102548097550607 159 159 159
-1.1938557686751545 -0.5810647053784495 2.704467553229384 163 163 163
-0.8602452024460604 0.013614800431364184 2.6292044190203216 55 55 55
-1.2914965236456877 -0.5068727368845644 2.6652299000428745 164 164 164
-1.291496520046052 -0.5068727355607842 2.665229901049025 164 164 164
-1.2961393574364746 -0.4763992456810511 2.6593932423085636 35 35 35
-0.8921483908476516 -0.4548990388204774 2.549262085669299 168 168 168
-1.302537730829548 -0.5727065532511918 2.625633613087301 168 168 168
-1.3025377561114884 -0.572706562405927 2.6256336144221764 168 168 168
-1.296722366349639 -0.5960680772860354 2.6102410931829363 156 156 156
-2.354703397710379 1.0511360905736002 2.8354793942959504 186 186 186
-1.312811331404732 -0.5667354530115115 2.595690578715651 94 94 94
-1.324929098768247 -0.48682230324666065 2.5824064192480547 160 160 160
-1.2279807639170994 -0.4164402498912331 2.555321098859379 63 63 63
-1.3299168634215146 -0.5348332128896416 2.550665843788173 95 95 95
-1.344616913940735 -0.5113785683461591 2.5391915144531265 48 48 48
-1.3446169081079917 -0.5113785677298093 2.5391915158308347 48 48 48
-1.3924911445098596 0.29359040226231936 2.5481228524509767 204 204 204
-1.0181411590010743 0.37220294321257247 2.4876896331920566 143 143 143
-1.2535563494030457 -0.41771651797056286 2.461726683597827 90 90 90
-1.284262265551562 -0.4422381184943386 2.4567704278536935 39 39 39
-1.7925469054763836 -0.05055928106349613 2.527229242780059 37 37 37
-0.844323714553342 0.07264750731817195 2.448245883593445 37 37 37
-1.6479982661548704 0.5831919089634757 2.5458833037080795 48 48 48
-1.4414516928266419 0.4397378592132687 2.492734255441381 45 45 45
-1.1162716778023165 0.09001446832846086 2.430974529014223 166 166 166
-1.3052301343229256 -0.4658507468789776 2.3951556374400207 86 86 86
-1.3052301753191269 -0.4658507567703773 2.395155637815201 86 86 86
-1.2838529848322473 0.2556180115534155 2.4185478339427346 35 35 35
-1.4005502108099075 0.34138854004614705 2.3987025043585612 49 49 49
-1.4005502349740317 0.3413885412705172 2.3987025041853074 49 49 49
-1.338455894523602 0.24717932874378207 2.356819973641115 26 26 26
-4.546619049599548 -1.3265709904745209 3.0116473154705456 151 151 151
-1.98132126225374 0.7642341681106438 2.4214221893934265 49 49 49
-4.845391207985159 -0.30663275433105097 3.8283589685446593 55 55 55
-1.4149461041092635 0.376663780523146 2.308688838659443 36 36 36
-1.2508872505386903 -0.01767639498992553 2.243847590643938 21 21 21
-1.2240258266358859 0.13424770536463365 2.2524052899412705 116 116 116
-1.254512259884124 0.02664460014106924 2.2441303867634335 82 82 82
-1.3481909376146555 0.22000280065464248 2.2402451766090676 54 54 54
-1.2558311851318706 -0.07518142169366186 2.2109346306344397 38 38 38
-1.3810288434784517 0.2610265821197041 2.234845390552628 141 141 141
-1.5085780576734402 0.6422645432039257 2.260577023237713 43 43 43
-1.7827653320302577 0.6720917534241008 2.2700993020517606 43 43 43
-1.701516281806249 -0.5093178538324676 2.146726842868591 70 70 70
-3.9001061072281398 -1.124530760778161 3.7067477951642007 44 44 44
-1.2288867989112018 0.06032590427575891 2.1623138094747296 177 177 177
-1.3002420233031255 -0.03613879890712974 2.1416917318651714 74 74 74
-1.2842449725871703 -0.043568517892194125 2.1330878326974285 72 72 72
-1.253936657642091 0.052158178437608074 2.128035746493403 177 177 177
-1.300743261850725 -0.050036614246699196 2.117202655005352 71 71 71
-1.2797099403990113 -0.09562395119533246 2.0951072071939363 52 52 52
-1.3143924948998489 -0.30558995278974327 2.053022620760829 32 32 32
-1.3130931664908407 -0.29339573417619397 2.035839442721687 197 197 197
-1.2290260594274196 -0.11311531415361381 2.0067363688842814 181 181 181
-1.853398603456672 -1.003602669482235 2.0874622742544364 160 160 160
-1.211922719704194 -0.10500237502211472 1.974024448385579 188 188 188
-2.2780539802316944 -0.7792547688088369 1.898580514520502 163 163 163
-2.2284178520611375 -0.7576287968741721 1.8818508647719494 219 219 219
0.9153354169701239 0.16419314554971995 2.8930712117945014 70 70 70
0.6287779189441974 0.14555980142660346 2.937736925772531 105 105 105
0.4019898890233385 0.006825905082825463 2.826304136868042 193 193 193
0.3037002725337939 -0.09102183864514671 2.835299134866202 146 146 146
0.903887670545211 0.1645205867370375 2.894226830560555 151 151 151
0.935418787549901 0.16046269409728622 2.897542920181049 82 82 82
0.8050781603307374 0.16307801308573375 2.92195879419556 151 151 151
0.5442930064222987 -0.02853658428241817 3.114659306199798 196 196 196
0.06866386205988928 -0.22829065574266483 3.6276531420859652 142 142 142
0.5638872768585038 -0.12236871720211157 2.148994529036688 54 54 54
-0.0015503655546289228 -0.008113982587346271 2.5993376704479187 59 59 59
0.719603355441684 -0.09826525699904716 1.807977416130146 56 56 56
0.9260975740960006 0.16223896558746545 2.8884301290187775 95 95 95
0.9034668865826248 0.16434223225420727 2.8944257234041086 236 236 236
0.9671537015371128 0.1708441173395834 2.903461476863876 54 54 54
0.7575394120028525 0.18313391651511007 2.8637010307307453 140 140 140
0.541911112196335 0.020177123754697386 2.949222015175596 236 236 236
-0.014386652336207749 -0.2228053697743872 3.486010765160164 126 126 126
0.31005098489994004 -0.18029774586613398 2.6853207757842212 43 43 43
0.45867384984947157 -0.4986081233285349 2.4044755032216942 113 113 113
0.8985117299567129 0.16254441721851845 2.8949060204020807 36 36 36
-4.108718669494258 -1.795390509162376 5.749716849551285 66 66 66
0.8413714123243633 0.16994688159967483 2.8858522985289796 126 126 126
0.31423464841905585 -0.6309199533152497 2.7735953494856 47 47 47
0.4784576886775489 -0.7364244794986124 2.4619898962768207 55 55 55
-0.7441862975884586 -0.7197381640365936 3.6911516132091156 132 132 132
1.0656812810411158 0.1704611630612529 2.87501206154766 170 170 170
-0.162587085993815 0.3096307680286117 4.039784333360312 114 114 114
0.7902254735850512 0.12702754934499977 2.9451917826519445 96 96 96
-2.5919876164561573 -1.1587712233246072 4.776506211243329 124 124 124
0.2375652824585551 0.1778436875298699 2.7279055199324764 134 134 134
0.1873079260728534 0.1144791858645249 2.6628542534952704 174 174 174
0.44376069727270184 0.37709905709748676 2.3240338228610127 121 121 121
0.8563594788783219 0.15357408699697933 2.901302080242525 121 121 121
-4.058861360170868 -2.4023815153069346 5.408623431687683 100 100 100
-0.2779125360167794 -0.46480876604839394 3.557404722871815 161 161 161
-0.3889468378096671 -0.4831944660933627 3.0696251830886356 88 88 88
-0.6978720451923323 -0.40067827612970375 3.726655523029301 54 54 54
0.5907668788337777 -0.1809333189814018 3.1713511298850054 140 140 140
-0.6134241970292196 -0.21233395465061533 3.7047073232665566 54 54 54
-0.5423634600343699 -0.05945784006828908 3.6871653740334844 54 54 54
-0.5243246862985412 -0.021531085637066242 3.6831069271270733 54 54 54
0.8965978646028835 0.16552138528631904 2.896929701798199 140 140 140
-0.46657317051074365 0.09171973163858756 3.6683047312746364 54 54 54
0.880668419763872 0.16814119801999353 2.902570176605561 93 93 93
-0.3571820892070919 0.2681863249945543 3.6347140843542034 54 54 54
-0.33638646656117355 0.2950552019292487 3.6272218871212547 54 54 54
-0.1688814133267287 0.45947897835172086 3.568177285962332 54 54 54
1.0582181176001 0.2249186622681082 2.8555000954543295 54 54 54
-2.0823898051954735 -1.015896644398805 3.443754626315362 43 43 43
-0.35710837017052977 -0.2266800992415854 3.2592636637374843 47 47 47
0.6403557099988789 0.1710103690309686 2.9404284410573074 20 20 20
-4.298201974342831 -1.5370116724328706 5.149987225961146 55 55 55
-2.619264249047438 -1.2873196368346687 2.644924305604399 40 40 40
-0.741038125198074 0.10371980757588202 2.4798545364077196 54 54 54
-2.0286469728979366 0.1214206610096788 2.529132065143037 124 124 124
-2.04496098548124 0.1045209421563735 2.5063760092016985 54 54 54
0.9037602289845886 0.16448210599801788 2.8946187465552264 148 148 148
0.09846256548541801 0.13411356863404306 2.141010796652699 61 61 61
-0.6541668660542614 -0.22876678252352062 3.317547540419004 200 200 200
-0.6160323010295783 -0.24085480147599148 2.5938834408443956 200 200 200
0.16041495019158902 -0.5612668988243856 4.05338279548009 56 56 56
0.16629304185806026 -0.5621057953550289 4.027158466016208 56 56 56
0.17245942488048657 -0.5480842565238858 4.019091431578595 56 56 56
1.0431485232402178 0.14766155453715915 2.846288800709358 113 113 113
-0.02405787009357979 0.3419539743303151 3.4110318277823533 107 107 107
-0.28544250344461986 0.43327423626332684 3.314939937494704 139 139 139
0.020289777377563312 0.32693836505937124 3.0854744813979846 129 129 129
0.26511446391696675 -0.13507848625623134 2.8900852657853813 125 125 125
-0.28054844401981893 -0.15358568062567365 2.9584440454914223 21 21 21
-0.2760019386806129 -0.4033434815980475 2.8617506874365923 21 21 21
-0.5554675518308041 -0.42092849573864605 2.8733285106123705 50 50 50
-0.8742098397487346 -0.3373579542280643 2.77373613075442 157 157 157
-7.07152945123647 -0.41703793706406683 4.13799290422582 117 117 117
-1.327889545371 -1.0228587498516473 3.814336200795006 125 125 125
-2.500085747494109 -1.0323732327302246 3.2117570860369313 122 122 122
-1.054231451222443 -0.4378278642121115 2.8015827379470437 139 139 139
-2.4852140825481515 -0.9920715307210897 3.0044930449701814 32 32 32
-2.43163135105407 -0.9382075614906477 3.0387322905465113 221 221 221
0.14074856726886353 -0.13012043666639417 2.6407637687473215 129 129 129
-0.6276121858558255 -0.24694942192257666 2.4829036817906083 142 142 142
0.8894120794344963 0.158585864220154 2.903618448634768 55 55 55
-0.49161071468456535 -0.30614152893473023 3.8392021478465725 56 56 56
1.4016049136383808 0.221401445463925 2.6855063679627893 243 243 243
-0.9833335783744308 -1.1274088171370924 4.844697082058863 56 56 56
-0.9149808235421143 -1.0699234051224045 4.779131645079092 56 56 56
-1.7332747656970686 -1.133069596690532 4.656024167050147 56 56 56
-0.6402461794501616 -0.600529027495328 3.846633484107829 85 85 85
-2.7410537969830364 -1.220276672867678 5.2222306057670895 21 21 21
-0.004056048957636879 -0.031866966008925995 3.349010779482059 129 129 129
0.9014070910212494 0.16401031903053181 2.895809788458007 103 103 103
0.20323778766516934 -0.07103373237510342 2.9341182049805576 56 56 56
-0.32615745472975227 0.26352143883960877 3.1545017605319936 84 84 84
-0.7790751991577889 0.5004839889624754 3.269480392487496 125 125 125
-4.604300537040806 -2.1722884901602613 5.514446765058061 71 71 71
-1.8557157327775426 0.9205597479866842 3.6414630744000673 66 66 66
-0.8082575077555632 -0.41491376036215366 2.8120610634889984 28 28 28
-1.306573510555219 -0.6696525320886021 3.0317853954850675 28 28 28
-2.584753296002718 -0.7576916948764738 3.2589949930547393 157 157 157
-1.2402459300241755 -0.6896864164388334 2.867826567189126 50 50 50
-0.8725305517016116 -0.42605829853507055 2.6989116959888957 153 153 153
-0.8108086964890124 -0.4705401290360076 2.5525871804834304 43 43 43
0.09219137391144408 -0.09154874701128043 2.3064968792649823 55 55 55
-2.1014745161427064 0.7019599771177969 2.603778355123573 41 41 41
-2.1182862115334844 -1.3236031888790516 3.77386088691678 126 126 126
-1.0215958488740453 -0.46650135160094514 2.370398448085254 142 142 142
-3.016836513067668 -1.054966296827135 2.552043686984159 53 53 53
-1.0267646770582561 -0.4327833540558275 2.354763993430906 40 40 40
-1.6571282546926696 0.0585595308705547 2.3454620534599164 82 82 82
0.7466124099071172 0.06565008565095894 2.9807183707314264 123 123 123
-0.046699787721031394 -0.050528767006026834 3.152312859487019 85 85 85
0.5380545003102137 0.106613455864244 2.9580646774431645 61 61 61
-1.8564270848911733 -0.8632156827426991 4.576740807691589 58 58 58
-0.9070024371124485 -0.8896636724768018 3.9431990571567512 113 113 113
-1.2354856378575283 -0.8106858596938473 3.814744658091179 116 116 116
-0.03185962149558468 0.31191467078371576 3.302273567375378 157 157 157
-0.4150073473776812 -0.1512443847189679 3.256870437262872 42 42 42
-0.49208021056377593 -0.09946982660412397 3.2611615189399976 118 118 118
-0.37838111861709334 0.30729586804163356 3.322472281744885 107 107 107
-0.19476403117861676 0.2768918258474161 3.2275285552061863 153 153 153
-0.3289638139000824 0.4212731078269315 3.3166477926903495 51 51 51
-0.6176845742629677 -0.1322728681336434 3.112048755948859 19 19 19
-0.6176844941800375 -0.13227285385754992 3.1120487408897866 19 19 19
-1.3568089084065629 -0.838928336961131 3.191145035668155 90 90 90
-0.42991524645583046 0.006617708200335356 3.0931096997665732 40 40 40
-0.5832061419064267 -0.07977606308644228 3.1043627894532806 120 120 120
-1.3463532385101045 -0.7677690537578057 3.1773422224726624 34 34 34
-0.5379266303905146 -0.036206956174561045 3.1006227410925216 69 69 69
