ply
format ascii 1.0
element vertex 694
property float x
property float y
property float z
property uchar red
property uchar green
property uchar blue
end_header
1.4480491876602173 -0.01814018189907074 1.9949376583099365 100 100 100
1.660210371017456 -0.002334585413336754 1.8552727699279785 176 176 176
1.5626968145370483 -0.001071176608093083 1.9171676635742188 41 41 41
1.6246321201324463 0.025566624477505684 2.0201637744903564 39 39 39
1.7586228847503662 0.013740423135459423 1.6840952634811401 39 39 39
1.7856272459030151 -0.026755860075354576 1.7900090217590332 153 153 153
1.7992594242095947 -0.03694329783320427 1.6706197261810303 39 39 39
1.8007912635803223 -0.04213275760412216 1.8338052034378052 36 36 36
0.4441587030887604 0.5521335005760193 2.2681734561920166 30 30 30
-52.57188415527344 -5.023636341094971 25.87592887878418 45 45 45
-36.025230407714844 -6.038488388061523 18.691917419433594 68 68 68
-39.83676528930664 -1.2534610033035278 21.060104370117188 79 79 79
-0.17034536600112915 0.2569133937358856 2.6735148429870605 62 62 62
-7.060117721557617 -1.9090468883514404 6.382948875427246 100 100 100
0.24919289350509644 0.24495355784893036 2.7646052837371826 191 191 191
-0.2788917124271393 0.35356125235557556 3.1390600204467773 25 25 25
-0.0020408835262060165 0.3692191243171692 2.9643731117248535 148 148 148
-0.15834052860736847 0.3121246099472046 3.078826904296875 33 33 33
-0.15335284173488617 0.3259054720401764 3.0881097316741943 47 47 47
-0.16862858831882477 0.32695040106773376 3.110119104385376 164 164 164
-0.13610371947288513 0.3355657458305359 3.0887088775634766 29 29 29
-0.1554415076971054 0.3015143573284149 3.1098568439483643 160 160 160
-0.331114262342453 0.3517361879348755 3.2427241802215576 139 139 139
-0.11219203472137451 0.2933271825313568 3.12457275390625 68 68 68
-0.17555485665798187 0.3808363378047943 3.2181506156921387 47 47 47
-11.559844970703125 1.1113104820251465 11.577396392822266 104 104 104
-0.4186112880706787 0.33764615654945374 3.463057041168213 30 30 30
-0.33079102635383606 0.35252559185028076 3.428377628326416 162 162 162
-0.2738414406776428 0.38522401452064514 3.3964152336120605 151 151 151
-0.4916437566280365 0.34282898902893066 3.6582324504852295 43 43 43
-1.6797107458114624 -0.19082775712013245 4.649226188659668 155 155 155
1.905807614326477 0.01926349103450775 1.795789122581482 61 61 61
0.029602214694023132 -0.16324648261070251 3.465925455093384 47 47 47
1.5001435279846191 0.1656598001718521 2.1428821086883545 59 59 59
1.7267297506332397 0.05907382443547249 1.9915646314620972 169 169 169
1.361079216003418 0.2727498710155487 2.341425895690918 201 201 201
1.7908484935760498 0.06133836880326271 1.9357527494430542 161 161 161
1.7901062965393066 0.06122441589832306 1.9365192651748657 161 161 161
1.313681960105896 0.27700430154800415 2.4158828258514404 167 167 167
1.2107301950454712 0.2773805260658264 2.5391602516174316 198 198 198
1.3736854791641235 0.28884780406951904 2.382812023162842 248 248 248
1.3736854791641235 0.28884780406951904 2.382812023162842 248 248 248
1.2219773530960083 0.2819494307041168 2.552046775817871 156 156 156
1.1330640316009521 0.2870941758155823 2.6509904861450195 48 48 48
1.2848424911499023 0.2864251136779785 2.4871110916137695 108 108 108
1.114943504333496 0.2804259657859802 2.6928927898406982 216 216 216
1.3509129285812378 0.29462942481040955 2.43501877784729 106 106 106
1.9442570209503174 0.08390799164772034 1.7933967113494873 28 28 28
-1.1757069826126099 0.3728734254837036 1.6823327541351318 127 127 127
-1.2557328939437866 0.30410799384117126 1.787048101425171 240 240 240
-1.1565325260162354 0.3604546785354614 1.8191851377487183 150 150 150
-1.0290298461914062 0.34996458888053894 1.8383221626281738 158 158 158
-1.127048134803772 0.37005817890167236 1.8672136068344116 70 70 70
-1.2652671337127686 0.2960982322692871 1.9190049171447754 219 219 219
-1.2307459115982056 0.3251522183418274 1.918052315711975 63 63 63
-0.7712140083312988 0.424189954996109 1.8735581636428833 57 57 57
-0.7398563027381897 0.46031180024147034 1.9163898229599 198 198 198
-0.6875856518745422 0.4023221433162689 1.9075098037719727 171 171 171
-1.4960402250289917 0.29498615860939026 2.072291135787964 246 246 246
-0.7176735997200012 0.46615806221961975 1.9393188953399658 47 47 47
-0.7087394595146179 0.35473400354385376 1.9295531511306763 197 197 197
-0.7744699716567993 0.7116512060165405 1.9938899278640747 32 32 32
-0.6837666034698486 0.3677350580692291 1.9331265687942505 123 123 123
0.510478675365448 0.43102020025253296 1.7391546964645386 110 110 110
-0.7262544631958008 0.33858728408813477 2.0053114891052246 47 47 47
-0.718951940536499 0.370349258184433 2.0161569118499756 43 43 43
-1.9829217195510864 0.16548337042331696 2.302755832672119 232 232 232
-0.6819579005241394 0.5379677414894104 2.0944631099700928 135 135 135
-0.6872812509536743 0.5476711392402649 2.114914655685425 39 39 39
0.5398783683776855 0.24766266345977783 1.8056094646453857 47 47 47
0.17380736768245697 0.4983660578727722 1.9237473011016846 139 139 139
-0.7754756212234497 0.2997056245803833 2.1579606533050537 184 184 184
-0.869358241558075 0.5998076796531677 2.2288289070129395 15 15 15
-0.8908615112304688 0.6389526724815369 2.2482998371124268 148 148 148
-0.8908615112304688 0.6389526724815369 2.2482998371124268 148 148 148
-0.806632399559021 0.37483692169189453 2.214172601699829 150 150 150
0.44321319460868835 0.5889056921005249 1.8926550149917603 49 49 49
-0.8469042778015137 0.42350873351097107 2.2787375450134277 142 142 142
-0.890146791934967 0.4735240340232849 2.304699659347534 33 33 33
-1.2037113904953003 0.25691112875938416 2.3926217555999756 106 106 106
0.8965230584144592 0.30138081312179565 1.7821590900421143 161 161 161
-1.323864221572876 0.20539650321006775 2.525169610977173 221 221 221
-1.3645132780075073 0.23950283229351044 2.5536603927612305 112 112 112
0.4383518099784851 0.5518007278442383 1.9659912586212158 75 75 75
-1.5020869970321655 0.6918092966079712 2.696474552154541 157 157 157
1.9141894578933716 0.12071490287780762 1.5861486196517944 121 121 121
1.8077623844146729 0.11520042270421982 1.6200048923492432 121 121 121
1.5103421211242676 0.09921003133058548 1.7147502899169922 121 121 121
-1.1658666133880615 -0.6632810235023499 2.473633289337158 156 156 156
0.5256115794181824 0.03691357374191284 2.0268325805664062 121 121 121
0.16408587992191315 0.008969120681285858 2.140611171722412 121 121 121
-0.2726786732673645 -0.03213092312216759 2.2772302627563477 121 121 121
-12.074804306030273 -1.1881033182144165 6.533912181854248 17 17 17
-1.1518914699554443 -0.20857973396778107 2.5428953170776367 121 121 121
-1.1770751476287842 -0.22613370418548584 2.5497496128082275 121 121 121
-1.1187206506729126 -0.64613938331604 2.5174179077148438 147 147 147
1.1034380197525024 0.15265905857086182 1.8014471530914307 52 52 52
-1.4899697303771973 0.1613648533821106 2.9433951377868652 40 40 40
-1.342928409576416 -0.35415035486221313 2.843229293823242 35 35 35
-1.180708646774292 -0.494843453168869 2.770836353302002 146 146 146
-1.4209147691726685 0.027437716722488403 2.9484236240386963 125 125 125
-1.444108009338379 -0.3148821294307709 3.018097400665283 129 129 129
-1.3736478090286255 -0.4808810353279114 3.0289955139160156 54 54 54
-1.6087831258773804 -0.1890833079814911 3.2059950828552246 31 31 31
-1.29362154006958 -0.5097382068634033 3.0099968910217285 121 121 121
-1.9092823266983032 -0.08356528729200363 3.381693124771118 65 65 65
1.9234946966171265 0.0392642579972744 1.604387879371643 145 145 145
-1.373900055885315 -0.7196804285049438 3.036032199859619 78 78 78
-1.8491096496582031 -0.3083260953426361 3.3644258975982666 32 32 32
-1.7921638488769531 -0.2802833318710327 3.343710422515869 32 32 32
-1.810868501663208 -0.3086406886577606 3.3735568523406982 155 155 155
-1.882014513015747 -0.04740419238805771 3.503746747970581 79 79 79
0.06730524450540543 0.204196497797966 2.484435796737671 170 170 170
-1.5072404146194458 -0.6096907258033752 3.233569622039795 52 52 52
0.09203625470399857 0.20391088724136353 2.4749703407287598 170 170 170
-1.525840163230896 -0.6667320132255554 3.2822682857513428 111 111 111
1.6481953859329224 0.07998286932706833 1.694969892501831 163 163 163
0.14044465124607086 0.29692068696022034 2.504188060760498 93 93 93
0.1306397020816803 0.31409165263175964 2.5229129791259766 85 85 85
0.14263151586055756 0.2305658757686615 2.5229458808898926 101 101 101
0.14664973318576813 0.2697405517101288 2.5634353160858154 94 94 94
0.14664973318576813 0.2697405517101288 2.5634353160858154 94 94 94
0.0953972116112709 0.45417094230651855 2.6301822662353516 21 21 21
0.2234206646680832 0.47323375940322876 2.58890438079834 89 89 89
0.19019819796085358 0.3114257752895355 2.5928196907043457 105 105 105
0.17761529982089996 0.2838597297668457 2.599656105041504 114 114 114
0.16325148940086365 0.23190131783485413 2.604104995727539 67 67 67
0.2559715211391449 0.48718711733818054 2.5814902782440186 149 149 149
0.21117645502090454 0.4751737415790558 2.628753662109375 38 38 38
0.1839020550251007 0.48479992151260376 2.692305088043213 30 30 30
-0.9110898375511169 0.6455158591270447 3.789818286895752 211 211 211
-0.23034581542015076 0.39711910486221313 3.230314016342163 49 49 49
-0.23034581542015076 0.39711910486221313 3.230314016342163 49 49 49
-0.12435413897037506 0.3122193217277527 3.1699001789093018 143 143 143
-0.17576579749584198 0.4041900038719177 3.2609734535217285 56 56 56
-0.17576579749584198 0.4041900038719177 3.2609734535217285 56 56 56
-0.20088480412960052 0.36293843388557434 3.2996437549591064 59 59 59
0.009102837182581425 0.4485014081001282 3.1921193599700928 157 157 157
-0.647878885269165 -0.6372137069702148 3.710533618927002 39 39 39
-0.37194153666496277 0.3390643000602722 3.626051902770996 34 34 34
-0.4076066315174103 -0.5122126340866089 3.56387996673584 33 33 33
1.8695381879806519 0.18834897875785828 1.717594861984253 166 166 166
1.8707165718078613 0.18830451369285583 1.7172638177871704 166 166 166
-0.8369893431663513 -0.29321250319480896 4.166891098022461 175 175 175
-0.8369893431663513 -0.29321250319480896 4.166891098022461 175 175 175
-0.5807252526283264 -0.37694141268730164 3.9277021884918213 30 30 30
-0.5696958303451538 0.3687531054019928 4.09900426864624 135 135 135
1.9533451795578003 0.0031536014284938574 1.662150502204895 24 24 24
-2.21366286277771 -1.1707181930541992 5.517268180847168 176 176 176
-0.6005243062973022 0.31453168392181396 4.168754577636719 36 36 36
-0.997270405292511 0.06361871212720871 4.621640682220459 42 42 42
0.16109700500965118 -0.4670819938182831 3.3705923557281494 176 176 176
-0.9992015957832336 0.045863423496484756 4.643075466156006 45 45 45
-1.106131672859192 -0.14196985960006714 4.82961368560791 26 26 26
-1.4924683570861816 0.09241548180580139 5.264474868774414 159 159 159
1.8860559463500977 0.11766757816076279 1.7131011486053467 212 212 212
-1.7588977813720703 0.08640400320291519 5.602301597595215 168 168 168
1.1445095539093018 0.34165433049201965 2.5354344844818115 60 60 60
-2.338519811630249 0.0823255330324173 6.332174777984619 173 173 173
1.964134693145752 0.10298290848731995 1.7017451524734497 234 234 234
-2.8098604679107666 0.052211031317710876 6.9391984939575195 54 54 54
-1.5638459920883179 -0.14839999377727509 5.572279930114746 105 105 105
1.133143663406372 0.3527822196483612 2.6315548419952393 36 36 36
0.7170022130012512 0.24466156959533691 3.098834276199341 193 193 193
0.8283138275146484 0.1671895980834961 2.9692928791046143 220 220 220
0.6408324837684631 0.22453676164150238 3.260486602783203 202 202 202
0.724276602268219 0.30386674404144287 3.1862142086029053 184 184 184
0.724276602268219 0.30386674404144287 3.1862142086029053 184 184 184
1.7850569486618042 -0.005526929162442684 1.9194536209106445 176 176 176
-0.7862860560417175 -0.5328338146209717 2.9618139266967773 105 105 105
-0.7614363431930542 -0.14686031639575958 4.253103256225586 196 196 196
-0.6545485854148865 -0.26536718010902405 3.8229892253875732 115 115 115
-0.5347113013267517 0.5025913119316101 3.880460262298584 240 240 240
-0.5633583068847656 -0.27652132511138916 4.002573013305664 34 34 34
-0.5238842368125916 0.892438530921936 3.7591476440429688 140 140 140
0.05403636023402214 -0.08558263629674911 2.7277307510375977 150 150 150
0.08640156686306 0.4645014703273773 2.024298667907715 165 165 165
0.6764028072357178 0.5696357488632202 2.0899622440338135 29 29 29
0.7957905530929565 -0.049441199749708176 2.014089584350586 88 88 88
0.8697055578231812 0.39485207200050354 2.2780208587646484 53 53 53
0.9336272478103638 0.39121124148368835 2.2600791454315186 122 122 122
-0.49094411730766296 0.6136037111282349 2.0945544242858887 48 48 48
-0.8707703351974487 0.5825687646865845 3.4320106506347656 250 250 250
0.025714535266160965 0.26222917437553406 3.7776615619659424 219 219 219
0.8069896101951599 0.2165430188179016 2.070021390914917 78 78 78
0.8819905519485474 0.39782002568244934 2.119349956512451 240 240 240
1.2383289337158203 -0.08840954303741455 2.1088764667510986 128 128 128
-0.32975539565086365 0.3846936821937561 2.594916582107544 42 42 42
-0.007453617639839649 0.3497813642024994 2.596540689468384 111 111 111
-6.7378435134887695 0.9673804640769958 10.179237365722656 212 212 212
-0.20289185643196106 0.2512180507183075 2.6900644302368164 71 71 71
-0.8152082562446594 -0.5335693359375 4.167972564697266 59 59 59
-0.6809563636779785 -0.2673654556274414 3.7994163036346436 122 122 122
-0.3254719376564026 -0.1800564080476761 3.363466262817383 108 108 108
-0.029063338413834572 0.5218725800514221 2.9604387283325195 59 59 59
-0.49967852234840393 0.47915080189704895 3.8586649894714355 135 135 135
0.6033976674079895 0.43890735507011414 2.051701545715332 139 139 139
-0.0034324831794947386 0.4953973889350891 3.229545831680298 206 206 206
-0.45088329911231995 -0.06158899515867233 4.074429512023926 137 137 137
-0.5744713544845581 -0.010441871359944344 4.385447025299072 130 130 130
-0.3186540901660919 -0.013961180113255978 4.115035533905029 145 145 145
0.851483941078186 0.4451907277107239 2.5333003997802734 250 250 250
1.465618371963501 -0.20543287694454193 2.312469720840454 27 27 27
-0.21081866323947906 0.3413679003715515 2.66033673286438 150 150 150
0.5153497457504272 0.41340744495391846 2.111339569091797 69 69 69
-0.29238784313201904 0.4481130838394165 2.84842586517334 14 14 14
-0.16458164155483246 0.25941431522369385 2.734992504119873 123 123 123
-0.13259506225585938 0.30481263995170593 2.740933418273926 115 115 115
-1.634801983833313 -0.21240195631980896 4.836246013641357 40 40 40
-0.7349417209625244 -0.3383188247680664 3.935940980911255 70 70 70
-0.6860416531562805 0.16117167472839355 3.946341037750244 26 26 26
-0.45469236373901367 -0.0013105586403980851 3.9001784324645996 16 16 16
1.2203065156936646 0.08968068659305573 2.29390025138855 38 38 38
1.3800119161605835 0.21917246282100677 2.1407277584075928 111 111 111
1.531258225440979 -0.002671776805073023 2.0836005210876465 122 122 122
1.5543330907821655 -0.07209040224552155 2.0800275802612305 137 137 137
1.688318133354187 -0.0969751849770546 2.0577147006988525 125 125 125
1.6343110799789429 0.2033880203962326 2.1306324005126953 140 140 140
-2.8019778728485107 -0.10353296250104904 3.722912311553955 139 139 139
-0.23144862055778503 0.3115200996398926 2.711148262023926 117 117 117
-0.23144862055778503 0.3115200996398926 2.711148262023926 117 117 117
-0.2125440239906311 0.2932747006416321 2.722113847732544 105 105 105
1.1757690906524658 -0.06044955924153328 2.1492812633514404 45 45 45
1.3475518226623535 0.25066274404525757 2.0652360916137695 142 142 142
-0.5627307891845703 -1.0864965915679932 3.204620599746704 57 57 57
-0.2807721197605133 0.33863458037376404 3.152092695236206 32 32 32
-0.1807757019996643 0.39900052547454834 3.203848123550415 137 137 137
1.4032878875732422 -0.047014862298965454 2.144695997238159 45 45 45
-0.22377869486808777 0.36333179473876953 3.287156581878662 37 37 37
-0.2321014404296875 0.36807990074157715 3.3145480155944824 47 47 47
-0.239718958735466 0.34837806224823 3.3316147327423096 43 43 43
-0.32393789291381836 0.31487470865249634 3.410144329071045 34 34 34
1.3717302083969116 0.1098204106092453 2.1359736919403076 231 231 231
-0.4118667542934418 0.279409795999527 3.680835723876953 29 29 29
-0.6555988788604736 -0.3365192413330078 3.8955178260803223 21 21 21
-0.508782684803009 0.2672193944454193 3.836130142211914 25 25 25
-0.3667142987251282 0.2992911636829376 3.749969482421875 34 34 34
-0.18004974722862244 0.34478825330734253 3.6074953079223633 187 187 187
-0.751488208770752 -0.06278330832719803 4.151689529418945 30 30 30
-0.838951051235199 -0.029268208891153336 4.425974369049072 136 136 136
-0.5389673113822937 0.25151869654655457 4.19606876373291 31 31 31
-1.1569370031356812 0.08927220106124878 4.86888313293457 55 55 55
0.6384185552597046 0.3071400821208954 3.1234545707702637 50 50 50
0.9042424559593201 0.31398794054985046 2.8771049976348877 55 55 55
-8.781923294067383 1.0467339754104614 2.4751217365264893 83 83 83
-1.048319697380066 0.22791068255901337 1.7796233892440796 210 210 210
-0.5516564249992371 0.43650534749031067 1.8987970352172852 139 139 139
-0.7595051527023315 0.42693066596984863 1.9418717622756958 173 173 173
-0.7439386248588562 0.3570745885372162 1.9409304857254028 90 90 90
-0.7460877299308777 0.44976145029067993 1.9571830034255981 209 209 209
-1.384427547454834 0.21536211669445038 2.0865089893341064 226 226 226
-0.7830955982208252 0.4020765721797943 2.035623788833618 40 40 40
-0.7965121269226074 0.30738791823387146 2.033562421798706 226 226 226
-1.063572645187378 0.30110684037208557 2.1170654296875 128 128 128
-0.8747180104255676 0.31615883111953735 2.219081401824951 149 149 149
-0.8706331849098206 0.41100889444351196 2.238020896911621 142 142 142
-0.8706331849098206 0.41100889444351196 2.238020896911621 142 142 142
-0.5412852168083191 -0.1584213674068451 2.399681568145752 117 117 117
-1.559983730316162 -0.8392931818962097 2.601848602294922 139 139 139
-1.8426933288574219 -1.0314958095550537 2.6650819778442383 139 139 139
0.5518872737884521 0.12818299233913422 2.2579119205474854 19 19 19
-1.3812493085861206 0.11817845702171326 2.8972883224487305 42 42 42
0.49062472581863403 0.12619061768054962 2.2855703830718994 120 120 120
-1.3526546955108643 0.06706095486879349 2.922518730163574 112 112 112
-1.4526407718658447 -0.6627554297447205 3.016936779022217 21 21 21
-1.5431771278381348 0.11647246032953262 3.2014541625976562 22 22 22
-1.4937925338745117 -0.18960337340831757 3.145054340362549 28 28 28
-1.5454003810882568 -0.2023065835237503 3.23110294342041 30 30 30
-1.6472383737564087 -0.07494965195655823 3.316105365753174 128 128 128
-1.5556224584579468 -1.1759763956069946 3.2411386966705322 73 73 73
-1.608189582824707 -1.1455261707305908 3.3215649127960205 154 154 154
-0.04864826798439026 0.3406006991863251 2.635613441467285 131 131 131
-0.03388229012489319 0.3612023591995239 2.6770570278167725 127 127 127
-1.3158115148544312 -0.6129210591316223 3.459265947341919 108 108 108
-0.011478585191071033 0.22107000648975372 2.7441399097442627 132 132 132
-1.2821836471557617 -0.5643991231918335 3.6300947666168213 109 109 109
-1.2821836471557617 -0.5643991231918335 3.6300947666168213 109 109 109
0.26597920060157776 0.686914324760437 2.8337557315826416 72 72 72
-0.19346535205841064 0.40307360887527466 3.1834511756896973 112 112 112
-0.18978872895240784 0.38953274488449097 3.2107057571411133 46 46 46
-0.20282329618930817 0.3714173138141632 3.2205824851989746 46 46 46
1.6460741758346558 0.22367775440216064 2.0105957984924316 56 56 56
-0.2072981595993042 0.3830879330635071 3.310765504837036 158 158 158
1.4323492050170898 0.23018406331539154 2.1264114379882812 42 42 42
-0.9123756289482117 0.2939850986003876 4.168715953826904 135 135 135
1.4101935625076294 0.04322582110762596 2.2126553058624268 49 49 49
-0.8191995024681091 -0.01947036013007164 4.053088188171387 114 114 114
1.6443772315979004 -0.08487292379140854 2.014396905899048 39 39 39
-0.21637696027755737 0.34022757411003113 3.5735855102539062 141 141 141
1.462630033493042 0.25835153460502625 2.1160998344421387 161 161 161
-0.28909942507743835 0.29980015754699707 3.652365207672119 18 18 18
-0.24646563827991486 0.3354165852069855 3.622358560562134 35 35 35
1.271310806274414 0.2197360098361969 2.2248547077178955 53 53 53
-0.23032957315444946 0.33670559525489807 3.6343936920166016 36 36 36
1.466314673423767 -0.15616615116596222 2.121251344680786 23 23 23
-0.23714298009872437 0.3317657709121704 3.754330635070801 30 30 30
-0.22580406069755554 0.2805017828941345 3.820448875427246 203 203 203
1.4104498624801636 0.1971946507692337 2.2029314041137695 83 83 83
-0.6052504777908325 -0.06933985650539398 4.212512969970703 137 137 137
1.1889655590057373 -0.1260271519422531 2.486454486846924 34 34 34
-0.5520107746124268 -0.09137916564941406 4.24980354309082 50 50 50
-0.5880243182182312 0.007289418485015631 4.422728538513184 147 147 147
1.502991795539856 0.13167496025562286 2.1521425247192383 126 126 126
0.6013836860656738 0.274946004152298 3.196885824203491 185 185 185
1.662015676498413 0.004183787852525711 2.0853140354156494 15 15 15
-0.9395700693130493 0.3508269190788269 1.8482052087783813 53 53 53
-0.8038138151168823 0.5366178154945374 1.9129974842071533 63 63 63
-0.7809826135635376 0.3646262586116791 1.9497421979904175 239 239 239
-1.403105616569519 0.18222208321094513 1.999168038368225 67 67 67
-0.7758724689483643 0.6554358005523682 2.0197436809539795 160 160 160
-0.7758724689483643 0.6554358005523682 2.0197436809539795 160 160 160
-0.7921709418296814 0.36723336577415466 1.992709755897522 197 197 197
-0.8414991497993469 0.3289633095264435 2.006507396697998 116 116 116
-1.4023184776306152 0.13359402120113373 2.0322213172912598 188 188 188
-0.8274682760238647 0.3456321656703949 2.037830114364624 226 226 226
-0.8274682760238647 0.3456321656703949 2.037830114364624 226 226 226
-1.258898138999939 0.19072473049163818 2.0615034103393555 55 55 55
-0.8194037675857544 0.34465399384498596 2.038081169128418 226 226 226
-0.7895880937576294 0.35620176792144775 2.0521318912506104 122 122 122
-0.7805549502372742 0.6770480871200562 2.1185569763183594 105 105 105
-0.7877905964851379 0.6854231953620911 2.120368003845215 108 108 108
-1.5603535175323486 0.1187196746468544 2.184709072113037 202 202 202
-1.2181131839752197 0.11553960293531418 2.1780967712402344 202 202 202
-0.9039191603660583 0.5843245387077332 2.256495475769043 29 29 29
-0.9471895098686218 0.31389760971069336 2.2474417686462402 230 230 230
-0.022958850488066673 0.6379309296607971 2.138258934020996 194 194 194
-0.92391037940979 0.38043084740638733 2.272331953048706 151 151 151
0.1565561592578888 0.21135951578617096 2.0886495113372803 12 12 12
-1.0432921648025513 0.3626294732093811 2.3645870685577393 47 47 47
-1.24863600730896 0.5478793382644653 2.467437982559204 21 21 21
-1.0819798707962036 0.3790201246738434 2.4145827293395996 66 66 66
0.528030514717102 0.26515260338783264 2.193258047103882 126 126 126
-0.7530993819236755 -0.6590638756752014 2.3989689350128174 146 146 146
-1.1509991884231567 -0.8129575252532959 2.463097333908081 146 146 146
-1.4688239097595215 -0.9489557147026062 2.51263165473938 146 146 146
0.6399023532867432 -0.20710580050945282 2.1636855602264404 146 146 146
1.437738060951233 0.025209225714206696 2.022961378097534 146 146 146
-1.2651175260543823 0.14680808782577515 2.8715455532073975 42 42 42
-1.467332363128662 -0.3885914981365204 2.868790864944458 4 4 4
-1.2872692346572876 0.09269235283136368 2.883784532546997 27 27 27
-0.31633371114730835 0.5595719814300537 2.6189889907836914 97 97 97
-0.30681100487709045 0.5754913091659546 2.631939172744751 18 18 18
-0.2983314096927643 0.5465273261070251 2.648669719696045 24 24 24
1.1597572565078735 0.28053998947143555 2.0859155654907227 139 139 139
1.1597572565078735 0.28053998947143555 2.0859155654907227 139 139 139
1.1628975868225098 0.28011736273765564 2.085944652557373 139 139 139
-0.22688035666942596 0.5462319254875183 2.6634628772735596 13 13 13
-1.4069479703903198 0.03367147222161293 3.057831048965454 116 116 116
-1.3431998491287231 0.027644971385598183 3.1135172843933105 79 79 79
-1.3431998491287231 0.027644971385598183 3.1135172843933105 79 79 79
0.7288757562637329 0.42856964468955994 2.307478666305542 22 22 22
-1.2941091060638428 0.1409877985715866 3.122860908508301 22 22 22
-0.27118247747421265 0.26225966215133667 2.717395782470703 64 64 64
-0.25062429904937744 0.31457772850990295 2.7170281410217285 117 117 117
-1.3101404905319214 0.08023287355899811 3.145298480987549 107 107 107
-1.4546352624893188 -0.04511808604001999 3.1900858879089355 60 60 60
-1.4618369340896606 -0.3513692021369934 3.177405595779419 55 55 55
-1.444684386253357 -0.46617579460144043 3.156609535217285 13 13 13
-1.4099048376083374 -0.037759929895401 3.2335915565490723 128 128 128
-1.4808340072631836 -0.5864333510398865 3.188375949859619 28 28 28
-0.1716749519109726 0.49324551224708557 2.7596073150634766 21 21 21
-0.19538907706737518 0.3508778214454651 2.750657558441162 53 53 53
-0.23468774557113647 0.2770498991012573 2.7778542041778564 117 117 117
-0.23002955317497253 0.2540602385997772 2.7782022953033447 79 79 79
-0.1527683138847351 0.36841264367103577 2.770703077316284 25 25 25
-0.06577052921056747 0.516315221786499 2.761913776397705 127 127 127
-0.20364943146705627 0.3675995171070099 2.9332311153411865 21 21 21
1.35527765750885 0.23196840286254883 2.0901572704315186 24 24 24
-1.1449514627456665 -0.52016282081604 3.5586774349212646 109 109 109
-0.32467660307884216 0.31800779700279236 3.218756675720215 171 171 171
-0.21188879013061523 0.3756121098995209 3.2267963886260986 46 46 46
-0.30817022919654846 0.2955692410469055 3.367579460144043 193 193 193
-1.0780930519104004 -0.7116414308547974 3.75852108001709 119 119 119
-1.0780930519104004 -0.7116414308547974 3.75852108001709 119 119 119
-0.17578771710395813 0.32519856095314026 3.3833060264587402 156 156 156
-0.12995123863220215 0.37964993715286255 3.358889579772949 49 49 49
-0.8275007009506226 -0.5109754204750061 3.762341022491455 185 185 185
-0.231753870844841 0.28566500544548035 3.4646904468536377 45 45 45
-0.19612286984920502 0.29976433515548706 3.4426584243774414 144 144 144
-0.8966805934906006 -0.5955278277397156 3.876103401184082 143 143 143
-0.4568932056427002 0.17272083461284637 3.6859700679779053 44 44 44
-0.6482186317443848 -0.2812020182609558 3.7731618881225586 84 84 84
-0.5315387845039368 -0.058262646198272705 3.7175896167755127 62 62 62
-0.4025631844997406 0.23525302112102509 3.675605058670044 25 25 25
-0.18556076288223267 0.3016357421875 3.515343427658081 131 131 131
-0.4615709185600281 0.02734651230275631 3.7004733085632324 26 26 26
-0.7046963572502136 -0.3186852037906647 3.86346435546875 129 129 129
0.7759561538696289 0.2833487093448639 2.781625270843506 113 113 113
-0.505112886428833 -0.05332674831151962 3.81113338470459 58 58 58
-0.39269059896469116 -0.06306635588407516 3.7229583263397217 67 67 67
-0.45555877685546875 -0.12466252595186234 3.787614107131958 174 174 174
-0.3820533752441406 -0.041290950030088425 3.7578272819519043 158 158 158
-0.3820533752441406 -0.041290950030088425 3.7578272819519043 158 158 158
-0.5589014887809753 -0.2825150489807129 3.8767635822296143 35 35 35
-0.3998873829841614 -0.08957704156637192 3.782686948776245 163 163 163
-0.3998873829841614 -0.08957704156637192 3.782686948776245 163 163 163
-0.4763910472393036 -0.25665828585624695 3.8239893913269043 26 26 26
-0.2560557425022125 0.152828648686409 3.729006290435791 25 25 25
-0.3739844262599945 -0.10982243716716766 3.82523250579834 35 35 35
-0.054388634860515594 0.2698585093021393 3.606935501098633 28 28 28
0.0025169544387608767 0.31853771209716797 3.564218282699585 45 45 45
0.02339189499616623 0.32807859778404236 3.548219919204712 120 120 120
0.02339189499616623 0.32807859778404236 3.548219919204712 120 120 120
-0.20742610096931458 0.0860072672367096 3.723825216293335 23 23 23
-0.6585964560508728 -0.5019369125366211 4.037323474884033 41 41 41
-0.24075104296207428 -0.025807136669754982 3.7490174770355225 36 36 36
-0.7230542898178101 -0.6370954513549805 4.090094566345215 29 29 29
-0.0049428315833210945 0.2656930387020111 3.588726043701172 183 183 183
-0.19303461909294128 0.028599416837096214 3.75066876411438 156 156 156
-0.19303461909294128 0.028599416837096214 3.75066876411438 156 156 156
1.1271036863327026 -0.1481480747461319 2.5130999088287354 143 143 143
0.03121822513639927 0.2474014014005661 3.5963263511657715 203 203 203
-0.2506825029850006 -0.038579631596803665 3.827979803085327 42 42 42
-0.2589869201183319 -0.08870434761047363 3.8342552185058594 165 165 165
1.5936932563781738 0.15109926462173462 2.128380298614502 95 95 95
-0.14140595495700836 0.06416779011487961 3.827049732208252 51 51 51
-0.19377584755420685 -0.07553683966398239 3.8791391849517822 161 161 161
0.02181232161819935 0.07058949023485184 3.749560594558716 55 55 55
0.02181232161819935 0.07058949023485184 3.749560594558716 55 55 55
0.020244449377059937 0.08052486181259155 3.7673120498657227 188 188 188
0.0511864610016346 0.0065916054882109165 3.7656588554382324 145 145 145
1.6563748121261597 0.11459357291460037 2.1582345962524414 153 153 153
1.6785483360290527 0.0007834355928935111 2.1027777194976807 42 42 42
-2.1706600189208984 -0.20152749121189117 4.695899963378906 143 143 143
-1.0178427696228027 -0.6028813123703003 3.7126147747039795 98 98 98
-0.9995518922805786 -0.6068479418754578 3.7206003665924072 122 122 122
-0.5686666369438171 0.19711285829544067 2.252531051635742 78 78 78
-0.30386587977409363 0.31414270401000977 2.5154519081115723 34 34 34
-0.2973344326019287 0.29273805022239685 2.513857364654541 123 123 123
-0.44859760999679565 0.07651694864034653 3.9096693992614746 28 28 28
-0.2658552825450897 0.5921542048454285 2.3947300910949707 171 171 171
-0.21178890764713287 0.08183590322732925 3.93613338470459 181 181 181
-0.11932233721017838 0.6237429976463318 3.0249428749084473 162 162 162
-0.04945673793554306 0.5395207405090332 3.2610764503479004 40 40 40
-0.028462029993534088 -0.024981217458844185 3.6900596618652344 60 60 60
0.2331141233444214 0.27613458037376404 2.7516558170318604 135 135 135
0.2753395140171051 0.2939601242542267 3.1875524520874023 164 164 164
0.2563920021057129 0.14180181920528412 2.438591480255127 129 129 129
0.6567503213882446 0.46986058354377747 2.782348155975342 94 94 94
-0.9776355028152466 0.5539876818656921 2.6269166469573975 123 123 123
-0.743573784828186 0.48509442806243896 2.3605735301971436 33 33 33
-0.9666541814804077 0.5337780714035034 2.649142265319824 26 26 26
0.11141829937696457 0.024960020557045937 2.3750855922698975 78 78 78
-0.13689881563186646 0.30044057965278625 3.1531739234924316 160 160 160
-0.12923644483089447 0.36078816652297974 3.1226255893707275 27 27 27
-0.08709151297807693 0.2680213153362274 3.4416284561157227 38 38 38
0.8507532477378845 0.21859951317310333 2.6143226623535156 22 22 22
0.9876774549484253 0.24575868248939514 2.7529358863830566 156 156 156
1.0489476919174194 0.27205604314804077 2.652266025543213 90 90 90
1.0947439670562744 0.44489237666130066 2.68092942237854 46 46 46
0.08344758301973343 -0.0672508031129837 2.5476012229919434 30 30 30
0.1368175595998764 0.3309306800365448 2.5322647094726562 31 31 31
-1.0634218454360962 -0.36096978187561035 4.335151195526123 141 141 141
-0.6606308221817017 -0.0847119614481926 3.9859158992767334 195 195 195
-0.3791907727718353 0.32335492968559265 3.664686918258667 86 86 86
0.6643683314323425 0.46912166476249695 2.849308967590332 70 70 70
0.5664035677909851 0.18680523335933685 2.958261013031006 204 204 204
0.8956965208053589 0.30866488814353943 2.5737578868865967 33 33 33
0.9752561450004578 0.27922654151916504 2.7835795879364014 155 155 155
1.3016679286956787 -0.07013774663209915 2.5712032318115234 115 115 115
-0.17269662022590637 -0.07001502811908722 3.0531973838806152 212 212 212
0.45726972818374634 0.009369440376758575 2.4544992446899414 129 129 129
0.44125601649284363 0.06578311324119568 2.460832118988037 129 129 129
-0.21497264504432678 0.32794511318206787 3.22745943069458 147 147 147
0.04758690670132637 0.32378923892974854 3.117234468460083 28 28 28
-0.022657880559563637 0.3296564221382141 3.2001376152038574 144 144 144
1.0039395093917847 0.45151033997535706 2.6410796642303467 93 93 93
1.239905834197998 -0.0725390687584877 2.6212706565856934 48 48 48
1.3069055080413818 0.2306918352842331 2.601318597793579 120 120 120
0.3991275131702423 0.1222166195511818 2.4958226680755615 39 39 39
-0.21721841394901276 0.3652234375476837 3.1968984603881836 93 93 93
-0.2238767296075821 0.33266738057136536 3.202897310256958 152 152 152
-1.0034319162368774 -0.6128334999084473 3.7355000972747803 122 122 122
-0.2056678831577301 0.358048677444458 3.2229695320129395 166 166 166
-0.09711873531341553 0.4822326898574829 3.1484458446502686 153 153 153
-0.17085710167884827 0.390517920255661 3.317660093307495 163 163 163
-0.18718838691711426 0.32458099722862244 3.434229612350464 48 48 48
0.7812853455543518 0.08689393848180771 2.7699153423309326 122 122 122
-0.14350754022598267 0.20243574678897858 3.8188772201538086 197 197 197
-1.7223671674728394 0.13190901279449463 2.1413676738739014 129 129 129
-1.444573163986206 0.6518582701683044 2.422210931777954 147 147 147
-2.3880481719970703 -0.1579575389623642 2.891535997390747 152 152 152
0.2575770914554596 0.12702812254428864 2.445357084274292 101 101 101
-0.7357284426689148 0.06002529338002205 2.661391019821167 64 64 64
-0.4456871747970581 -0.06428103148937225 2.591686248779297 101 101 101
-0.7472858428955078 -0.1604161560535431 2.652132987976074 101 101 101
-1.7387726306915283 -0.5725411176681519 2.841590642929077 101 101 101
-2.3329854011535645 -0.6324882507324219 3.176462173461914 131 131 131
-0.7247487902641296 0.253729909658432 2.797649383544922 55 55 55
-0.03985058143734932 0.034817129373550415 2.4989287853240967 60 60 60
-0.020264824852347374 0.04132293537259102 2.5410611629486084 113 113 113
-0.24160462617874146 0.3586321175098419 3.1712806224823 91 91 91
0.005753637757152319 0.45181718468666077 3.195547103881836 151 151 151
-0.16278713941574097 0.36508893966674805 3.4231646060943604 90 90 90
1.244152307510376 -0.1283469945192337 2.4405674934387207 109 109 109
0.2755928933620453 0.3179467022418976 3.3965578079223633 10 10 10
1.1668331623077393 -0.028286226093769073 2.522019624710083 78 78 78
0.16899345815181732 -0.3739117383956909 3.5159966945648193 187 187 187
-1.6675599813461304 -0.4020712077617645 3.202223062515259 23 23 23
-1.6489758491516113 -0.3986475169658661 3.1985576152801514 23 23 23
-1.7226587533950806 -0.060550738126039505 3.3804593086242676 143 143 143
-1.6146131753921509 -0.4703398644924164 3.2726891040802 65 65 65
-1.7014811038970947 -0.2519395649433136 3.3508031368255615 48 48 48
-1.730870008468628 -1.180782675743103 3.255244493484497 66 66 66
-1.7170242071151733 -1.1752303838729858 3.2526538372039795 66 66 66
0.1560489982366562 0.23823650181293488 2.7665154933929443 70 70 70
-0.2437199205160141 0.38344332575798035 3.2019402980804443 37 37 37
-0.2282034456729889 0.36771053075790405 3.2011728286743164 93 93 93
-0.22549618780612946 0.40659892559051514 3.228437900543213 133 133 133
-0.20384708046913147 0.3739486038684845 3.2368340492248535 43 43 43
0.05248767137527466 0.45017167925834656 3.206897735595703 157 157 157
-0.1803330034017563 0.33661532402038574 3.3725502490997314 156 156 156
0.8900966644287109 -0.002081585582345724 2.6283981800079346 124 124 124
-0.10085703432559967 0.3609744906425476 3.4058003425598145 32 32 32
0.7035639882087708 0.04538396745920181 2.8730220794677734 143 143 143
0.5788046717643738 0.003634277731180191 2.956012010574341 143 143 143
-0.6766902208328247 -0.1277148723602295 3.858872413635254 166 166 166
-0.7216775417327881 -0.26824837923049927 3.878620147705078 138 138 138
1.084094524383545 0.09708504378795624 2.5397939682006836 175 175 175
-0.6400749087333679 -0.34701353311538696 3.884690046310425 30 30 30
-0.5802667140960693 -0.2922687828540802 3.8947410583496094 40 40 40
-0.5639265775680542 -0.09698819369077682 3.923896074295044 195 195 195
-0.24963676929473877 0.04681667312979698 3.7635622024536133 30 30 30
-0.11587755382061005 -0.5339050889015198 3.5541746616363525 185 185 185
-0.2396630197763443 -0.025369348004460335 3.819369316101074 161 161 161
-0.1703365445137024 0.05793372541666031 3.7775776386260986 56 56 56
-0.14452128112316132 0.017345987260341644 3.7511374950408936 74 74 74
-0.23372142016887665 -0.030149010941386223 3.8405628204345703 48 48 48
-0.19710910320281982 0.0037781938444823027 3.850490093231201 148 148 148
-0.18002939224243164 -0.014059486798942089 3.870553731918335 166 166 166
-0.12299447506666183 -0.005980658810585737 3.8539679050445557 160 160 160
0.2056504189968109 0.2283126264810562 3.5660083293914795 206 206 206
0.6442446708679199 -0.31500163674354553 3.124011278152466 48 48 48
0.37542444467544556 0.27043241262435913 2.286010503768921 60 60 60
-1.3185261487960815 0.3909475803375244 2.1695303916931152 127 127 127
-1.6406210660934448 0.30834153294563293 2.1635453701019287 219 219 219
-1.6234930753707886 0.14666098356246948 2.2252845764160156 239 239 239
-1.8740829229354858 0.27529218792915344 2.390434741973877 183 183 183
1.1853506565093994 0.13238462805747986 2.409594774246216 152 152 152
-1.7821953296661377 0.26684221625328064 2.5993800163269043 94 94 94
-3.7779653072357178 -1.8500792980194092 3.3082923889160156 98 98 98
-2.2828660011291504 -0.6276863813400269 3.001340866088867 152 152 152
-0.5055580139160156 -0.1154489815235138 2.7339587211608887 152 152 152
-1.8397706747055054 0.048103898763656616 3.0449929237365723 153 153 153
-0.24904873967170715 0.3773299753665924 2.683642864227295 92 92 92
-0.287059485912323 0.25917497277259827 2.6812968254089355 180 180 180
-0.24366915225982666 0.36309707164764404 2.685528039932251 32 32 32
-1.825677514076233 0.07364620268344879 3.087737798690796 124 124 124
-0.24948455393314362 0.42484650015830994 2.7031686305999756 24 24 24
-0.2046366035938263 0.4228132367134094 2.7176828384399414 48 48 48
-1.860033631324768 -0.32430344820022583 3.1300008296966553 136 136 136
-0.30598071217536926 0.1723177433013916 2.790614366531372 153 153 153
-0.22148311138153076 0.3240806460380554 2.7323689460754395 112 112 112
-0.22148311138153076 0.3240806460380554 2.7323689460754395 112 112 112
-1.68712317943573 -0.5563144087791443 3.093921184539795 70 70 70
-1.7256624698638916 -0.5249499678611755 3.1203694343566895 56 56 56
-1.7979350090026855 -0.2155468910932541 3.20172381401062 127 127 127
-1.7081340551376343 -0.8147304654121399 3.1324520111083984 44 44 44
-1.7256144285202026 -0.7390628457069397 3.2068183422088623 134 134 134
-1.9726836681365967 -0.3188347816467285 3.381413698196411 32 32 32
-1.7490578889846802 -0.4927104711532593 3.282355785369873 193 193 193
-1.954413890838623 -0.31810179352760315 3.3990185260772705 153 153 153
-1.8938933610916138 -0.2822149693965912 3.3962690830230713 48 48 48
-1.7683417797088623 -0.6279208660125732 3.315286874771118 58 58 58
-1.926559329032898 -0.05723002180457115 3.4873416423797607 96 96 96
-0.34133684635162354 0.35694363713264465 3.173595428466797 34 34 34
-0.19459377229213715 0.5017839670181274 3.1234290599823 216 216 216
-1.3417279720306396 -1.182509422302246 3.4831249713897705 160 160 160
-0.2996000647544861 0.3421822190284729 3.179206132888794 43 43 43
-0.2888077199459076 0.34968721866607666 3.1838538646698 31 31 31
-0.28317612409591675 0.35254737734794617 3.182178497314453 34 34 34
-0.14994576573371887 0.47862473130226135 3.147777557373047 213 213 213
-0.28860411047935486 0.2922420799732208 3.2066760063171387 43 43 43
-0.2591363191604614 0.3069457411766052 3.1966233253479004 180 180 180
-0.2427753359079361 0.3050561547279358 3.1906533241271973 180 180 180
-0.23722058534622192 0.37964963912963867 3.199702739715576 37 37 37
-0.22616992890834808 0.33255547285079956 3.204350471496582 152 152 152
-0.1960861086845398 0.3728625178337097 3.217494010925293 37 37 37
-0.22695881128311157 0.3218593895435333 3.2394211292266846 146 146 146
-0.29354897141456604 0.31616687774658203 3.3211660385131836 172 172 172
-0.29354897141456604 0.31616687774658203 3.3211660385131836 172 172 172
-0.20416076481342316 0.36836177110671997 3.2761762142181396 141 141 141
0.016742214560508728 0.4703807234764099 3.1610069274902344 127 127 127
0.016742214560508728 0.4703807234764099 3.1610069274902344 127 127 127
-0.24530142545700073 0.3419630229473114 3.320852041244507 100 100 100
0.04494543373584747 0.47717058658599854 3.173178195953369 214 214 214
-0.1842644214630127 0.3707132339477539 3.30782413482666 159 159 159
-0.21042610704898834 0.3380090296268463 3.3426077365875244 163 163 163
-0.9835125207901001 -0.05564986541867256 3.7804505825042725 55 55 55
-0.22062557935714722 0.32675886154174805 3.3599603176116943 164 164 164
-0.22062557935714722 0.32675886154174805 3.3599603176116943 164 164 164
-0.23419494926929474 0.3082364499568939 3.3723864555358887 35 35 35
-0.14823049306869507 0.3601268529891968 3.3484160900115967 168 168 168
-0.147548645734787 0.3597588837146759 3.3481862545013428 168 168 168
-0.147548645734787 0.3597588837146759 3.3481862545013428 168 168 168
-0.12584196031093597 0.3728313744068146 3.3462259769439697 156 156 156
-1.0635415315628052 -0.9218571186065674 3.783917188644409 186 186 186
-0.1258154660463333 0.3534940481185913 3.357806921005249 94 94 94
-0.1637505143880844 0.3080199956893921 3.3910186290740967 160 160 160
-0.257766991853714 0.2860322594642639 3.4631550312042236 63 63 63
-0.10709965229034424 0.3323860168457031 3.380016326904297 95 95 95
-0.10556171089410782 0.3167191743850708 3.3882126808166504 48 48 48
-0.10556171089410782 0.3167191743850708 3.3882126808166504 48 48 48
0.1455991119146347 -0.12451300770044327 3.237010955810547 204 204 204
0.0778249055147171 -0.20168612897396088 3.3088502883911133 143 143 143
-0.17017759382724762 0.28097593784332275 3.485109806060791 90 90 90
-0.12460236996412277 0.2891186475753784 3.459962844848633 39 39 39
-0.6578224897384644 -0.006999409757554531 3.8213369846343994 37 37 37
-4.177212238311768 -0.5073373317718506 6.1235880851745605 37 37 37
-0.7148473262786865 -0.5445552468299866 3.7867348194122314 48 48 48
-0.7089237570762634 -0.4420962929725647 3.824495553970337 45 45 45
-0.6435415744781494 -0.1192120760679245 3.8310718536376953 166 166 166
-0.046466678380966187 0.2962973713874817 3.455198287963867 86 86 86
-0.046466678380966187 0.2962973713874817 3.455198287963867 86 86 86
-0.6143816113471985 -0.26890408992767334 3.832127809524536 35 35 35
-0.6019731163978577 -0.3399542570114136 3.847849130630493 49 49 49
-0.6019731163978577 -0.3399542570114136 3.847849130630493 49 49 49
-0.5189822912216187 -0.24596132338047028 3.830919027328491 26 26 26
0.9867429733276367 0.18834970891475677 2.717336893081665 151 151 151
-0.5441163182258606 -0.6074070334434509 3.8011720180511475 49 49 49
1.0757116079330444 0.09436048567295074 2.631916046142578 55 55 55
-0.5276763439178467 -0.3594563603401184 3.889061212539673 36 36 36
-0.27488794922828674 0.0006165303639136255 3.759120464324951 21 21 21
-0.46302226185798645 -0.14502228796482086 3.8996684551239014 116 116 116
-0.30790460109710693 -0.03713935986161232 3.7852182388305664 82 82 82
-0.4097480773925781 -0.20961357653141022 3.8689725399017334 54 54 54
-0.19460006058216095 0.048935484141111374 3.726508140563965 38 38 38
-0.40261250734329224 -0.24155403673648834 3.8687477111816406 141 141 141
-0.3924568295478821 -0.5254210829734802 3.8242475986480713 43 43 43
-0.385769248008728 -0.5227116942405701 3.8195853233337402 43 43 43
1.2394344806671143 0.20048518478870392 2.6152050495147705 70 70 70
1.1872100830078125 0.17474493384361267 2.602235794067383 44 44 44
-0.269453227519989 -0.06060444191098213 3.8392930030822754 177 177 177
-0.12113978713750839 0.022534385323524475 3.7303285598754883 74 74 74
-0.12807874381542206 0.02800746075809002 3.744792938232422 72 72 72
-0.21520286798477173 -0.04979676380753517 3.827085018157959 177 177 177
-0.09450922906398773 0.033888038247823715 3.730175733566284 71 71 71
-0.04449817165732384 0.06957735866308212 3.7082056999206543 52 52 52
0.19116994738578796 0.19802884757518768 3.5329716205596924 32 32 32
0.1974775642156601 0.19149331748485565 3.540904998779297 197 197 197
0.03901752457022667 0.08885276317596436 3.7185161113739014 181 181 181
1.179661512374878 0.23335368931293488 2.6864917278289795 160 160 160
0.05394996702671051 0.08531683683395386 3.736774444580078 188 188 188
0.9938286542892456 0.2083028107881546 2.8624777793884277 163 163 163
1.0016661882400513 0.20586472749710083 2.860520362854004 219 219 219
-0.4461837410926819 -0.21978315711021423 3.171295166015625 70 70 70
-0.20870430767536163 0.1827852725982666 3.0694949626922607 105 105 105
-0.06699486076831818 0.30905383825302124 3.3491945266723633 193 193 193
-0.03912133723497391 0.4140501022338867 3.2897238731384277 146 146 146
-1.475152611732483 0.9592487215995789 4.124779224395752 151 151 151
-1.0252605676651 -0.6195207834243774 3.7698967456817627 82 82 82
-0.36816295981407166 -0.5610232949256897 2.954279661178589 151 151 151
-0.09569017589092255 0.3762141466140747 2.6987593173980713 196 196 196
-0.01716712675988674 0.2822719216346741 3.4285900592803955 142 142 142
0.7071837782859802 0.20741111040115356 3.0252139568328857 54 54 54
0.7731493711471558 0.15574705600738525 3.010218620300293 59 59 59
0.8973252177238464 0.2264629751443863 2.9177095890045166 56 56 56
-0.5061783790588379 0.05718653276562691 2.863807201385498 95 95 95
-0.8758879899978638 0.572422206401825 3.1932730674743652 236 236 236
-1.0991185903549194 -0.06675830483436584 3.868468761444092 54 54 54
-0.8081039190292358 -0.507404625415802 3.901611804962158 140 140 140
-0.03567202761769295 0.37674272060394287 3.0635807514190674 236 236 236
0.46066170930862427 0.19973278045654297 2.804229259490967 126 126 126
0.5213180780410767 0.23542314767837524 3.1166632175445557 43 43 43
0.6986513137817383 0.40601983666419983 2.8750853538513184 113 113 113
-1.2377814054489136 0.3532605469226837 3.3394992351531982 36 36 36
0.03422261029481888 0.4701508581638336 2.741551160812378 66 66 66
-0.24329404532909393 0.012158920988440514 3.3162755966186523 126 126 126
0.34511229395866394 0.42650729417800903 2.9103245735168457 47 47 47
0.6554005146026611 0.4664327800273895 2.838010311126709 55 55 55
0.7033807039260864 0.2761858105659485 2.883873701095581 132 132 132
-2.392381191253662 -0.452247679233551 3.5141115188598633 170 170 170
-1.8095401525497437 -0.4282432496547699 3.3705923557281494 114 114 114
-0.5193415880203247 0.23355567455291748 2.7643868923187256 96 96 96
0.4735051393508911 0.46429526805877686 2.7791502475738525 124 124 124
-0.8495772480964661 -0.2877654731273651 3.987109422683716 134 134 134
-0.6967945098876953 -0.08958319574594498 4.032711505889893 174 174 174
0.8868246674537659 -0.04716354236006737 2.8866384029388428 121 121 121
0.8879876732826233 -0.04742345213890076 2.8863444328308105 121 121 121
-7.8109307289123535 2.5104987621307373 2.8495497703552246 100 100 100
-1.481104850769043 0.6519513726234436 2.5016372203826904 161 161 161
-10.474702835083008 2.8463375568389893 5.699140548706055 88 88 88
-2.394899606704712 0.6114402413368225 3.0875823497772217 54 54 54
-0.5817295908927917 0.026990322396159172 2.6837754249572754 140 140 140
-2.3210372924804688 0.48711082339286804 3.066232442855835 54 54 54
-2.2540643215179443 0.38460779190063477 3.048682928085327 54 54 54
-2.236816883087158 0.3589513301849365 3.044232130050659 54 54 54
-1.0950636863708496 -0.2059408724308014 2.7319674491882324 140 140 140
-2.173184871673584 0.2810397446155548 3.0298962593078613 54 54 54
-1.2284045219421387 -0.37341785430908203 2.726043462753296 93 93 93
-2.025254726409912 0.1552286148071289 3.001765012741089 54 54 54
-1.9930219650268555 0.13537567853927612 2.9962265491485596 54 54 54
-1.734196662902832 0.009175598621368408 2.9501307010650635 54 54 54
-0.07965826988220215 -0.16386201977729797 2.6515161991119385 54 54 54
