ply
format ascii 1.0
element vertex 719
property float x
property float y
property float z
property uchar red
property uchar green
property uchar blue
end_header
-8.192058563232422 -5.812102794647217 25.2313232421875 24 24 24
-8.54769515991211 -5.125654697418213 26.361129760742188 41 41 41
-3.202021837234497 5.278943061828613 9.952797889709473 75 75 75
-3.202021837234497 5.278943061828613 9.952797889709473 75 75 75
-8.66654109954834 -7.9849853515625 27.087841033935547 66 66 66
-8.357571601867676 -2.605029821395874 26.22954559326172 43 43 43
-8.80844497680664 -2.9123387336730957 27.68233871459961 43 43 43
-8.121989250183105 0.5690484046936035 25.7733154296875 55 55 55
-9.62151050567627 -8.588579177856445 31.289796829223633 58 58 58
-3.872565984725952 4.692689895629883 12.554292678833008 105 105 105
-8.260322570800781 1.490682601928711 27.202856063842773 49 49 49
-3.2100565433502197 5.168381690979004 10.495503425598145 105 105 105
-5.861424446105957 2.976806402206421 19.103960037231445 93 93 93
-2.481534004211426 5.4173054695129395 8.257789611816406 62 62 62
-8.674381256103516 -4.229125499725342 28.56488800048828 25 25 25
-8.60334300994873 -3.683936595916748 28.465614318847656 26 26 26
-8.629593849182129 -3.231154680252075 28.62766456604004 26 26 26
-8.628631591796875 -2.6548776626586914 28.755273818969727 24 24 24
-8.44924259185791 1.259263277053833 28.18271255493164 94 94 94
-8.499074935913086 -6.957074165344238 28.35983657836914 61 61 61
-8.668049812316895 -5.248941421508789 29.082334518432617 9 9 9
-8.668049812316895 -5.248941421508789 29.082334518432617 9 9 9
-2.9451498985290527 5.233481407165527 9.862357139587402 83 83 83
-8.708030700683594 -2.2026073932647705 29.183015823364258 31 31 31
-3.868096113204956 4.863882064819336 12.99357795715332 83 83 83
-8.657001495361328 -1.5885581970214844 29.08453369140625 28 28 28
-4.457210063934326 4.10400915145874 15.004460334777832 71 71 71
-8.55675983428955 -1.8566069602966309 28.93248748779297 58 58 58
-8.634308815002441 -0.5417584180831909 29.244096755981445 31 31 31
-8.622692108154297 -0.04761833697557449 29.321147918701172 36 36 36
-8.512969017028809 -5.475353240966797 29.410449981689453 41 41 41
-8.548885345458984 0.9600457549095154 29.395315170288086 29 29 29
-8.512555122375488 -5.475101470947266 29.409198760986328 41 41 41
-8.512555122375488 -5.475101470947266 29.409198760986328 41 41 41
-9.403229713439941 1.517480492591858 32.125633239746094 70 70 70
-3.5487096309661865 4.662441253662109 12.653998374938965 70 70 70
-8.650212287902832 -6.759701728820801 31.477100372314453 35 35 35
-8.76105785369873 -2.9703404903411865 32.10401916503906 27 27 27
-8.690053939819336 -5.7299323081970215 31.97200584411621 27 27 27
-8.76738452911377 -2.7102558612823486 32.38146209716797 90 90 90
-3.079904556274414 4.912486553192139 11.442550659179688 90 90 90
-3.079904556274414 4.912486553192139 11.442550659179688 90 90 90
-7.684510231018066 1.0759443044662476 28.954607009887695 93 93 93
-8.247163772583008 -3.6813716888427734 31.19501304626465 206 206 206
-9.562531471252441 -3.2189650535583496 36.468936920166016 45 45 45
-5.197589874267578 -7.175507545471191 20.152233123779297 253 253 253
-8.683639526367188 -2.126373291015625 33.72018051147461 50 50 50
-8.442854881286621 -3.5026726722717285 32.78417205810547 41 41 41
-8.424166679382324 -3.7635622024536133 32.94837951660156 35 35 35
-8.113934516906738 -4.624271392822266 31.71749496459961 32 32 32
-8.017990112304688 -3.6351451873779297 31.808435440063477 40 40 40
-8.900686264038086 -5.806023597717285 35.28658676147461 29 29 29
-10.681573867797852 -1.1856708526611328 42.43025588989258 60 60 60
-8.826338768005371 -4.369833946228027 36.226688385009766 27 27 27
-8.895174026489258 -3.637788772583008 36.765785217285156 27 27 27
-8.948732376098633 -2.890864610671997 37.23796463012695 27 27 27
-8.91076374053955 -0.6592666506767273 36.983402252197266 42 42 42
-8.738738059997559 -0.8859399557113647 36.829978942871094 31 31 31
-8.85427474975586 -1.5685926675796509 37.68901443481445 45 45 45
-1.993870496749878 5.6341376304626465 8.554939270019531 115 115 115
-8.839001655578613 -1.0409852266311646 38.148887634277344 60 60 60
-9.097992897033691 -8.029863357543945 39.52656936645508 61 61 61
-2.006570339202881 5.517179012298584 8.756632804870605 105 105 105
-8.640175819396973 -8.339972496032715 37.82009506225586 95 95 95
-9.580204010009766 -4.404864311218262 42.23418426513672 80 80 80
-1.9741599559783936 5.472477912902832 8.73392105102539 89 89 89
-9.857039451599121 -3.202524185180664 43.742454528808594 90 90 90
-9.857039451599121 -3.202524185180664 43.742454528808594 90 90 90
-9.0892915725708 -5.762479305267334 40.53793716430664 63 63 63
-8.021751403808594 -2.800682306289673 36.239768981933594 65 65 65
-9.109291076660156 -3.8235788345336914 41.19868469238281 66 66 66
-7.869764804840088 -2.613292694091797 35.7546501159668 86 86 86
-9.537221908569336 3.441603183746338 42.887550354003906 110 110 110
-9.40548038482666 -8.516772270202637 43.44575500488281 138 138 138
-9.40548038482666 -8.516772270202637 43.44575500488281 138 138 138
-1.8455952405929565 5.553979396820068 8.725560188293457 94 94 94
-9.067326545715332 -1.4531431198120117 43.1790885925293 93 93 93
-9.517557144165039 -6.985899925231934 45.90678787231445 94 94 94
-9.169254302978516 -7.4762444496154785 43.75067901611328 49 49 49
-5.646884918212891 -8.066121101379395 27.124404907226562 54 54 54
-9.391225814819336 -6.680300235748291 45.388912200927734 100 100 100
-8.779945373535156 -0.732538640499115 43.17935562133789 91 91 91
-6.236626148223877 -6.860074043273926 31.057209014892578 117 117 117
-8.773143768310547 -1.8316261768341064 43.78313446044922 75 75 75
-6.088952541351318 -7.560843467712402 30.527198791503906 251 251 251
-6.0710649490356445 -7.9880242347717285 30.604116439819336 113 113 113
-1.5427368879318237 5.592444896697998 8.5055513381958 76 76 76
-7.480926990509033 -3.632129430770874 42.28000259399414 87 87 87
-1.59296715259552 5.465954780578613 8.910015106201172 81 81 81
-6.751205921173096 -7.869321823120117 37.772727966308594 251 251 251
-6.34087610244751 -7.26290225982666 36.686988830566406 164 164 164
-6.089611053466797 -7.6644721031188965 36.87879180908203 104 104 104
-6.579749584197998 -9.022271156311035 40.591041564941406 106 106 106
-7.007091522216797 -8.285995483398438 44.11493682861328 89 89 89
-6.975118160247803 -2.4667234420776367 45.38513946533203 121 121 121
-4.286093711853027 -0.7956755757331848 29.482471466064453 94 94 94
-2.8758158683776855 0.25942668318748474 19.965978622436523 19 19 19
-2.8574352264404297 0.12143123149871826 19.907480239868164 164 164 164
-5.914118766784668 -4.518596649169922 43.984779357910156 80 80 80
-6.184624195098877 -3.7011451721191406 46.587913513183594 18 18 18
-6.156278610229492 -3.400733470916748 46.3970947265625 19 19 19
-6.001803874969482 -3.2683303356170654 46.4309196472168 46 46 46
-5.082322597503662 -2.3095076084136963 40.689048767089844 136 136 136
-5.649568557739258 -3.166905403137207 45.69831848144531 18 18 18
-2.3645987510681152 0.04692932963371277 19.463848114013672 76 76 76
-4.413872718811035 -1.426676630973816 37.49979019165039 125 125 125
-2.266230344772339 -0.11345722526311874 19.305437088012695 44 44 44
-1.9566254615783691 2.7420897483825684 19.231517791748047 63 63 63
-1.9566254615783691 2.7420897483825684 19.231517791748047 63 63 63
-2.2227816581726074 -6.691242694854736 22.257579803466797 40 40 40
-1.1368893384933472 4.761465549468994 11.94233512878418 80 80 80
-1.5585392713546753 3.3958828449249268 17.594228744506836 60 60 60
-1.6012837886810303 3.0226147174835205 20.510868072509766 28 28 28
-0.8776977062225342 4.827701091766357 11.495444297790527 77 77 77
-0.8874301314353943 4.695761203765869 12.34630012512207 66 66 66
-0.8203285932540894 4.83441686630249 11.597065925598145 113 113 113
-1.4701049327850342 2.078092575073242 20.45203399658203 62 62 62
-1.429145336151123 2.577699661254883 20.6805419921875 106 106 106
-1.2061251401901245 3.0683395862579346 18.678922653198242 14 14 14
-0.752371609210968 5.149655818939209 12.241873741149902 119 119 119
-0.555138111114502 5.170331001281738 10.13547134399414 60 60 60
-0.46587467193603516 5.481446743011475 8.756250381469727 100 100 100
-0.4414852261543274 5.446157932281494 8.972633361816406 120 120 120
-0.4315135180950165 5.453750133514404 8.904012680053711 116 116 116
-0.40303266048431396 5.407370090484619 9.164839744567871 66 66 66
-0.38175931572914124 5.461960315704346 8.88558292388916 48 48 48
-0.34659451246261597 5.542233943939209 8.59761905670166 58 58 58
-0.30982276797294617 5.418145656585693 8.943448066711426 72 72 72
-0.19423215091228485 5.12128210067749 10.245028495788574 92 92 92
-0.12104681134223938 5.170520782470703 9.442176818847656 72 72 72
-0.031229780986905098 -3.072971820831299 9.584816932678223 80 80 80
-0.020092127844691277 4.770287036895752 11.895730972290039 54 54 54
0.2435474693775177 5.139530658721924 10.25046157836914 60 60 60
0.5107542276382446 5.542709827423096 9.268119812011719 71 71 71
0.5692078471183777 -0.718964695930481 6.735876560211182 62 62 62
0.5753030776977539 -0.8486990928649902 6.738651752471924 65 65 65
0.599667489528656 -0.18733683228492737 6.852469444274902 48 48 48
0.6139189600944519 1.1576412916183472 7.194100379943848 102 102 102
0.6050454378128052 -0.2583482265472412 6.797187805175781 76 76 76
0.6282709240913391 1.1693087816238403 7.044322490692139 118 118 118
0.6333482265472412 1.6070059537887573 7.083885192871094 86 86 86
0.6486140489578247 1.5511690378189087 7.059572219848633 146 146 146
0.6021583080291748 -2.487119674682617 6.376098155975342 83 83 83
0.6596618890762329 1.1516298055648804 7.08889102935791 23 23 23
0.6201028227806091 -1.5134503841400146 6.660046100616455 76 76 76
0.662017822265625 0.6995455026626587 7.012792587280273 71 71 71
0.6686069965362549 2.316844940185547 7.149383068084717 91 91 91
0.7152383327484131 4.192603588104248 7.493443012237549 30 30 30
0.7118369936943054 3.1137332916259766 7.315585136413574 134 134 134
0.6530863046646118 -0.7054681777954102 6.767439365386963 54 54 54
0.7085511088371277 3.9063034057617188 7.457033157348633 85 85 85
0.6576331853866577 -1.5085067749023438 6.663329124450684 63 63 63
0.7336482405662537 3.285651206970215 7.348370552062988 76 76 76
0.704094648361206 -1.964428424835205 6.592729568481445 23 23 23
0.7093504667282104 -0.8831071853637695 6.768764972686768 72 72 72
0.7492967247962952 2.3517894744873047 7.13222599029541 47 47 47
0.7494629621505737 2.3502323627471924 7.1272759437561035 47 47 47
0.7100597023963928 -1.1881089210510254 6.675046920776367 68 68 68
0.7861000299453735 1.4224849939346313 7.07093620300293 89 89 89
0.7490202188491821 -0.3167967200279236 6.7618279457092285 48 48 48
0.7860812544822693 1.4221887588500977 7.070037841796875 89 89 89
0.7146757245063782 -3.7884745597839355 6.351583480834961 29 29 29
0.7223666310310364 -3.0521459579467773 6.391958713531494 98 98 98
0.7782434821128845 0.42963793873786926 6.883057594299316 56 56 56
0.7392860054969788 -2.781289577484131 6.519257068634033 69 69 69
0.7617336511611938 -0.875282883644104 6.6972503662109375 67 67 67
0.8399251103401184 3.3057589530944824 7.367005348205566 34 34 34
0.8480777144432068 3.2361316680908203 7.375382900238037 35 35 35
0.8631866574287415 3.7804651260375977 7.614921569824219 46 46 46
0.8468785881996155 2.7879464626312256 7.507248401641846 23 23 23
0.8026336431503296 0.32836928963661194 6.874139785766602 51 51 51
0.7485482096672058 -3.94639253616333 6.378186225891113 22 22 22
0.8797419667243958 4.521536350250244 7.318364143371582 43 43 43
0.8311693668365479 -0.05240306258201599 6.902167797088623 54 54 54
0.8299614787101746 -2.5396363735198975 6.662411689758301 106 106 106
0.8294061422348022 -2.3037776947021484 6.557105541229248 77 77 77
0.8500549793243408 -1.2388554811477661 6.687258243560791 72 72 72
0.7906762957572937 -3.6092119216918945 6.21836519241333 47 47 47
0.9411630034446716 3.3558390140533447 7.3657097816467285 32 32 32
0.8551325798034668 -1.791913390159607 6.654324054718018 58 58 58
0.8592392206192017 -2.1894946098327637 6.554448127746582 76 76 76
0.8653015494346619 -2.2482986450195312 6.551037788391113 56 56 56
0.8789587616920471 -1.8965041637420654 6.614897727966309 75 75 75
0.8909268379211426 -1.4984123706817627 6.674624443054199 65 65 65
0.8972684741020203 -1.3443289995193481 6.697070121765137 71 71 71
0.8739089369773865 -3.2995331287384033 6.417081832885742 103 103 103
0.920437216758728 -0.6977637410163879 6.629772663116455 66 66 66
0.9447040557861328 0.04905128479003906 6.712492942810059 101 101 101
0.9756661057472229 0.4390299320220947 6.9902544021606445 74 74 74
0.8846455216407776 -2.306215286254883 6.460323810577393 72 72 72
0.9116841554641724 -2.0350639820098877 6.606338024139404 118 118 118
0.8852782845497131 -3.4205479621887207 6.409176826477051 120 120 120
0.9312522411346436 -1.5586092472076416 6.6461181640625 38 38 38
0.9384874701499939 -0.902675211429596 6.731640338897705 70 70 70
0.9081131815910339 -2.7726972103118896 6.491978168487549 125 125 125
1.0320461988449097 2.9896109104156494 7.350260257720947 40 40 40
0.9253177642822266 -2.3657660484313965 6.566415786743164 45 45 45
0.9415925145149231 -0.611017644405365 6.6493353843688965 98 98 98
1.044711947441101 3.1492502689361572 7.369466304779053 41 41 41
0.9936132431030273 0.772026002407074 6.9924540519714355 143 143 143
0.9900649785995483 -0.4212026298046112 6.802224159240723 130 130 130
0.9946756958961487 0.478039413690567 7.165341377258301 99 99 99
1.0086060762405396 0.9624676704406738 7.017873287200928 95 95 95
0.9900919198989868 -0.0646793395280838 6.881577491760254 100 100 100
1.0780386924743652 3.76383900642395 7.450528144836426 38 38 38
1.0442239046096802 1.945543646812439 7.2567138671875 100 100 100
0.9870472550392151 -0.7422430515289307 6.779387950897217 101 101 101
0.9236484169960022 -3.6038033962249756 6.3095316886901855 54 54 54
0.9893193244934082 -1.002583622932434 6.745862007141113 106 106 106
1.0797473192214966 2.5170633792877197 7.351108551025391 56 56 56
1.0358970165252686 0.5473309755325317 7.013264179229736 91 91 91
1.0244598388671875 -0.13274024426937103 6.881619453430176 96 96 96
1.0518968105316162 0.3303685486316681 6.931539058685303 71 71 71
1.0518968105316162 0.3303685486316681 6.931539058685303 71 71 71
1.1105289459228516 3.0799636840820312 7.350442409515381 117 117 117
1.1394882202148438 3.047532796859741 7.346663475036621 38 38 38
1.175304889678955 4.670334339141846 7.556689262390137 44 44 44
1.0836706161499023 0.7761354446411133 6.941022872924805 129 129 129
1.1434621810913086 2.518569231033325 7.295630931854248 101 101 101
1.1003775596618652 0.8666041493415833 6.924857139587402 126 126 126
1.1652640104293823 2.564241886138916 7.219025135040283 108 108 108
1.1894643306732178 3.5485732555389404 7.344197750091553 99 99 99
1.0195362567901611 -3.4558985233306885 6.123837947845459 99 99 99
1.23651123046875 4.592637062072754 7.467658519744873 91 91 91
1.0654704570770264 -3.483678102493286 6.2533698081970215 101 101 101
1.2553050518035889 3.751725673675537 7.4985833168029785 85 85 85
1.1442304849624634 -0.7785663604736328 6.591522693634033 98 98 98
1.2871792316436768 1.3427079916000366 6.929612636566162 89 89 89
1.1740037202835083 -3.396073818206787 6.236731052398682 160 160 160
1.2229326963424683 -1.3063474893569946 6.406703948974609 130 130 130
1.2229326963424683 -1.3063474893569946 6.406703948974609 130 130 130
1.2619349956512451 -0.5705882906913757 6.693038463592529 129 129 129
1.2619349956512451 -0.5705882906913757 6.693038463592529 129 129 129
1.3013125658035278 0.8530218601226807 6.745405673980713 119 119 119
-2.465428352355957 0.16481101512908936 19.361248016357422 195 195 195
-8.040541648864746 1.551045536994934 22.7615966796875 73 73 73
-8.238088607788086 -3.314521551132202 18.619199752807617 19 19 19
-8.874383926391602 -3.704503297805786 33.346763610839844 74 74 74
-8.238382339477539 -3.314631462097168 18.619802474975586 19 19 19
-8.152599334716797 1.4760152101516724 22.154932022094727 22 22 22
-8.380459785461426 -4.022477149963379 22.055227279663086 23 23 23
-8.546454429626465 -5.262064456939697 29.615787506103516 179 179 179
-8.738508224487305 -5.576980113983154 31.12667465209961 204 204 204
-8.539851188659668 -3.887134313583374 33.22297668457031 178 178 178
-7.925799369812012 -3.33945369720459 28.656211853027344 123 123 123
1.0627543926239014 0.4587092995643616 6.9332404136657715 76 76 76
-8.635260581970215 -4.9640092849731445 28.984167098999023 40 40 40
-8.512439727783203 -5.475064277648926 29.408842086791992 41 41 41
-8.348230361938477 -5.092426300048828 43.584877014160156 151 151 151
-9.06342601776123 -5.734187602996826 33.33002471923828 123 123 123
0.030251678079366684 5.4791259765625 9.206944465637207 131 131 131
-8.850781440734863 -4.032656192779541 22.147510528564453 81 81 81
-8.375871658325195 -3.032902717590332 28.394014358520508 56 56 56
-9.316004753112793 -4.851789474487305 40.98377990722656 150 150 150
-8.24737548828125 -3.6814520359039307 31.195585250854492 206 206 206
-8.874672889709473 -3.7045507431030273 33.347900390625 74 74 74
-8.880460739135742 -5.651025772094727 29.60609245300293 35 35 35
-8.529571533203125 -3.7986621856689453 22.63923454284668 4 4 4
0.9886136651039124 0.1218859925866127 6.896434783935547 37 37 37
-8.297822952270508 -0.4247789978981018 22.80542755126953 50 50 50
-8.72110366821289 -4.102922439575195 34.136329650878906 184 184 184
-7.606294631958008 -4.84937858581543 28.507488250732422 142 142 142
-8.247579574584961 -3.681520938873291 31.19640350341797 206 206 206
-8.447198867797852 -4.476564407348633 29.432300567626953 73 73 73
-0.7840814590454102 4.7797532081604 12.209035873413086 86 86 86
-8.562034606933594 -3.203199863433838 30.954933166503906 150 150 150
-8.17115592956543 -3.6100900173187256 18.42401695251465 10 10 10
0.9133338928222656 -3.527844190597534 6.391834259033203 57 57 57
1.059765100479126 0.8315573334693909 7.0080084800720215 15 15 15
-8.725584983825684 -2.7901885509490967 22.164663314819336 56 56 56
0.28256750106811523 5.308560848236084 9.403009414672852 104 104 104
1.0429853200912476 0.8190112113952637 6.897317886352539 27 27 27
-8.271388053894043 0.43381384015083313 19.890424728393555 19 19 19
-8.293486595153809 -3.725393295288086 19.246891021728516 37 37 37
-8.808249473571777 -3.695615291595459 22.110795974731445 125 125 125
-8.547799110412598 -4.979901313781738 29.682998657226562 173 173 173
-8.619669914245605 -5.010402679443359 29.90398597717285 139 139 139
-7.659191608428955 -4.513622760772705 26.93035888671875 69 69 69
-8.73088264465332 -4.2717719078063965 21.79634666442871 149 149 149
-8.293926239013672 -3.7255170345306396 19.247758865356445 37 37 37
0.7118338942527771 3.113722562789917 7.315572261810303 134 134 134
0.18895985186100006 5.46668004989624 9.020894050598145 109 109 109
-8.662033081054688 -5.962032318115234 35.80579376220703 67 67 67
-8.592619895935059 -2.1601645946502686 22.012718200683594 131 131 131
-8.237833023071289 -4.26161527633667 21.724842071533203 44 44 44
-8.731508255004883 -4.272086143493652 21.79787826538086 149 149 149
-8.263973236083984 -2.42911696434021 19.290000915527344 2 2 2
-8.187947273254395 -0.5314652919769287 19.537813186645508 3 3 3
-8.514373779296875 -2.8203186988830566 28.87452507019043 99 99 99
-8.422622680664062 -3.1251609325408936 32.66531753540039 141 141 141
1.1983133554458618 4.244035720825195 7.558703899383545 55 55 55
1.0381550788879395 0.8133245706558228 7.0668625831604 168 168 168
-9.23479175567627 -3.0909905433654785 33.3286247253418 71 71 71
-8.48312759399414 -3.5861849784851074 28.593965530395508 12 12 12
-8.356854438781738 -1.822216510772705 19.735017776489258 24 24 24
-0.0767165869474411 5.045663833618164 10.144312858581543 76 76 76
0.18891678750514984 5.466750144958496 9.021010398864746 109 109 109
1.0218214988708496 0.7986171841621399 7.030622482299805 41 41 41
0.6486270427703857 1.5511720180511475 7.059587001800537 146 146 146
-8.921428680419922 -4.500150203704834 21.678930282592773 153 153 153
0.9990278482437134 1.5513163805007935 7.191962718963623 97 97 97
0.7244603037834167 0.7858716249465942 7.083362102508545 108 108 108
-8.315017700195312 -2.5045669078826904 28.32845687866211 11 11 11
-0.4940130114555359 4.927683353424072 9.87917709350586 83 83 83
-6.668869972229004 -8.050104141235352 38.65100860595703 216 216 216
0.9436541199684143 0.776350736618042 7.0126190185546875 183 183 183
-8.499483108520508 -3.820286512374878 28.56674575805664 83 83 83
-9.45667552947998 -6.933144569396973 45.637935638427734 87 87 87
-8.5154390335083 -6.058037281036377 21.091758728027344 27 27 27
-8.459907531738281 -4.717850685119629 29.440650939941406 31 31 31
-8.802680015563965 -4.653608798980713 21.85663604736328 118 118 118
-8.316195487976074 -2.504938840866089 28.331680297851562 11 11 11
-8.515458106994629 -6.058049201965332 21.091800689697266 27 27 27
-8.802717208862305 -4.653625011444092 21.856689453125 118 118 118
-8.210232734680176 -0.7543445229530334 19.090133666992188 59 59 59
0.15161371231079102 5.412282943725586 8.817831993103027 132 132 132
-8.209722518920898 -3.9385366439819336 18.442237854003906 11 11 11
-8.45618724822998 -1.8301594257354736 21.761241912841797 23 23 23
-8.83682632446289 -3.24981689453125 20.282142639160156 15 15 15
-2.3170411586761475 2.830103874206543 19.4011173248291 22 22 22
-6.53953742980957 -3.635429859161377 44.76182174682617 140 140 140
1.0483530759811401 0.7677794694900513 6.992146968841553 173 173 173
-9.02338981628418 -1.5981152057647705 40.90687942504883 40 40 40
-8.524035453796387 -5.736258029937744 20.536645889282227 25 25 25
-9.332986831665039 -5.971368312835693 40.63595962524414 115 115 115
-8.563170433044434 -4.813069820404053 21.860858917236328 84 84 84
-8.395308494567871 -5.65334415435791 20.259841918945312 30 30 30
-6.884636402130127 -3.576599359512329 46.37300491333008 97 97 97
-8.414748191833496 -4.958200454711914 22.237648010253906 98 98 98
-7.165289878845215 -4.2430853843688965 18.9406795501709 89 89 89
-6.8943772315979 -3.583811044692993 46.43082809448242 97 97 97
-8.15123176574707 -4.790428161621094 21.219316482543945 45 45 45
-8.328912734985352 -4.361231803894043 19.227502822875977 76 76 76
-8.433867454528809 -4.70298957824707 29.359416961669922 31 31 31
-8.81801700592041 -4.686649799346924 33.354957580566406 216 216 216
-8.344914436340332 -3.123074769973755 22.32965087890625 62 62 62
-8.37297534942627 -1.6373329162597656 22.765213012695312 52 52 52
0.6597238183021545 2.117919921875 7.165841102600098 18 18 18
-8.328447341918945 -4.360998630523682 19.22652816772461 76 76 76
-8.223822593688965 -4.274054527282715 18.410371780395508 2 2 2
0.6552284359931946 1.1665688753128052 7.047489166259766 11 11 11
-1.2563741207122803 2.888895273208618 19.246673583984375 65 65 65
0.2564625144004822 5.547316551208496 8.909524917602539 117 117 117
0.9312530755996704 -1.5585720539093018 6.6459856033325195 38 38 38
-2.1576626300811768 2.8806116580963135 19.143295288085938 91 91 91
1.0518932342529297 0.3303457498550415 6.9313554763793945 71 71 71
0.9312523603439331 -1.5585991144180298 6.646075248718262 38 38 38
-8.211742401123047 -2.747979164123535 19.23863410949707 42 42 42
-0.4303165674209595 5.155740261077881 9.414994239807129 75 75 75
-9.15800952911377 -2.254444122314453 44.1312370300293 68 68 68
-8.418087005615234 -4.809295177459717 20.14704132080078 15 15 15
-9.441216468811035 -6.2916741371154785 41.007137298583984 122 122 122
-7.771975517272949 -4.428497791290283 18.343544006347656 120 120 120
-9.158756256103516 -2.254626512527466 44.13424301147461 68 68 68
-8.903976440429688 -2.0835111141204834 40.501495361328125 76 76 76
-0.2837413549423218 5.198286533355713 10.216217994689941 89 89 89
-8.594579696655273 -1.7982501983642578 29.517948150634766 67 67 67
-0.3874038755893707 5.250697135925293 10.265910148620605 146 146 146
-8.390081405639648 -4.715329170227051 19.240144729614258 29 29 29
-8.447166442871094 -4.4765191078186035 29.432167053222656 73 73 73
0.9900506734848022 -0.42120227217674255 6.802341938018799 130 130 130
-5.893283843994141 -7.66652774810791 30.858715057373047 179 179 179
-2.219182252883911 0.12930382788181305 19.37254524230957 174 174 174
-0.16636157035827637 5.555079936981201 8.78010368347168 34 34 34
-8.945601463317871 -2.3221395015716553 44.78883743286133 207 207 207
-8.342511177062988 -5.714807987213135 21.829177856445312 64 64 64
-8.341054916381836 -5.713903427124023 21.825532913208008 64 64 64
-9.517550468444824 -6.985880374908447 45.90674591064453 94 94 94
0.9710395932197571 -0.3856157958507538 6.828453063964844 28 28 28
-8.301789283752441 -1.025333285331726 18.821331024169922 94 94 94
-1.8141292333602905 0.08565615862607956 19.517581939697266 140 140 140
-2.153676748275757 0.12095972895622253 18.804283142089844 223 223 223
-8.667889595031738 -5.248793601989746 29.081775665283203 9 9 9
-2.5063815116882324 0.05732345208525658 19.689191818237305 57 57 57
-8.85071086883545 -5.67020320892334 36.55072021484375 110 110 110
-1.8760429620742798 0.06311409175395966 19.521556854248047 119 119 119
-1.979905366897583 0.05288444831967354 19.39124870300293 100 100 100
-8.37387752532959 -1.6375595331192017 22.767662048339844 52 52 52
-8.462884902954102 -3.5738863945007324 28.530094146728516 12 12 12
-1.7855709791183472 0.032070793211460114 19.533292770385742 31 31 31
-3.019137144088745 0.05309702455997467 19.72314453125 110 110 110
0.9029338955879211 -1.9583731889724731 6.580746650695801 56 56 56
-0.17165042459964752 5.519521713256836 8.791605949401855 24 24 24
-8.497182846069336 -4.238383769989014 29.510007858276367 146 146 146
-8.07275676727295 0.1151261031627655 19.369117736816406 70 70 70
-2.1763651371002197 -0.013872235082089901 18.481914520263672 113 113 113
-2.8118762969970703 0.020326843485236168 19.580629348754883 56 56 56
-2.8118739128112793 0.02032778598368168 19.580617904663086 56 56 56
-2.1089560985565186 -0.019298667088150978 19.42320442199707 191 191 191
-2.109600305557251 -0.01078734826296568 19.148391723632812 182 182 182
-2.811931848526001 0.020332494750618935 19.581003189086914 56 56 56
-2.11433482170105 -0.0346146896481514 19.46318817138672 211 211 211
-8.527043342590332 1.3266500234603882 21.785797119140625 144 144 144
-8.162166595458984 1.3413015604019165 21.909645080566406 207 207 207
-7.926579475402832 -1.8089845180511475 21.354856491088867 27 27 27
-8.325628280639648 -2.299489974975586 18.330488204956055 6 6 6
-8.262496948242188 -2.5690500736236572 17.79018211364746 15 15 15
-8.288656234741211 -3.4075934886932373 19.245054244995117 23 23 23
-8.168166160583496 1.3422420024871826 21.925607681274414 207 207 207
-0.00804057251662016 5.292797565460205 10.289488792419434 120 120 120
-2.347316265106201 -0.11110556870698929 19.639814376831055 47 47 47
-8.67381763458252 -3.3936638832092285 29.315929412841797 82 82 82
-9.525632858276367 -4.3824782371521 38.672847747802734 118 118 118
-8.741703033447266 -5.5790019035339355 31.137821197509766 204 204 204
0.9577201008796692 -1.2103971242904663 6.735641002655029 86 86 86
-8.67063045501709 -3.3913371562957764 29.303688049316406 82 82 82
-8.75311279296875 -5.582247257232666 31.173269271850586 204 204 204
-8.551002502441406 -5.265172004699707 29.629953384399414 179 179 179
-0.04826340079307556 5.466119766235352 9.24278450012207 98 98 98
-8.186321258544922 1.4470404386520386 22.104372024536133 176 176 176
-9.19819450378418 -4.91834831237793 43.662322998046875 65 65 65
-8.337411880493164 -0.1106083020567894 22.882429122924805 44 44 44
-7.425382137298584 -4.942160606384277 27.7871036529541 124 124 124
-8.742012023925781 -5.579190254211426 31.13882064819336 204 204 204
-7.061277866363525 -7.943093776702881 43.511661529541016 250 250 250
-8.358766555786133 -3.8951985836029053 34.397396087646484 153 153 153
-8.541202545166016 1.4325411319732666 21.821762084960938 135 135 135
1.187791109085083 3.827793598175049 7.4716267585754395 61 61 61
-8.514130592346191 -1.2590242624282837 21.996557235717773 102 102 102
1.0755691528320312 1.934899926185608 7.260332107543945 138 138 138
0.988612711429596 0.12188776582479477 6.896431922912598 37 37 37
0.19751112163066864 5.158670425415039 9.876437187194824 117 117 117
0.7085132002830505 3.9075939655303955 7.457599639892578 85 85 85
0.4681635797023773 -3.537649393081665 6.321657657623291 96 96 96
0.9133340716362 -3.5278408527374268 6.391826152801514 57 57 57
-8.705949783325195 -3.7221577167510986 22.108428955078125 26 26 26
-1.9175949096679688 2.912914991378784 18.891881942749023 18 18 18
-7.786176681518555 1.7827540636062622 21.886425018310547 88 88 88
0.9028217196464539 -1.9566198587417603 6.579893112182617 126 126 126
-8.320030212402344 -2.6230955123901367 18.250232696533203 31 31 31
-3.439079999923706 5.450464725494385 9.312233924865723 50 50 50
-8.077093124389648 0.11531092971563339 19.378890991210938 70 70 70
-8.638420104980469 -5.947681903839111 35.7186164855957 64 64 64
-8.385453224182129 -3.163055896759033 22.68986701965332 10 10 10
-1.9568692445755005 2.74233341217041 19.233125686645508 63 63 63
0.9723796248435974 1.4812781810760498 7.082859039306641 37 37 37
-8.618509292602539 -0.4712880849838257 20.11052131652832 20 20 20
-8.516470909118652 -0.668427050113678 22.146364212036133 51 51 51
0.9279334545135498 -2.355177879333496 6.559723377227783 25 25 25
-8.801369667053223 -6.394120693206787 31.368579864501953 83 83 83
-0.2866353988647461 4.995386123657227 11.548819541931152 28 28 28
-0.07444088160991669 5.189029216766357 9.528607368469238 136 136 136
-7.972540855407715 -1.5386521816253662 23.33945083618164 11 11 11
0.30768734216690063 5.491406440734863 8.751494407653809 139 139 139
-8.619370460510254 -0.09079480171203613 22.55268669128418 49 49 49
-8.094892501831055 -1.2155566215515137 23.481258392333984 72 72 72
-8.954952239990234 -6.827668190002441 38.31387710571289 95 95 95
0.11450543999671936 5.210619926452637 10.262062072753906 73 73 73
-8.606451988220215 -5.674042701721191 31.47309112548828 29 29 29
-0.35015177726745605 5.463302135467529 8.787613868713379 88 88 88
-8.022138595581055 -1.4409376382827759 19.0688533782959 45 45 45
-8.264065742492676 -2.4291326999664307 19.290218353271484 2 2 2
-1.8116827011108398 0.08857820928096771 19.45845603942871 140 140 140
-8.731236457824707 -4.271934986114502 21.797136306762695 149 149 149
-7.237606048583984 -8.238823890686035 44.02592086791992 250 250 250
-9.300841331481934 -5.553745746612549 40.685970306396484 145 145 145
-5.613248825073242 -2.7759342193603516 43.185203552246094 128 128 128
-6.499947547912598 -7.080539703369141 40.72322082519531 251 251 251
-8.619736671447754 -5.0104756355285645 29.904251098632812 139 139 139
-9.521100997924805 -5.403813362121582 45.01866149902344 71 71 71
0.902937650680542 -1.9583725929260254 6.58074426651001 56 56 56
-8.292608261108398 -2.414931058883667 19.258996963500977 6 6 6
0.5650600790977478 -0.7641297578811646 6.842482089996338 178 178 178
-8.4445219039917 -1.8277586698532104 21.73443031311035 23 23 23
-8.512436866760254 -5.475064277648926 29.408832550048828 41 41 41
0.5767145156860352 -0.3415629267692566 6.858860969543457 42 42 42
1.144197940826416 2.702176570892334 7.305844306945801 128 128 128
-8.85055160522461 -4.032576560974121 22.147048950195312 81 81 81
-5.892144203186035 -7.665139675140381 30.85365867614746 179 179 179
-8.94377326965332 -2.3216707706451416 44.78083801269531 207 207 207
-8.9464693069458 -4.202090740203857 34.90846633911133 162 162 162
-9.521195411682129 -5.403895854949951 45.01897048950195 71 71 71
-7.0578789710998535 -7.9392242431640625 43.490478515625 250 250 250
-8.247169494628906 -3.6813743114471436 31.195035934448242 206 206 206
-6.362898826599121 -4.22540283203125 43.679039001464844 18 18 18
-8.945878982543945 -2.322127103805542 44.790287017822266 207 207 207
-8.801220893859863 -3.107769727706909 32.33243179321289 140 140 140
-8.238102912902832 -3.3145272731781006 18.61922836303711 19 19 19
-8.51138687133789 -3.1392529010772705 32.971290588378906 134 134 134
-6.689509868621826 -3.927241086959839 41.89436721801758 77 77 77
-8.50771427154541 -4.238023281097412 29.541519165039062 146 146 146
-8.557734489440918 1.3369879722595215 21.87270164489746 144 144 144
-8.225049018859863 -4.27473783493042 18.412769317626953 2 2 2
-8.53107738494873 -4.787405014038086 30.09719467163086 32 32 32
0.9312540888786316 -1.5585871934890747 6.646049976348877 38 38 38
-8.904036521911621 -2.0835418701171875 40.50182342529297 76 76 76
-9.158662796020508 -2.2545721530914307 44.134063720703125 68 68 68
-8.456660270690918 -4.415214538574219 28.79437255859375 11 11 11
1.0485221147537231 0.7678680419921875 6.993178367614746 173 173 173
-8.400747299194336 -5.120360851287842 43.85735321044922 151 151 151
-8.328447341918945 -4.360998630523682 19.22651481628418 76 76 76
0.2522292733192444 -1.0216797590255737 8.844432830810547 78 78 78
0.6666690111160278 1.9598629474639893 7.181821823120117 108 108 108
-8.315034866333008 -2.5045700073242188 28.328523635864258 11 11 11
-9.012312889099121 -5.971346378326416 37.154727935791016 128 128 128
-6.957413196563721 -3.613081932067871 46.80149841308594 97 97 97
-9.30224323272705 -5.554453372955322 40.69148254394531 145 145 145
-8.403578758239746 -4.9261393547058105 21.801597595214844 119 119 119
-6.920736789703369 -3.5968945026397705 46.586341857910156 97 97 97
-8.366559982299805 -3.8989832401275635 34.42608642578125 153 153 153
-8.414779663085938 -4.958241939544678 22.23777961730957 98 98 98
-8.549827575683594 1.4252218008041382 21.957616806030273 23 23 23
-8.880014419555664 -5.6508612632751465 29.604780197143555 35 35 35
-8.453125 -4.7116241455078125 29.41889190673828 31 31 31
-2.318981170654297 -0.12634611129760742 19.276294708251953 210 210 210
-9.553183555603027 -4.934463024139404 32.121482849121094 21 21 21
-8.976882934570312 -4.869460105895996 37.26213455200195 34 34 34
-8.040544509887695 1.5510400533676147 22.761587142944336 73 73 73
0.9436520338058472 0.7763450145721436 7.0125837326049805 183 183 183
-8.34025764465332 -5.713379859924316 21.8233699798584 64 64 64
-8.486757278442383 -3.632763385772705 32.6402587890625 206 206 206
-8.342400550842285 1.5172758102416992 22.622215270996094 28 28 28
-8.880668640136719 -5.651179790496826 29.606731414794922 35 35 35
-8.801657676696777 -4.653106689453125 21.854127883911133 118 118 118
0.9312525391578674 -1.5585960149765015 6.646058559417725 38 38 38
-8.725680351257324 -2.790222644805908 22.164752960205078 56 56 56
-8.801597595214844 -4.653075695037842 21.853975296020508 118 118 118
-8.978287696838379 -4.870290279388428 37.26744842529297 34 34 34
-8.493537902832031 -4.676083564758301 22.168039321899414 23 23 23
-2.331677198410034 0.07309892773628235 19.38164710998535 166 166 166
-8.76042652130127 1.4143080711364746 22.772090911865234 177 177 177
-9.580398559570312 -4.969086647033691 32.939239501953125 139 139 139
-8.415787696838379 -4.958879470825195 22.240449905395508 98 98 98
-8.007492065429688 -4.4658122062683105 17.875988006591797 34 34 34
-2.8118784427642822 0.020332014188170433 19.58061981201172 56 56 56
-7.954831123352051 -3.4273886680603027 30.815950393676758 202 202 202
-2.10042405128479 -0.010653666220605373 19.092117309570312 182 182 182
-8.328914642333984 -4.361239910125732 19.227527618408203 76 76 76
-0.32561200857162476 5.473446846008301 8.736200332641602 62 62 62
-8.479293823242188 -4.725339889526367 29.500261306762695 31 31 31
-9.449763298034668 -4.001816749572754 38.33625030517578 112 112 112
-8.497086524963379 -4.2384419441223145 29.50971031188965 146 146 146
-8.549859046936035 -5.264461517333984 29.626237869262695 179 179 179
-0.2569464445114136 5.331042766571045 9.303001403808594 45 45 45
-7.227357387542725 -7.773611068725586 44.66375732421875 208 208 208
-3.0191988945007324 0.05309681594371796 19.723506927490234 110 110 110
-2.040985345840454 0.051724158227443695 19.991268157958984 90 90 90
-8.731571197509766 -4.272132873535156 21.798038482666016 149 149 149
-8.2373628616333 -4.261347770690918 21.723541259765625 44 44 44
-8.546727180480957 -5.262260437011719 29.616605758666992 179 179 179
-1.8645439147949219 0.05234011262655258 19.438798904418945 191 191 191
-8.17254638671875 -3.6107847690582275 18.427183151245117 10 10 10
-0.06998863071203232 5.3458075523376465 8.948354721069336 103 103 103
-8.172053337097168 -3.6105446815490723 18.426097869873047 10 10 10
-9.229178428649902 -4.7394843101501465 24.046762466430664 52 52 52
-8.344987869262695 -3.1231329441070557 22.3298397064209 62 62 62
-8.808692932128906 -4.687570571899414 33.32139205932617 216 216 216
-1.75893235206604 0.07048439234495163 19.894561767578125 141 141 141
-8.57870864868164 1.4204238653182983 21.873695373535156 117 117 117
-8.466867446899414 -3.57509708404541 28.543411254882812 12 12 12
-9.302044868469238 -5.554362773895264 40.69070816040039 145 145 145
0.9029179811477661 -1.958277702331543 6.5804314613342285 56 56 56
-2.496812105178833 0.06289773434400558 19.633113861083984 51 51 51
-2.3601014614105225 0.0913403183221817 19.316638946533203 208 208 208
-8.07060432434082 -1.141179084777832 19.220714569091797 28 28 28
-8.168085098266602 -4.550446510314941 18.19325065612793 35 35 35
-1.9567981958389282 2.742326259613037 19.23330307006836 63 63 63
1.1433207988739014 2.436354160308838 7.292973041534424 112 112 112
-2.317721366882324 2.8308053016662598 19.405759811401367 22 22 22
-2.3170883655548096 2.8301568031311035 19.40146255493164 22 22 22
-7.802509307861328 -3.275280714035034 28.206501007080078 111 111 111
0.9626339673995972 -0.7928157448768616 6.769846439361572 58 58 58
0.6597161293029785 2.1179778575897217 7.165985584259033 18 18 18
1.139927864074707 2.644552707672119 7.309162616729736 78 78 78
-8.101025581359863 -3.036669969558716 18.973447799682617 87 87 87
-8.326616287231445 -2.2997617721557617 18.33245849609375 6 6 6
1.0755586624145508 1.9348784685134888 7.260267734527588 138 138 138
-8.022544860839844 -1.4410228729248047 19.06974983215332 45 45 45
-8.5145845413208 1.5861400365829468 22.12261962890625 186 186 186
-8.27131175994873 0.4337994158267975 19.890417098999023 19 19 19
-0.06734395027160645 5.242373466491699 9.794775009155273 113 113 113
-2.1576128005981445 2.880563259124756 19.143062591552734 91 91 91
-8.618216514587402 -0.9929690361022949 22.31626319885254 69 69 69
-8.127310752868652 -2.0865540504455566 19.201215744018555 20 20 20
0.9723861813545227 1.4813300371170044 7.083043575286865 37 37 37
-2.1576027870178223 2.8805346488952637 19.142881393432617 91 91 91
-8.336495399475098 -0.11057273298501968 22.879873275756836 44 44 44
1.0314674377441406 2.152967929840088 7.124329090118408 30 30 30
-8.514840126037598 -2.820467710494995 28.876108169555664 99 99 99
-8.073272705078125 0.11515329033136368 19.370208740234375 70 70 70
-8.402960777282715 -4.925759792327881 21.799985885620117 119 119 119
-8.2977933883667 -0.42478305101394653 22.80537986755371 50 50 50
-8.66798210144043 -5.2488932609558105 29.082130432128906 9 9 9
-7.786550521850586 1.7828105688095093 21.887426376342773 88 88 88
-8.462685585021973 -3.5738444328308105 28.52923583984375 12 12 12
1.035465121269226 1.9631611108779907 7.233591556549072 135 135 135
-8.16618824005127 -2.9472713470458984 18.3243465423584 10 10 10
-8.586759567260742 -4.972001075744629 21.45934295654297 91 91 91
1.1311928033828735 3.4690802097320557 7.43268346786499 122 122 122
-8.313475608825684 -4.716652870178223 19.468151092529297 110 110 110
1.0854226350784302 1.0111387968063354 7.035297393798828 56 56 56
0.9360917806625366 -1.619576334953308 6.6708455085754395 122 122 122
-8.187187194824219 -4.687283039093018 19.790075302124023 163 163 163
-8.798230171203613 -5.317855358123779 32.54309844970703 43 43 43
-8.545856475830078 -5.261784553527832 29.613765716552734 179 179 179
1.1395080089569092 3.0475921630859375 7.346786975860596 38 38 38
-8.34188175201416 -5.714422702789307 21.827713012695312 64 64 64
-8.334805488586426 -4.342957973480225 18.898967742919922 24 24 24
-7.863952159881592 -1.8315831422805786 21.490205764770508 137 137 137
-8.468412399291992 -3.579012632369995 28.548755645751953 12 12 12
-8.065763473510742 -4.462177276611328 21.426408767700195 40 40 40
-8.035111427307129 -8.181548118591309 44.82480239868164 74 74 74
-8.073562622070312 0.1151600331068039 19.370939254760742 70 70 70
-8.973394393920898 -6.465880393981934 30.739635467529297 50 50 50
0.9577265381813049 -1.2104520797729492 6.735911846160889 86 86 86
0.7118241190910339 3.1137518882751465 7.315745830535889 134 134 134
1.1983124017715454 4.244017601013184 7.558670520782471 55 55 55
0.7357009649276733 -2.7190914154052734 6.479869842529297 31 31 31
0.963595449924469 -0.0030537114944308996 6.9583821296691895 47 47 47
-8.629291534423828 -1.8029577732086182 29.623950958251953 67 67 67
-8.20324420928955 -3.936006546020508 18.429351806640625 11 11 11
-8.396903038024902 -5.654488563537598 20.263134002685547 30 30 30
0.23138603568077087 5.287265300750732 9.944392204284668 109 109 109
-5.179708003997803 -2.1947736740112305 39.583091735839844 102 102 102
-8.35672664642334 -1.822209358215332 19.734731674194336 24 24 24
-8.337424278259277 -0.11060561239719391 22.882497787475586 44 44 44
0.9723789095878601 1.4813305139541626 7.083108901977539 37 37 37
-8.592684745788574 -2.1601831912994385 22.012882232666016 131 131 131
-8.732366561889648 -5.667050361633301 30.603483200073242 25 25 25
-0.14498721063137054 5.553555488586426 8.916614532470703 101 101 101
0.013842598535120487 5.426970481872559 8.829710006713867 55 55 55
-7.65370512008667 -4.506349563598633 26.912363052368164 69 69 69
-7.963456153869629 0.16712509095668793 22.03099822998047 37 37 37
-7.844686508178711 1.6736639738082886 22.378280639648438 109 109 109
-2.157641887664795 2.880584239959717 19.143230438232422 91 91 91
-0.9109557867050171 4.706089973449707 12.406096458435059 35 35 35
-8.462419509887695 -2.313180446624756 23.358736038208008 67 67 67
-0.3416420817375183 5.456125259399414 8.818778991699219 114 114 114
0.9868927597999573 0.39041581749916077 7.176804542541504 66 66 66
0.22225788235664368 5.389836311340332 9.235642433166504 121 121 121
-1.9325661659240723 3.2460200786590576 19.247831344604492 32 32 32
0.04576481878757477 5.387809753417969 9.062355041503906 113 113 113
0.9053241610527039 -0.3834223449230194 6.8626933097839355 149 149 149
-8.262491226196289 -2.56904935836792 17.790170669555664 15 15 15
-2.3744380474090576 3.070974349975586 19.287050247192383 6 6 6
-8.619084358215332 -0.09075142443180084 22.55198097229004 49 49 49
1.0276817083358765 1.235522985458374 6.9533514976501465 28 28 28
-8.940195083618164 -6.816648006439209 38.256996154785156 95 95 95
-8.449300765991211 0.5090437531471252 22.25045394897461 66 66 66
-8.302127838134766 1.387572169303894 20.202648162841797 3 3 3
-1.9569920301437378 2.7425966262817383 19.235187530517578 63 63 63
-8.355069160461426 -5.43547248840332 29.57716178894043 62 62 62
-8.573476791381836 -5.7892560958862305 21.16046142578125 27 27 27
-7.784315586090088 -5.657322883605957 27.080604553222656 54 54 54
-8.070121765136719 -1.1411160230636597 19.219696044921875 28 28 28
0.9034866094589233 -2.2268755435943604 6.535338401794434 100 100 100
0.9598767757415771 -0.42401373386383057 6.839939117431641 99 99 99
0.1308775544166565 5.026792526245117 10.37690544128418 56 56 56
-7.9967241287231445 -5.683243274688721 19.345365524291992 16 16 16
-9.581633567810059 -4.405328750610352 42.240509033203125 80 80 80
0.740500807762146 1.600321650505066 7.267726898193359 124 124 124
-8.30328369140625 -1.0807454586029053 19.19818878173828 86 86 86
0.9577335715293884 -1.210464358329773 6.735951900482178 86 86 86
-8.740873336791992 -5.578440189361572 31.134765625 204 204 204
0.961045503616333 -0.8012145161628723 6.8022685050964355 44 44 44
0.9899614453315735 -0.421163946390152 6.801661491394043 130 130 130
0.4620840549468994 -3.4421310424804688 6.260379791259766 93 93 93
-9.081202507019043 -5.026177406311035 44.439117431640625 176 176 176
-7.227299690246582 -7.7736334800720215 44.6639518737793 208 208 208
-2.480311155319214 0.16349361836910248 19.436227798461914 195 195 195
-9.139901161193848 -3.3355960845947266 34.3272590637207 94 94 94
-2.2187612056732178 0.12919634580612183 19.36991310119629 174 174 174
-8.854212760925293 -3.776050567626953 33.85667419433594 182 182 182
-8.373260498046875 -1.6373820304870605 22.765888214111328 52 52 52
-2.373178005218506 0.09716770797967911 19.45469856262207 92 92 92
-2.4966533184051514 0.06290678679943085 19.632301330566406 51 51 51
0.7085678577423096 3.906479835510254 7.457156658172607 85 85 85
-3.018785238265991 0.05312535539269447 19.720788955688477 110 110 110
1.0860340595245361 1.1230342388153076 7.047602653503418 115 115 115
0.9709933400154114 -0.38984864950180054 6.87407112121582 39 39 39
-7.617336750030518 -2.8544013500213623 17.84037208557129 80 80 80
-9.252657890319824 -3.8038406372070312 36.8017463684082 110 110 110
-9.612428665161133 -4.07029914855957 38.996036529541016 112 112 112
0.5813766717910767 -0.37468644976615906 6.837254524230957 39 39 39
-8.512153625488281 -5.474899768829346 29.40796661376953 41 41 41
-8.44591236114502 -4.710272789001465 29.397043228149414 31 31 31
-4.951827049255371 -7.279120445251465 20.378578186035156 219 219 219
-2.2054386138916016 -0.02028314769268036 18.733488082885742 121 121 121
-8.447999000549316 -4.476933479309082 29.434837341308594 73 73 73
-2.0340018272399902 -0.03360654413700104 19.35101318359375 23 23 23
-9.070162773132324 -5.019415855407715 44.38615798950195 176 176 176
-8.447402954101562 -4.476635456085205 29.4329833984375 73 73 73
-8.172257423400879 -3.649338483810425 33.71552658081055 28 28 28
1.053680181503296 0.8246657848358154 6.9673285484313965 20 20 20
-6.0516462326049805 -2.1966066360473633 41.538612365722656 155 155 155
0.902920126914978 -1.9583340883255005 6.5806169509887695 56 56 56
-8.655457496643066 -4.44965124130249 29.65482521057129 120 120 120
-2.2337887287139893 -0.11899217218160629 19.013505935668945 68 68 68
-8.322875022888184 -4.261651992797852 28.84831428527832 44 44 44
-8.32563304901123 -2.2994914054870605 18.330522537231445 6 6 6
1.144273042678833 2.702479839324951 7.306329250335693 128 128 128
-8.529608726501465 -3.7986645698547363 22.639318466186523 4 4 4
-8.619566917419434 -5.010348320007324 29.90365982055664 139 139 139
-8.211089134216309 -3.1196014881134033 18.983932495117188 145 145 145
-8.734930992126465 -3.0821783542633057 22.08395004272461 192 192 192
-8.040823936462402 1.551045298576355 22.762401580810547 73 73 73
-5.893219470977783 -7.6664533615112305 30.858488082885742 179 179 179
-8.153157234191895 1.4850915670394897 22.13274574279785 54 54 54
-8.292831420898438 -4.5305070877075195 18.45355987548828 2 2 2
-8.729166030883789 -4.836219787597656 20.077360153198242 116 116 116
-8.298583984375 -0.42477330565452576 22.807294845581055 50 50 50
-8.222981452941895 -4.273611068725586 18.408666610717773 2 2 2
0.9312527775764465 -1.558583378791809 6.64604377746582 38 38 38
-8.162710189819336 1.3413934707641602 21.911108016967773 207 207 207
-8.512414932250977 -5.475048542022705 29.408769607543945 41 41 41
-8.417118072509766 -4.959725379943848 22.243976593017578 98 98 98
-8.387375831604004 -4.713730335235596 19.23423194885254 29 29 29
-8.402162551879883 -4.925313472747803 21.79816246032715 119 119 119
-8.019342422485352 1.4572800397872925 21.504545211791992 25 25 25
-8.23600959777832 1.3172211647033691 21.824432373046875 179 179 179
-8.71911907196045 1.3506748676300049 22.241378784179688 121 121 121
-8.803832054138184 -4.654195308685303 21.85918426513672 118 118 118
-8.208274841308594 -3.9379918575286865 18.439373016357422 11 11 11
-8.493388175964355 -4.676004886627197 22.167695999145508 23 23 23
-8.1679048538208 -2.3965160846710205 19.06496810913086 2 2 2
-8.210237503051758 -3.9387850761413574 18.443313598632812 11 11 11
-8.597935676574707 -4.5464067459106445 21.62070083618164 14 14 14
-8.493980407714844 -4.676336765289307 22.169214248657227 23 23 23
-8.186412811279297 -0.5313478708267212 19.534337997436523 3 3 3
