ply
format ascii 1.0
element vertex 143
property float x
property float y
property float z
property uchar red
property uchar green
property uchar blue
end_header
-1.6726869344711304 0.0809234157204628 4.362940788269043 59 59 59
-9.236498832702637 -0.1988651007413864 47.304847717285156 39 39 39
-3.2824902534484863 -1.6512566804885864 21.986345291137695 45 45 45
-0.38540685176849365 -0.43906140327453613 5.9124369621276855 139 139 139
-0.8081161379814148 -1.664947748184204 12.811626434326172 199 199 199
-1.9382082223892212 1.317441463470459 29.326818466186523 137 137 137
-1.9382082223892212 1.317441463470459 29.326818466186523 137 137 137
-2.3998093605041504 -2.1824707984924316 40.096534729003906 57 57 57
-0.09569940716028214 -0.028368309140205383 1.6280919313430786 64 64 64
-0.2716901898384094 0.17805275321006775 4.6866912841796875 117 117 117
-1.9600149393081665 -2.315725803375244 37.029388427734375 80 80 80
-0.9237050414085388 -0.6903039813041687 17.820005416870117 90 90 90
-0.7324357628822327 -1.112778663635254 15.00564956665039 127 127 127
-1.6593830585479736 3.9651763439178467 33.95303726196289 122 122 122
-0.742556631565094 -2.1165966987609863 16.19130516052246 85 85 85
-1.4656325578689575 -2.3721323013305664 38.49694061279297 98 98 98
-1.1361596584320068 -2.572956085205078 35.63970947265625 117 117 117
-0.9855333566665649 -4.253266334533691 39.64209747314453 77 77 77
-0.45145222544670105 -4.80047082901001 31.038461685180664 54 54 54
0.09172971546649933 -1.8126134872436523 44.845096588134766 51 51 51
0.38054975867271423 -1.000288724899292 46.769691467285156 56 56 56
0.5545221567153931 -0.4403141438961029 39.23357009887695 64 64 64
0.5823927521705627 -8.099297523498535 36.1137809753418 57 57 57
1.2453300952911377 -3.244029998779297 47.19187545776367 28 28 28
1.4962964057922363 -1.0053341388702393 45.13169479370117 47 47 47
2.9276630878448486 -2.8839972019195557 45.36094665527344 205 205 205
3.182619333267212 -2.4301488399505615 45.06060791015625 18 18 18
4.2790703773498535 -1.9115996360778809 49.57373046875 28 28 28
2.8341422080993652 0.46231386065483093 31.954261779785156 28 28 28
4.900707721710205 -0.5027773380279541 49.126705169677734 86 86 86
4.749088287353516 -1.0371911525726318 43.50376892089844 64 64 64
4.749088287353516 -1.0371911525726318 43.50376892089844 64 64 64
5.769380569458008 1.2252660989761353 49.07319259643555 99 99 99
5.144093036651611 1.8713747262954712 42.93241882324219 101 101 101
5.796406269073486 -4.037964344024658 45.828155517578125 98 98 98
5.877469539642334 1.678831934928894 46.53704071044922 83 83 83
5.877469539642334 1.678831934928894 46.53704071044922 83 83 83
5.809463024139404 0.3824026584625244 45.4453010559082 221 221 221
6.5717949867248535 10.086935043334961 45.97429275512695 111 111 111
4.999016761779785 -1.5160170793533325 35.4025764465332 120 120 120
5.082499980926514 6.768721580505371 34.25821304321289 15 15 15
2.9279282093048096 -2.8842034339904785 45.364898681640625 205 205 205
3.1808645725250244 -2.8395984172821045 47.366764068603516 106 106 106
2.938941478729248 -2.714344024658203 47.376670837402344 173 173 173
2.9275078773498535 -2.883822441101074 45.358367919921875 205 205 205
5.620658874511719 -2.6853790283203125 46.81444549560547 141 141 141
1.4883179664611816 -3.1179659366607666 47.934383392333984 5 5 5
-3.754646062850952 -0.321097195148468 38.72804641723633 93 93 93
2.887967109680176 -2.6670114994049072 46.55564880371094 206 206 206
2.8323028087615967 -2.3433704376220703 45.958370208740234 183 183 183
-1.3269999027252197 -1.4659751653671265 21.86861228942871 147 147 147
3.3165085315704346 -1.6560598611831665 47.82817077636719 139 139 139
-3.4153242111206055 -1.9988179206848145 37.55439758300781 98 98 98
2.615842819213867 -1.5089049339294434 45.831180572509766 3 3 3
-0.2867989242076874 0.45192134380340576 6.664401531219482 118 118 118
2.832397699356079 -5.112990856170654 47.62459945678711 5 5 5
5.820910930633545 0.3829108476638794 45.53065872192383 221 221 221
5.62056827545166 -2.6853370666503906 46.813720703125 141 141 141
4.387274265289307 -4.6587114334106445 47.968116760253906 54 54 54
3.2911503314971924 -2.1824755668640137 41.25276184082031 50 50 50
-1.2111458778381348 3.4895520210266113 32.15755844116211 88 88 88
6.198594093322754 -2.828967571258545 49.0465087890625 91 91 91
1.571790337562561 -1.048470139503479 47.310794830322266 108 108 108
1.8909825086593628 -3.784795045852661 46.34148025512695 147 147 147
5.8191237449646 0.38281652331352234 45.517269134521484 221 221 221
-1.0504504442214966 -2.101473331451416 22.77597427368164 1 1 1
5.62062931060791 -2.68536639213562 46.814212799072266 141 141 141
1.5724295377731323 -1.0489252805709839 47.335697174072266 108 108 108
3.5003738403320312 -1.936313271522522 44.36315155029297 136 136 136
-1.0479037761688232 -2.096400737762451 22.721166610717773 1 1 1
3.367300271987915 -1.7021373510360718 48.645652770996094 115 115 115
3.5006790161132812 -1.9364736080169678 44.36686325073242 136 136 136
2.884624719619751 -2.6639564037323 46.50175476074219 206 206 206
2.0009841918945312 -4.562356948852539 39.678096771240234 177 177 177
5.622823238372803 -2.686418294906616 46.83186721801758 141 141 141
2.928537607192993 -2.884793281555176 45.37390899658203 205 205 205
2.92877197265625 -2.8850691318511963 45.37789535522461 205 205 205
3.4729597568511963 -0.7767021059989929 32.2430534362793 63 63 63
1.4985941648483276 -1.0067857503890991 45.20317077636719 47 47 47
4.7468342781066895 -1.0367246866226196 43.483497619628906 64 64 64
1.6752519607543945 -3.3869364261627197 41.331398010253906 147 147 147
1.2456049919128418 -3.1808431148529053 35.10791778564453 30 30 30
0.5175623297691345 -1.4551640748977661 16.10567283630371 21 21 21
3.0930380821228027 -2.418276309967041 46.123870849609375 97 97 97
2.9288814067840576 -2.8852126598358154 45.37972640991211 205 205 205
-3.409284830093384 -1.9951515197753906 37.4878044128418 98 98 98
5.620198726654053 -2.6851606369018555 46.81074523925781 141 141 141
3.281184196472168 -2.66210675239563 45.17792892456055 136 136 136
1.7862735986709595 -2.595374345779419 40.11961364746094 53 53 53
-0.38359516859054565 -2.9407880306243896 29.943645477294922 59 59 59
1.4691208600997925 -1.309387445449829 16.413837432861328 51 51 51
1.8827335834503174 -3.7682647705078125 46.14332580566406 147 147 147
-1.0502806901931763 -2.101091146469116 22.772092819213867 1 1 1
-0.09895475208759308 -0.04983054846525192 1.6609972715377808 71 71 71
3.472787380218506 -0.7766661047935486 32.24153137207031 63 63 63
-0.8078239560127258 -2.84806752204895 18.35779571533203 119 119 119
-3.388270378112793 6.27608585357666 40.29471206665039 11 11 11
-0.6542559862136841 -1.8750102519989014 14.352397918701172 83 83 83
2.303992509841919 -1.504746437072754 31.233314514160156 48 48 48
1.9979304075241089 -4.5555195808410645 39.61878967285156 177 177 177
-1.0970914363861084 -2.756539821624756 25.404460906982422 146 146 146
4.1122331619262695 -3.9522006511688232 46.37059783935547 110 110 110
2.9277126789093018 -2.884009599685669 45.361541748046875 205 205 205
2.927737236022949 -2.88401198387146 45.361942291259766 205 205 205
2.885221242904663 -2.664386510848999 46.51121139526367 173 173 173
2.8842811584472656 -2.663588523864746 46.49661636352539 173 173 173
3.7855494022369385 -2.099729299545288 47.79249954223633 136 136 136
2.1130707263946533 -1.5146383047103882 39.612701416015625 164 164 164
2.566955327987671 -2.388352394104004 41.626407623291016 206 206 206
3.4734017848968506 -0.7767964005470276 32.2471809387207 63 63 63
-1.3640724420547485 -0.8924813866615295 44.8144416809082 94 94 94
-0.3934434950351715 -3.025618314743042 30.7896728515625 59 59 59
-0.6238486766815186 -0.6253948211669922 48.608558654785156 3 3 3
-1.018807053565979 -2.0370898246765137 22.085630416870117 1 1 1
-1.3273146152496338 -1.4663714170455933 21.874746322631836 147 147 147
2.927644968032837 -2.88394832611084 45.360469818115234 205 205 205
2.92730712890625 -2.8836162090301514 45.35560989379883 205 205 205
3.783928155899048 -2.0987346172332764 47.77225112915039 136 136 136
2.5599913597106934 -1.6273306608200073 47.493919372558594 24 24 24
-1.2339398860931396 -0.8128699064254761 40.48141860961914 4 4 4
1.4988521337509155 -1.0069777965545654 45.20896530151367 47 47 47
1.489385724067688 -3.1200642585754395 47.9666862487793 5 5 5
-0.5694734454154968 -0.5775017738342285 44.23886489868164 63 63 63
-2.6590092182159424 -3.098803758621216 25.75353240966797 118 118 118
-0.2583489418029785 -0.8077607750892639 6.975918292999268 70 70 70
1.8682500123977661 -3.6446692943573 33.4445915222168 188 188 188
1.1588871479034424 -3.0424206256866455 31.81787109375 31 31 31
-0.7084708213806152 -0.6328932642936707 7.658763408660889 52 52 52
-1.3124542236328125 -1.450028657913208 21.628517150878906 147 147 147
2.9275588989257812 -2.8838400840759277 45.35924530029297 205 205 205
2.774357557296753 -1.840877652168274 34.77119064331055 88 88 88
3.4991023540496826 -1.9356234073638916 44.34743118286133 136 136 136
2.2315096855163574 -1.6216942071914673 39.78178024291992 134 134 134
2.9271810054779053 -2.8835041522979736 45.35379409790039 205 205 205
2.7741358280181885 -1.8407764434814453 34.76847457885742 88 88 88
3.855233907699585 -2.1274843215942383 48.66536331176758 136 136 136
-1.3766582012176514 -0.9006844162940979 45.2270393371582 94 94 94
-1.699852466583252 -0.34008827805519104 31.23001480102539 59 59 59
-1.7333316802978516 2.4232935905456543 37.97221374511719 41 41 41
0.5675697922706604 -1.7954821586608887 15.202546119689941 94 94 94
-1.75967276096344 -1.6449936628341675 13.870214462280273 81 81 81
-7.805797100067139 -3.667325496673584 41.86948776245117 32 32 32
-1.3129469156265259 -1.4506306648254395 21.637645721435547 147 147 147
