ply
format ascii 1.0
element vertex 722
property float x
property float y
property float z
property uchar red
property uchar green
property uchar blue
end_header
-7.521003723144531 -1.7704142332077026 37.76647186279297 63 63 63
-7.313639163970947 -3.683518409729004 36.90290451049805 119 119 119
-6.836803913116455 -11.811593055725098 34.59089279174805 124 124 124
-7.122848033905029 -12.530434608459473 36.03206253051758 22 22 22
-6.922589302062988 -14.749049186706543 35.246944427490234 113 113 113
-6.978529930114746 18.91133689880371 35.590152740478516 41 41 41
-7.627212047576904 4.467953205108643 39.03288269042969 71 71 71
-7.905745506286621 -6.076866626739502 40.614627838134766 105 105 105
-6.2095513343811035 -15.260991096496582 31.877798080444336 110 110 110
-5.605160713195801 0.9028761982917786 29.23378562927246 22 22 22
-7.319224834442139 7.698720455169678 38.2301025390625 60 60 60
-6.609786033630371 -11.950783729553223 34.528682708740234 35 35 35
-6.609786033630371 -11.950783729553223 34.528682708740234 35 35 35
-6.968031406402588 21.873342514038086 36.56283187866211 64 64 64
-6.248066425323486 -15.169306755065918 32.91545867919922 115 115 115
-6.248066425323486 -15.169306755065918 32.91545867919922 115 115 115
-6.682744979858398 -4.726955413818359 35.2054328918457 82 82 82
-7.32861328125 4.608924388885498 38.65970993041992 19 19 19
-6.7405476570129395 -2.414907455444336 35.81769561767578 63 63 63
-6.862967014312744 17.7922420501709 35.973419189453125 16 16 16
-7.442917823791504 1.8947564363479614 39.40342712402344 88 88 88
-7.063323974609375 22.005168914794922 37.72787857055664 79 79 79
-6.74771785736084 9.10151481628418 36.577720642089844 15 15 15
-6.74771785736084 9.10151481628418 36.577720642089844 15 15 15
-6.147937774658203 -12.646526336669922 32.66587448120117 116 116 116
-5.811652660369873 -17.067358016967773 31.610958099365234 100 100 100
-5.967586040496826 -5.166961193084717 32.750240325927734 76 76 76
-5.973242282867432 -2.3027689456939697 32.82160568237305 66 66 66
-7.097944259643555 13.03332805633545 38.95348358154297 20 20 20
-5.954272270202637 -12.442527770996094 32.79713439941406 123 123 123
-6.909584045410156 -10.817155838012695 38.415584564208984 104 104 104
-6.909584045410156 -10.817155838012695 38.415584564208984 104 104 104
-7.342489242553711 8.435763359069824 40.62213897705078 18 18 18
-6.814333438873291 7.031147480010986 37.86742401123047 71 71 71
-6.215999126434326 -11.116901397705078 34.605960845947266 114 114 114
-7.134922027587891 15.042567253112793 40.22985076904297 36 36 36
-6.007595062255859 -12.469986915588379 33.81899642944336 115 115 115
-5.389983177185059 -16.814014434814453 30.742027282714844 114 114 114
-6.41058349609375 -0.8061037063598633 36.6268424987793 72 72 72
-5.30200719833374 -15.825499534606934 30.852542877197266 74 74 74
-6.413618087768555 0.0342559814453125 36.94609832763672 70 70 70
-6.709844589233398 14.530014038085938 38.52836227416992 51 51 51
-6.470401763916016 0.42894020676612854 37.962791442871094 62 62 62
-5.1546454429626465 -11.48906421661377 30.402372360229492 114 114 114
-5.800748825073242 -1.355176329612732 35.27879333496094 66 66 66
-4.791697025299072 -11.42312240600586 29.554689407348633 96 96 96
-5.644528865814209 -13.009506225585938 34.64594650268555 73 73 73
-5.861750602722168 19.642845153808594 36.54661560058594 54 54 54
-5.036784648895264 -15.79053783416748 31.56241226196289 123 123 123
-5.956842422485352 -0.691972553730011 37.37283706665039 66 66 66
-4.1780290603637695 -12.998355865478516 25.62239646911621 34 34 34
-5.002927780151367 -12.650830268859863 31.938146591186523 111 111 111
-4.774754524230957 -11.964949607849121 31.266307830810547 16 16 16
-4.955561637878418 -7.674671649932861 32.49699783325195 100 100 100
-5.514483451843262 19.988388061523438 36.367950439453125 42 42 42
-5.001529693603516 -3.567936658859253 33.70651626586914 88 88 88
-4.873993396759033 -6.600192546844482 33.56796646118164 116 116 116
-4.603862285614014 -7.199832439422607 31.64068603515625 134 134 134
-5.193380832672119 -10.528327941894531 35.438758850097656 148 148 148
-4.2103753089904785 -2.2697200775146484 28.666484832763672 64 64 64
-4.734572410583496 0.6921780109405518 32.495216369628906 88 88 88
-4.887899875640869 -4.751671314239502 33.62736892700195 24 24 24
-4.712064266204834 -4.803837776184082 32.533546447753906 56 56 56
-4.6820387840271 -6.802176475524902 32.62209701538086 102 102 102
-4.97779655456543 -1.7624911069869995 35.07676696777344 21 21 21
-4.7432026863098145 -6.829885005950928 33.51177215576172 114 114 114
-5.073581695556641 1.9749997854232788 36.06920623779297 16 16 16
-5.073581695556641 1.9749997854232788 36.06920623779297 16 16 16
-4.988505840301514 -0.41148483753204346 35.49428939819336 18 18 18
-4.794121742248535 -3.717205047607422 34.339534759521484 119 119 119
-4.611994743347168 -2.3061039447784424 33.137516021728516 70 70 70
-4.912107944488525 2.838383197784424 35.32901382446289 19 19 19
-5.240952968597412 11.484970092773438 37.81056594848633 113 113 113
-4.767723560333252 4.498288631439209 34.74564743041992 6 6 6
-4.886908054351807 5.997908115386963 35.444679260253906 14 14 14
-4.727985858917236 4.460855007171631 34.45496368408203 6 6 6
-4.576581001281738 -6.647444248199463 33.29472351074219 28 28 28
-4.610464572906494 10.56299114227295 34.84720230102539 9 9 9
-4.795965671539307 2.98441743850708 35.81200408935547 97 97 97
-4.502349853515625 16.353179931640625 34.511878967285156 17 17 17
-4.501993656158447 16.35169792175293 34.50891876220703 17 17 17
-4.501993656158447 16.35169792175293 34.50891876220703 17 17 17
-4.161849021911621 8.116116523742676 31.423372268676758 101 101 101
-4.292479515075684 -16.412134170532227 33.23658752441406 13 13 13
-4.710955619812012 10.783625602722168 36.834983825683594 53 53 53
-4.344299793243408 14.593494415283203 33.9656867980957 97 97 97
-4.754327297210693 -5.205259323120117 38.62131881713867 67 67 67
-4.060318946838379 0.5764642357826233 33.493675231933594 56 56 56
-3.727835178375244 -6.129971027374268 31.067216873168945 111 111 111
-3.4777779579162598 -8.333830833435059 29.987945556640625 74 74 74
-4.001423358917236 -1.1907156705856323 32.93903350830078 117 117 117
-3.6465296745300293 16.96694564819336 30.699979782104492 19 19 19
-4.0500898361206055 15.311787605285645 34.548484802246094 42 42 42
-3.7126362323760986 -7.840726375579834 32.193180084228516 80 80 80
-3.83107328414917 4.8785786628723145 34.35603713989258 80 80 80
-3.83107328414917 4.8785786628723145 34.35603713989258 80 80 80
-3.0374526977539062 -16.840810775756836 27.329816818237305 82 82 82
-3.527791976928711 14.485278129577637 33.0862922668457 55 55 55
-3.3930470943450928 -3.6713690757751465 32.02870178222656 67 67 67
-3.7111635208129883 -3.3696911334991455 36.170658111572266 72 72 72
-3.2908835411071777 0.1519969254732132 32.94606018066406 70 70 70
-2.9799981117248535 -15.140281677246094 30.422643661499023 13 13 13
-2.7595038414001465 -8.984701156616211 29.825790405273438 111 111 111
-3.1125504970550537 8.541688919067383 33.63470458984375 49 49 49
-2.773554563522339 -4.743669033050537 30.61829376220703 22 22 22
-2.8171236515045166 -3.111994504928589 31.250518798828125 139 139 139
-2.74566388130188 -4.523317337036133 30.464914321899414 119 119 119
-2.8171722888946533 -1.816853404045105 31.88855743408203 18 18 18
-2.574856758117676 1.0336805582046509 29.169906616210938 62 62 62
-2.7980153560638428 7.592127323150635 32.54255676269531 47 47 47
-3.3137409687042236 13.024130821228027 38.609867095947266 68 68 68
-2.91701602935791 7.509822368621826 34.12079620361328 65 65 65
-2.5692150592803955 13.8807954788208 30.35344123840332 53 53 53
-2.709726333618164 6.270623683929443 32.31083297729492 22 22 22
-2.7313179969787598 -0.06032482907176018 32.57126998901367 20 20 20
-2.7084741592407227 2.960604429244995 32.7170524597168 6 6 6
-2.702486991882324 1.229562759399414 32.468040466308594 18 18 18
-2.5242373943328857 12.601755142211914 30.32965660095215 52 52 52
-2.5436809062957764 6.824178218841553 30.267473220825195 161 161 161
-2.6967382431030273 4.265108108520508 32.64566421508789 16 16 16
-2.46653413772583 13.627487182617188 29.904041290283203 51 51 51
-2.6884443759918213 1.39887535572052 32.68390655517578 168 168 168
-2.517530679702759 -0.2324015349149704 31.444965362548828 20 20 20
-2.5520057678222656 7.383399963378906 31.404211044311523 53 53 53
-2.5959625244140625 8.850228309631348 31.941804885864258 17 17 17
-2.4887800216674805 16.611663818359375 30.67815399169922 20 20 20
-2.3843674659729004 16.036781311035156 30.090545654296875 12 12 12
-2.499699831008911 -7.562946796417236 31.248960494995117 66 66 66
-2.4114983081817627 -5.577857494354248 30.331613540649414 77 77 77
-2.4483964443206787 11.264932632446289 31.232065200805664 9 9 9
-2.383030891418457 13.690415382385254 30.55240249633789 10 10 10
-2.383030891418457 13.690415382385254 30.55240249633789 10 10 10
-2.435957193374634 -9.496847152709961 31.92064666748047 107 107 107
-2.4248623847961426 7.043554306030273 31.22503089904785 67 67 67
-2.339128255844116 8.36748218536377 31.8870849609375 49 49 49
-2.2123095989227295 13.290133476257324 30.563941955566406 93 93 93
-2.3151156902313232 12.506891250610352 31.138723373413086 64 64 64
-2.1613051891326904 0.5585930943489075 32.23386001586914 62 62 62
-1.8822605609893799 -7.049892425537109 28.6363582611084 86 86 86
-2.333620071411133 14.880105018615723 35.696537017822266 52 52 52
-1.9744555950164795 4.370168685913086 30.706436157226562 74 74 74
-2.021437644958496 1.9291337728500366 31.825790405273438 64 64 64
-2.021437644958496 1.9291337728500366 31.825790405273438 64 64 64
-1.9640569686889648 5.685911178588867 33.67375183105469 89 89 89
-1.695814609527588 5.027825832366943 27.616355895996094 8 8 8
-1.9851105213165283 16.33612060546875 32.92098617553711 106 106 106
-1.4819566011428833 -15.284795761108398 24.703044891357422 55 55 55
-2.088632583618164 4.184973239898682 35.811561584472656 62 62 62
-1.6219731569290161 -1.1087470054626465 26.37148666381836 74 74 74
-1.9400907754898071 6.180328369140625 33.7694091796875 4 4 4
-1.4916760921478271 -6.918854236602783 27.483339309692383 110 110 110
-1.5745327472686768 -0.16711300611495972 29.998924255371094 36 36 36
-1.6578118801116943 -4.483426570892334 31.34995460510254 85 85 85
-2.1938226222991943 6.132030487060547 42.38250732421875 71 71 71
-1.4929308891296387 4.551765441894531 29.281885147094727 64 64 64
-1.5495197772979736 12.520051002502441 33.26410675048828 28 28 28
-1.3170629739761353 -5.661854267120361 28.160076141357422 111 111 111
-1.401686429977417 0.38117697834968567 30.45465087890625 65 65 65
-1.4868578910827637 -6.335295677185059 32.63572692871094 77 77 77
-1.181612253189087 9.171012878417969 30.288463592529297 51 51 51
-1.0443389415740967 0.33083251118659973 28.00716209411621 68 68 68
-1.008348822593689 -4.096884727478027 28.091350555419922 105 105 105
-1.0226808786392212 -3.0109198093414307 29.363014221191406 181 181 181
-0.9088619947433472 -0.2528798282146454 29.357563018798828 34 34 34
-0.9006525278091431 9.336634635925293 28.190576553344727 51 51 51
-0.9344172477722168 2.6037967205047607 29.858184814453125 85 85 85
-0.844165563583374 4.1905012130737305 27.54262351989746 70 70 70
-0.844165563583374 4.1905012130737305 27.54262351989746 70 70 70
-0.8075495362281799 14.054508209228516 27.710205078125 79 79 79
-0.7433329820632935 -1.2123303413391113 26.273693084716797 79 79 79
-0.8195295333862305 -0.20084397494792938 29.254093170166016 19 19 19
-0.7924134135246277 -4.190382480621338 28.413984298706055 18 18 18
-0.7938100695610046 -4.213001728057861 28.542522430419922 18 18 18
-0.8171141147613525 4.370132923126221 29.402856826782227 15 15 15
-0.7709283828735352 -3.9019289016723633 28.274856567382812 19 19 19
-0.7709283828735352 -3.9019289016723633 28.274856567382812 19 19 19
-0.7345744967460632 11.49306869506836 27.476585388183594 100 100 100
-0.7184835076332092 11.465088844299316 26.84468650817871 65 65 65
-0.778613269329071 10.99069881439209 29.018260955810547 60 60 60
-0.6856265068054199 3.8980255126953125 27.59337043762207 10 10 10
-0.7456063628196716 1.5023431777954102 29.243793487548828 22 22 22
-0.7554397583007812 2.7365148067474365 29.91925621032715 15 15 15
-0.6416974663734436 -5.13455867767334 24.67391586303711 56 56 56
-0.6942834854125977 1.3665491342544556 28.84503936767578 152 152 152
-0.6054083704948425 12.727418899536133 27.427579879760742 101 101 101
-0.7999505400657654 -11.550494194030762 36.04302215576172 9 9 9
-0.5878298878669739 9.279802322387695 28.29404067993164 36 36 36
-0.6257883906364441 4.338204383850098 29.85759925842285 53 53 53
-0.527836263179779 -5.3318963050842285 27.354507446289062 75 75 75
-0.6168889403343201 -3.398688793182373 32.47022247314453 67 67 67
-0.5125274062156677 11.700830459594727 30.59461784362793 51 51 51
-0.47832822799682617 1.6517858505249023 29.418176651000977 82 82 82
-0.4772856533527374 2.8186891078948975 30.00992202758789 20 20 20
-0.4095492362976074 -0.22654491662979126 30.2736759185791 89 89 89
-0.41358572244644165 17.23920249938965 33.309452056884766 63 63 63
-0.2952842712402344 1.5780105590820312 28.416748046875 66 66 66
-0.3141268491744995 -9.328177452087402 27.84429931640625 37 37 37
-0.16310249269008636 11.210352897644043 30.468992233276367 63 63 63
-0.1291014701128006 8.58159351348877 28.613479614257812 56 56 56
0.01762543059885502 4.362176418304443 26.713478088378906 59 59 59
0.01762543059885502 4.362176418304443 26.713478088378906 59 59 59
0.04851747304201126 3.6707470417022705 27.516958236694336 53 53 53
0.103415846824646 3.581939935684204 28.00895881652832 56 56 56
0.20404884219169617 13.750733375549316 29.94011116027832 58 58 58
0.11218128353357315 -1.0786319971084595 26.74029541015625 61 61 61
0.32583463191986084 11.959056854248047 34.31360626220703 48 48 48
0.4381413161754608 13.847110748291016 26.60491943359375 120 120 120
0.4457889497280121 10.391546249389648 23.648569107055664 43 43 43
0.5756341218948364 13.804999351501465 26.486373901367188 96 96 96
0.5906952619552612 4.858390808105469 25.699800491333008 55 55 55
-4.769800186157227 -11.14431381225586 31.082033157348633 94 94 94
-4.769856929779053 -11.1444673538208 31.082448959350586 94 94 94
-6.7416887283325195 -16.724407196044922 33.54209518432617 89 89 89
-9.510024070739746 -13.45500373840332 37.298866271972656 19 19 19
-7.127540111541748 6.335991859436035 37.884857177734375 10 10 10
-4.686820030212402 16.46967124938965 37.99497985839844 107 107 107
-7.24539041519165 1.236132025718689 38.603363037109375 28 28 28
-7.005127429962158 7.827605247497559 37.729244232177734 96 96 96
-2.3124918937683105 9.506608009338379 30.402164459228516 89 89 89
-6.600528717041016 -6.372901916503906 33.26235580444336 99 99 99
-2.504002571105957 -7.519261837005615 29.26976203918457 55 55 55
-7.422242164611816 -12.706031799316406 36.17985534667969 31 31 31
-7.422563076019287 -12.70663833618164 36.181156158447266 31 31 31
-7.099539756774902 -16.92411994934082 34.2877197265625 77 77 77
-0.7298264503479004 -6.897439479827881 27.130674362182617 139 139 139
-9.722577095031738 -7.671693801879883 39.03107833862305 133 133 133
-9.698898315429688 -5.889502048492432 40.19099807739258 52 52 52
-4.616628646850586 10.57717227935791 34.893699645996094 9 9 9
-3.5702295303344727 9.424856185913086 27.47364616394043 41 41 41
-9.520844459533691 -7.640988349914551 39.301002502441406 38 38 38
-10.5444917678833 3.381852388381958 45.04460906982422 118 118 118
-6.647800922393799 -8.062028884887695 32.359458923339844 114 114 114
-7.595027923583984 11.782222747802734 40.55282211303711 125 125 125
-7.34611701965332 4.8175578117370605 39.76654815673828 82 82 82
-7.347347736358643 4.818335056304932 39.77324676513672 82 82 82
-10.393343925476074 1.364188551902771 44.237056732177734 2 2 2
-10.542240142822266 3.3810648918151855 45.03481674194336 118 118 118
-7.34699821472168 4.818114757537842 39.771339416503906 82 82 82
-9.52100944519043 -7.641112327575684 39.3017692565918 38 38 38
-2.81681227684021 -3.1116349697113037 31.24708366394043 139 139 139
-10.393717765808105 1.3642518520355225 44.23871994018555 2 2 2
-7.313521385192871 -3.6834545135498047 36.902305603027344 119 119 119
-5.848762512207031 -10.011529922485352 40.696197509765625 126 126 126
-6.970830917358398 -8.734776496887207 35.636497497558594 61 61 61
-7.221127510070801 2.9622299671173096 37.27560043334961 177 177 177
-0.8567973971366882 8.765262603759766 31.404741287231445 4 4 4
-2.686802387237549 -4.828201770782471 30.5008602142334 84 84 84
-9.415285110473633 -15.872455596923828 36.58888244628906 120 120 120
-2.635347604751587 5.841838359832764 32.23964309692383 22 22 22
-2.4944281578063965 8.387531280517578 30.955774307250977 4 4 4
-10.037581443786621 -13.439898490905762 39.258148193359375 23 23 23
-2.739410638809204 8.672562599182129 32.22144317626953 166 166 166
-9.612239837646484 -4.097586631774902 40.917930603027344 44 44 44
-4.73214864730835 4.464763641357422 34.48612594604492 6 6 6
-9.263041496276855 -9.154240608215332 37.818328857421875 23 23 23
-2.448429822921753 11.264938354492188 31.23194694519043 9 9 9
-9.5236177444458 15.3994722366333 42.41655349731445 100 100 100
-6.963077068328857 -5.693264007568359 35.13987350463867 13 13 13
-4.850959777832031 -13.91071891784668 31.20283317565918 5 5 5
-9.608810424804688 -4.105721950531006 40.891239166259766 48 48 48
-9.607599258422852 -4.1052045822143555 40.885719299316406 48 48 48
-6.912018299102783 -15.432774543762207 34.38920974731445 134 134 134
-7.357790470123291 -2.313173532485962 38.11880111694336 135 135 135
-4.467432498931885 7.210202217102051 33.1533317565918 25 25 25
-4.468329429626465 7.211872100830078 33.16105270385742 25 25 25
-5.132022380828857 -3.6750664710998535 34.920040130615234 119 119 119
-9.735124588012695 -2.4231796264648438 41.162628173828125 101 101 101
-4.864656925201416 -14.359881401062012 31.67728042602539 69 69 69
-0.6038025617599487 5.251220226287842 27.96183204650879 107 107 107
-9.459298133850098 -11.167099952697754 38.86566162109375 1 1 1
-9.379551887512207 -11.073043823242188 38.4560546875 62 62 62
-7.094343185424805 -10.346373558044434 35.562137603759766 120 120 120
-7.607730865478516 -10.78205680847168 36.612117767333984 28 28 28
-9.645413398742676 8.281801223754883 41.43434143066406 102 102 102
-4.993971824645996 -9.840903282165527 32.513816833496094 41 41 41
-7.158647060394287 -0.39450618624687195 37.45357131958008 22 22 22
-0.9088848829269409 -0.25290703773498535 29.358837127685547 34 34 34
-0.696327269077301 -0.23879075050354004 28.743534088134766 145 145 145
-2.8497936725616455 -0.16079159080982208 32.27976989746094 181 181 181
-1.9063242673873901 -0.10177541524171829 30.88666534423828 11 11 11
-0.7445127964019775 -5.949900150299072 28.60845184326172 58 58 58
-0.8691691756248474 4.6041388511657715 30.039133071899414 138 138 138
-9.818318367004395 -5.502960681915283 39.8707275390625 169 169 169
-4.442770481109619 13.228392601013184 33.93450164794922 7 7 7
-10.089844703674316 -13.182827949523926 39.508846282958984 88 88 88
-0.8728885054588318 -4.247259616851807 30.15336036682129 129 129 129
-2.5980803966522217 1.3316251039505005 33.18234634399414 96 96 96
-0.710959255695343 1.3952155113220215 29.543874740600586 152 152 152
-9.608453750610352 -4.105584621429443 40.88956069946289 48 48 48
-7.611688137054443 -17.60870361328125 35.06507110595703 119 119 119
-3.617155075073242 12.133806228637695 28.204776763916016 118 118 118
-0.711122989654541 1.3955503702163696 29.550840377807617 152 152 152
-7.2502617835998535 8.120849609375 39.18552017211914 83 83 83
-4.526125431060791 8.82536792755127 34.19612121582031 103 103 103
-9.3793363571167 -11.072782516479492 38.455101013183594 62 62 62
-4.557758808135986 -6.573049068450928 32.76454544067383 6 6 6
-6.974277019500732 16.17569351196289 38.738624572753906 6 6 6
-0.6283701062202454 11.681832313537598 27.927221298217773 12 12 12
-4.640233039855957 10.63150405883789 35.091983795166016 9 9 9
-4.694397926330566 -4.420694351196289 31.808853149414062 120 120 120
-9.459127426147461 -11.166913986206055 38.864990234375 1 1 1
-6.915043830871582 -15.438855171203613 34.402137756347656 134 134 134
-4.847511291503906 1.2965008020401 34.94514846801758 22 22 22
-9.69951057434082 -5.889550685882568 40.1943359375 52 52 52
-6.9124436378479 -15.43386173248291 34.39168167114258 134 134 134
-9.76012134552002 -11.395318984985352 39.09757614135742 134 134 134
-9.100458145141602 -6.897723197937012 45.24869918823242 95 95 95
-7.313779354095459 -3.6835968494415283 36.903663635253906 119 119 119
-2.5004210472106934 8.407533645629883 31.026628494262695 4 4 4
-4.7119460105896 -4.8037028312683105 32.532588958740234 56 56 56
-4.992469310760498 -9.837822914123535 32.50363540649414 41 41 41
-9.69897174835205 -5.8895182609558105 40.19137191772461 52 52 52
-4.712174892425537 -4.803967475891113 32.53437042236328 56 56 56
-9.698970794677734 -5.8895158767700195 40.191368103027344 52 52 52
-2.5978634357452393 1.331278920173645 33.17913818359375 96 96 96
-0.710959255695343 1.3952155113220215 29.543874740600586 152 152 152
-7.125916004180908 6.334435939788818 37.87550735473633 10 10 10
-2.3829891681671143 13.690215110778809 30.55196762084961 10 10 10
-10.19997787475586 -13.317854881286621 39.9289436340332 88 88 88
-6.955097198486328 -5.68868350982666 35.096317291259766 13 13 13
-4.757047176361084 -1.8793222904205322 33.758827209472656 23 23 23
-6.499592304229736 -2.5160229206085205 46.15641784667969 62 62 62
-7.182102203369141 -12.200441360473633 35.669219970703125 80 80 80
-2.6867456436157227 -4.82810640335083 30.500228881835938 84 84 84
-7.37428617477417 -13.964240074157715 35.66257095336914 150 150 150
-7.255428314208984 -12.550468444824219 35.89942932128906 7 7 7
-7.2554545402526855 -12.550518035888672 35.89957046508789 7 7 7
-10.044766426086426 -15.03127670288086 39.094520568847656 131 131 131
-9.82763671875 -2.438600778579712 40.01395034790039 69 69 69
-7.12733793258667 6.335712432861328 37.88300704956055 10 10 10
-7.422177314758301 -12.705918312072754 36.17966079711914 31 31 31
-4.769938945770264 -11.144698143005371 31.083084106445312 94 94 94
-7.522093772888184 -5.78576135635376 38.66336441040039 114 114 114
-10.542881965637207 3.381294012069702 45.03767395019531 118 118 118
-9.262456893920898 -9.153639793395996 37.81581497192383 23 23 23
-9.262924194335938 -9.154108047485352 37.817806243896484 23 23 23
-1.938672661781311 -0.09692708402872086 31.650287628173828 15 15 15
-9.492713928222656 -4.055135726928711 40.36980438232422 14 14 14
-10.131342887878418 5.131295680999756 43.372684478759766 73 73 73
-9.607961654663086 -4.105376720428467 40.88734436035156 48 48 48
-9.262229919433594 -9.15339469909668 37.81483840942383 23 23 23
-4.468136310577393 7.211610317230225 33.159915924072266 25 25 25
-2.8672289848327637 -0.19066044688224792 33.122013092041016 192 192 192
-6.954275608062744 -8.748948097229004 35.0950927734375 135 135 135
-9.691062927246094 11.914575576782227 42.49934387207031 10 10 10
-0.8777825832366943 4.235347747802734 29.859268188476562 122 122 122
-0.6854739189147949 3.8971011638641357 27.586936950683594 10 10 10
-11.448161125183105 -19.91643524169922 40.89103317260742 90 90 90
-0.7298060655593872 -6.896807670593262 27.128244400024414 139 139 139
-0.9088951349258423 -0.25291907787323 29.359893798828125 34 34 34
-0.5933352708816528 2.725245237350464 29.218534469604492 134 134 134
-7.166823863983154 -0.3951821029186249 37.499393463134766 22 22 22
-2.728240728378296 2.9914798736572266 32.9925422668457 6 6 6
-9.768850326538086 6.695652484893799 42.25419616699219 12 12 12
-9.770048141479492 6.696537971496582 42.2593879699707 12 12 12
-2.816514730453491 -3.111283779144287 31.243789672851562 139 139 139
-6.736820220947266 9.104089736938477 36.586360931396484 15 15 15
-1.994231104850769 -13.788230895996094 25.749065399169922 39 39 39
-2.835645914077759 5.245107650756836 38.5941047668457 116 116 116
-4.862884998321533 -0.4816865921020508 35.20771026611328 103 103 103
-8.57695198059082 3.694938898086548 45.87934494018555 3 3 3
-4.82906436920166 2.792825222015381 35.70866775512695 101 101 101
-9.455571174621582 17.067956924438477 42.24738693237305 44 44 44
-7.595037937164307 11.78223991394043 40.552886962890625 125 125 125
-7.9391865730285645 -2.3973441123962402 39.86048126220703 36 36 36
-2.9308316707611084 9.35278034210205 34.69198226928711 123 123 123
-6.970807075500488 -8.734743118286133 35.63636779785156 61 61 61
-7.072646617889404 6.502699851989746 37.839820861816406 130 130 130
-6.615337371826172 -4.931779861450195 34.50962829589844 14 14 14
-4.872557640075684 -0.44180917739868164 33.67562484741211 101 101 101
-0.856773316860199 8.764392852783203 31.401718139648438 4 4 4
-6.973367691040039 16.173542022705078 38.73357391357422 6 6 6
-2.766741991043091 1.149285912513733 31.9592342376709 65 65 65
-10.040321350097656 -17.254215240478516 38.92765808105469 107 107 107
-2.5011441707611084 -9.162638664245605 30.140064239501953 103 103 103
-9.416398048400879 -15.874358177185059 36.59324645996094 120 120 120
-4.730010509490967 -7.827974319458008 34.24491500854492 25 25 25
-7.092456817626953 -10.343345642089844 35.552146911621094 120 120 120
-4.606012344360352 -7.203476905822754 31.65536880493164 134 134 134
-4.4425787925720215 13.227815628051758 33.9329948425293 7 7 7
-4.5174055099487305 5.91337251663208 34.11000061035156 51 51 51
-10.1312894821167 5.1312761306762695 43.3724479675293 73 73 73
-9.521039009094238 -7.641132354736328 39.301902770996094 38 38 38
-2.4942803382873535 10.79461669921875 30.226015090942383 118 118 118
-4.679165363311768 -15.231352806091309 30.0330810546875 74 74 74
-4.61488676071167 -6.669547080993652 33.224220275878906 6 6 6
-8.248143196105957 -16.37416648864746 32.95928192138672 103 103 103
-9.979472160339355 -18.65357780456543 38.52518844604492 79 79 79
-10.394807815551758 1.3642584085464478 44.24361038208008 2 2 2
-0.7728351950645447 -1.5023434162139893 28.869373321533203 17 17 17
-6.780370712280273 -14.71866512298584 32.541500091552734 134 134 134
-4.756597995758057 -1.8791401386260986 33.75551986694336 23 23 23
-4.842194557189941 -13.884379386901855 31.143522262573242 5 5 5
-6.911802291870117 -15.432287216186523 34.38813018798828 134 134 134
-2.9985151290893555 -1.9442201852798462 32.709598541259766 96 96 96
-9.737004280090332 -2.423645257949829 41.17055130004883 101 101 101
-8.998758316040039 -2.7194814682006836 45.17928695678711 49 49 49
-2.699052095413208 1.1105713844299316 30.974720001220703 63 63 63
-2.6321258544921875 1.3336514234542847 31.841997146606445 96 96 96
-10.053766250610352 -15.045652389526367 39.13120651245117 131 131 131
-7.313565254211426 -3.683476686477661 36.902488708496094 119 119 119
-0.6190657019615173 6.485447883605957 27.630754470825195 49 49 49
-4.7695746421813965 -11.143742561340332 31.080476760864258 94 94 94
-0.7109590768814087 1.3952124118804932 29.54380989074707 152 152 152
-9.613375663757324 -4.098165988922119 40.92243194580078 44 44 44
-7.183457851409912 -12.202631950378418 35.675758361816406 80 80 80
-9.608753204345703 -4.105713844299316 40.89086151123047 48 48 48
-4.329285144805908 8.442200660705566 32.69282150268555 105 105 105
-4.1406025886535645 8.075156211853027 31.258026123046875 101 101 101
-3.9063947200775146 6.092983722686768 28.142820358276367 93 93 93
-10.16598892211914 -13.292672157287598 39.8249626159668 88 88 88
-2.712334156036377 8.654576301574707 32.0388069152832 82 82 82
-10.484099388122559 3.0701076984405518 43.778648376464844 56 56 56
-10.544133186340332 3.3817193508148193 45.04307174682617 118 118 118
-5.0000224113464355 -4.810367584228516 34.06208801269531 20 20 20
-4.991938591003418 -9.83655071258545 32.49961471557617 41 41 41
-8.353198051452637 -0.34959495067596436 42.80988311767578 129 129 129
-7.5932440757751465 11.779461860656738 40.5433235168457 125 125 125
-2.7594141960144043 -8.984339714050293 29.82464599609375 111 111 111
-4.94075870513916 6.12181282043457 36.180320739746094 15 15 15
-0.7213677167892456 -0.2403033971786499 29.904991149902344 158 158 158
-7.127010345458984 6.335431098937988 37.881683349609375 10 10 10
-10.094841003417969 -11.846848487854004 40.7447395324707 15 15 15
-7.603506565093994 -10.775568008422852 36.590003967285156 28 28 28
-4.712349891662598 -4.804171562194824 32.53572463989258 56 56 56
-9.45780086517334 -11.165266036987305 38.85927963256836 1 1 1
-3.124457836151123 -0.22150054574012756 35.861114501953125 118 118 118
-2.5125787258148193 -0.23215816915035248 31.382322311401367 20 20 20
-4.798040390014648 10.692357063293457 35.16455078125 143 143 143
-2.517775774002075 4.381417751312256 32.83261489868164 29 29 29
-6.745804309844971 -5.330923080444336 34.34214401245117 152 152 152
-2.842874526977539 -7.981711387634277 30.887868881225586 100 100 100
-0.5765731334686279 9.200206756591797 28.072961807250977 35 35 35
-6.890504837036133 -8.681232452392578 34.72317123413086 134 134 134
-9.26215648651123 -9.15331745147705 37.81452178955078 23 23 23
-9.263073921203613 -9.154288291931152 37.818485260009766 23 23 23
-9.263002395629883 -9.154215812683105 37.81817626953125 23 23 23
-6.974343299865723 16.175832748413086 38.73896789550781 6 6 6
-10.341328620910645 -2.230262517929077 42.18528366088867 116 116 116
-0.856660783290863 10.196995735168457 27.959087371826172 64 64 64
-7.280013084411621 -13.518210411071777 34.8887825012207 43 43 43
-4.4714179039001465 2.5489919185638428 32.740760803222656 67 67 67
-6.974459648132324 9.14193058013916 36.76938247680664 84 84 84
-2.541186571121216 -9.351000785827637 30.72284507751465 103 103 103
-0.687406599521637 5.472939968109131 29.9418888092041 105 105 105
-4.923599720001221 -0.443886399269104 34.072025299072266 102 102 102
-0.8864657878875732 4.316082000732422 28.751502990722656 21 21 21
-2.80515193939209 10.184297561645508 33.144954681396484 73 73 73
-0.9178075790405273 5.441575050354004 29.77799415588379 69 69 69
-2.503798007965088 -7.491864204406738 29.585073471069336 97 97 97
-6.1107707023620605 -4.517238616943359 31.662887573242188 14 14 14
-9.510218620300293 -13.455276489257812 37.299625396728516 19 19 19
-2.637922763824463 4.083076477050781 32.391883850097656 34 34 34
-2.5126285552978516 -0.23216424882411957 31.38313102722168 20 20 20
-9.682625770568848 11.904314994812012 42.46168518066406 10 10 10
-4.712174892425537 -4.803967475891113 32.53437042236328 56 56 56
-1.9942785501480103 -13.78860855102539 25.749753952026367 39 39 39
-7.593287944793701 11.779536247253418 40.543582916259766 125 125 125
-9.255134582519531 -0.48877525329589844 39.192481994628906 2 2 2
-3.8655447959899902 -15.926050186157227 30.405542373657227 43 43 43
-4.723690986633301 -14.691007614135742 28.586986541748047 105 105 105
-4.508037567138672 -0.4434918165206909 32.320552825927734 57 57 57
-0.5151094198226929 2.3606741428375244 25.42818260192871 77 77 77
-10.117030143737793 6.695720195770264 43.499542236328125 44 44 44
-2.986372709274292 7.646673202514648 34.9796257019043 67 67 67
-4.8640289306640625 -14.358086585998535 31.673358917236328 69 69 69
-4.592467784881592 10.52200984954834 34.72434616088867 9 9 9
-4.7001519203186035 12.411844253540039 36.22307586669922 94 94 94
-4.755973815917969 -1.8789472579956055 33.751441955566406 23 23 23
-9.603160858154297 -4.1033220291137695 40.86574172973633 48 48 48
-5.07379674911499 6.237573623657227 37.04235076904297 15 15 15
-2.7958011627197266 -1.9446192979812622 32.6595344543457 124 124 124
-9.736784934997559 -2.4235949516296387 41.169620513916016 101 101 101
-9.828829765319824 -2.438898801803589 40.018836975097656 69 69 69
-0.5765984654426575 9.200416564941406 28.073408126831055 35 35 35
-4.884181022644043 -11.223230361938477 32.346221923828125 114 114 114
-7.290716171264648 -3.5253539085388184 36.89018249511719 24 24 24
-0.5329508781433105 8.105456352233887 28.859821319580078 118 118 118
-2.5039591789245605 -7.49249792098999 29.587421417236328 97 97 97
-7.201365947723389 -13.637031555175781 34.82740783691406 130 130 130
-2.868187189102173 -0.06819842755794525 33.00590896606445 37 37 37
-4.992355823516846 -9.83722972869873 32.50198745727539 41 41 41
-6.970747947692871 -8.734664916992188 35.63604736328125 61 61 61
-0.6854801177978516 3.897136926651001 27.58713150024414 10 10 10
-0.8671810626983643 4.082566261291504 28.785173416137695 141 141 141
-9.37928581237793 -11.072718620300293 38.45485305786133 62 62 62
-9.458464622497559 -11.166047096252441 38.86202621459961 1 1 1
-2.3831522464752197 13.691113471984863 30.553831100463867 10 10 10
-4.789206504821777 4.343035697937012 33.653724670410156 113 113 113
-2.458458185195923 13.26602840423584 29.647056579589844 99 99 99
-7.345581531524658 4.817221164703369 39.76360321044922 82 82 82
-9.371766090393066 4.732614040374756 39.30455017089844 90 90 90
-2.504080295562744 -7.51955509185791 29.27074432373047 55 55 55
-2.4507381916046143 -7.7377400398254395 30.032550811767578 7 7 7
-10.131423950195312 5.131332874298096 43.372928619384766 73 73 73
-3.7906832695007324 5.877838134765625 27.17676544189453 98 98 98
-6.797213554382324 -8.269824028015137 33.08998107910156 118 118 118
-7.081320762634277 -8.939042091369629 35.80852508544922 127 127 127
-4.33980655670166 14.575170516967773 33.92356491088867 97 97 97
-0.7698025107383728 -5.257613658905029 25.54662322998047 47 47 47
-0.5933341979980469 2.725398302078247 29.220157623291016 134 134 134
-9.26340389251709 -9.154601097106934 37.81986999511719 23 23 23
-4.467926025390625 7.211279392242432 33.1584358215332 25 25 25
-6.624851703643799 -6.399491310119629 33.3925666809082 99 99 99
-9.994352340698242 6.847385406494141 42.37725830078125 104 104 104
-4.795217514038086 2.983870267868042 35.80573272705078 97 97 97
-4.809581756591797 2.5840420722961426 33.50102615356445 69 69 69
-0.6856544017791748 5.346153259277344 29.275115966796875 116 116 116
-10.544157028198242 3.381739616394043 45.04316329956055 118 118 118
-0.9366236329078674 5.669155120849609 31.043428421020508 70 70 70
-9.539182662963867 9.866741180419922 41.499271392822266 161 161 161
-2.7939200401306152 -6.1346588134765625 31.15057945251465 27 27 27
-9.448989868164062 -7.583396911621094 38.978153228759766 38 38 38
-9.104721069335938 9.700345039367676 40.30328369140625 27 27 27
-6.608642101287842 -6.38191556930542 33.30572509765625 99 99 99
-2.635063648223877 5.840980529785156 32.23484420776367 22 22 22
-0.6943049430847168 1.3666775226593018 28.847698211669922 152 152 152
-4.847705841064453 1.2965773344039917 34.9466438293457 22 22 22
-7.244072914123535 1.235857605934143 38.59584426879883 28 28 28
-10.391732215881348 1.3638923168182373 44.22990417480469 2 2 2
-4.442555904388428 13.22773265838623 33.93278503417969 7 7 7
-5.084896087646484 -0.5101086497306824 35.07923126220703 87 87 87
-2.6407389640808105 4.329425811767578 31.91026496887207 164 164 164
-0.7485931515693665 7.4445929527282715 27.26199722290039 66 66 66
-6.935161113739014 12.734355926513672 38.069862365722656 10 10 10
-10.209952354431152 12.118600845336914 44.120994567871094 32 32 32
-4.741121292114258 -7.79793119430542 33.64140701293945 43 43 43
-7.248065948486328 -13.456432342529297 34.752296447753906 45 45 45
-7.547865867614746 -13.464627265930176 35.84894561767578 69 69 69
-7.278107643127441 9.543365478515625 38.355247497558594 57 57 57
-7.324475288391113 1.0212880373001099 37.32319259643555 67 67 67
-4.614357948303223 -3.492521286010742 32.72809982299805 116 116 116
-7.000827312469482 11.5145263671875 39.381492614746094 109 109 109
-0.8791953325271606 4.188805103302002 27.915027618408203 21 21 21
-2.1939799785614014 -13.917535781860352 26.08513069152832 63 63 63
-9.16762638092041 4.639561653137207 39.950347900390625 26 26 26
-5.30255651473999 -15.827550888061523 30.85646629333496 74 74 74
-5.688843250274658 -13.892362594604492 27.452716827392578 66 66 66
-6.742280006408691 -16.725894927978516 33.54505920410156 89 89 89
-9.131560325622559 -18.14141845703125 36.895835876464844 32 32 32
-11.446949005126953 -19.914241790771484 40.88654708862305 90 90 90
-9.876216888427734 -16.507484436035156 34.05785369873047 133 133 133
-9.98180866241455 -18.658342361450195 38.53494644165039 79 79 79
-4.844289779663086 -13.890438079833984 31.1573486328125 5 5 5
-10.039761543273926 -17.253259658813477 38.92550277709961 107 107 107
-0.5933434367179871 2.7254488468170166 29.220516204833984 134 134 134
-0.4871610403060913 2.910313844680786 31.23153305053711 20 20 20
-5.0630903244018555 -13.219866752624512 32.97376251220703 40 40 40
-7.548226833343506 -13.46532917022705 35.85076904296875 69 69 69
-6.250764846801758 -14.603736877441406 40.72262954711914 119 119 119
-7.264585018157959 -12.124195098876953 34.564273834228516 115 115 115
-6.559897422790527 -11.266616821289062 32.78281021118164 99 99 99
-7.671685218811035 -13.032121658325195 38.098995208740234 43 43 43
-9.909733772277832 -12.939515113830566 38.79020690917969 88 88 88
-4.992527961730957 -9.837618827819824 32.503231048583984 41 41 41
-10.487190246582031 -12.337488174438477 42.435028076171875 46 46 46
-7.60678243637085 -10.780577659606934 36.60700607299805 28 28 28
-8.91120433807373 -10.29440975189209 35.76411056518555 152 152 152
-2.842773675918579 -7.981454849243164 30.886869430541992 100 100 100
-6.348250389099121 -7.667205333709717 30.740297317504883 97 97 97
-0.8477246165275574 13.532266616821289 29.751489639282227 59 59 59
-2.435529947280884 13.715636253356934 30.272876739501953 31 31 31
-2.8077409267425537 17.049091339111328 37.88093948364258 50 50 50
-2.52278733253479 13.517623901367188 30.166261672973633 97 97 97
-4.874123573303223 -6.600390911102295 33.56889343261719 116 116 116
-4.67828369140625 -6.742725849151611 33.70472717285156 23 23 23
-2.7712039947509766 -6.002024173736572 30.687089920043945 27 27 27
-6.621264934539795 -6.600299835205078 34.17487335205078 100 100 100
-8.837732315063477 -6.751265048980713 35.51387405395508 102 102 102
-0.732067883014679 11.213001251220703 26.82567024230957 93 93 93
-2.415536880493164 12.34161376953125 31.252317428588867 10 10 10
-7.673452854156494 -5.759598255157471 37.70530319213867 94 94 94
-6.222328186035156 -6.577184200286865 44.29786682128906 128 128 128
-8.806992530822754 14.52041244506836 40.06376266479492 22 22 22
-7.098212718963623 13.033882141113281 38.95511245727539 20 20 20
-9.609095573425293 -4.105854034423828 40.892452239990234 48 48 48
-9.61197280883789 -4.097568511962891 40.916507720947266 44 44 44
-7.095553398132324 -3.3747360706329346 35.71505355834961 12 12 12
-7.594919204711914 11.782076835632324 40.55229568481445 125 125 125
-9.536310195922852 11.891993522644043 41.56254196166992 48 48 48
-9.828636169433594 -2.438845157623291 40.018070220947266 69 69 69
-9.735286712646484 -2.4232115745544434 41.163299560546875 101 101 101
-9.735641479492188 -2.423316717147827 41.16477966308594 101 101 101
-10.341227531433105 -2.230241298675537 42.18486785888672 116 116 116
-9.563955307006836 10.023226737976074 41.21121597290039 119 119 119
-8.994879722595215 9.644168853759766 40.046051025390625 24 24 24
-4.508336067199707 -0.4434172213077545 32.32304000854492 57 57 57
-2.4417436122894287 6.542511463165283 29.714723587036133 11 11 11
-0.7232561707496643 -0.2513241171836853 30.498517990112305 106 106 106
-2.853628158569336 7.161022186279297 32.85728454589844 66 66 66
-5.691036701202393 9.501007080078125 43.56603240966797 59 59 59
-11.077621459960938 0.054166555404663086 45.39268112182617 158 158 158
-10.673880577087402 0.2535635232925415 42.88419723510742 69 69 69
-0.6038143634796143 5.251182556152344 27.961654663085938 107 107 107
-2.903254747390747 5.984944820404053 32.7964973449707 55 55 55
-0.9283878207206726 5.278066158294678 29.210237503051758 71 71 71
-6.7700934410095215 5.855717182159424 34.945552825927734 82 82 82
-9.768423080444336 6.695263862609863 42.25216293334961 12 12 12
-7.49417781829834 1.0220245122909546 38.03056335449219 68 68 68
-7.246847152709961 1.236395001411438 38.611572265625 28 28 28
-4.847636699676514 1.2965537309646606 34.946083068847656 22 22 22
-2.3675429821014404 1.286852240562439 32.01339340209961 24 24 24
-2.2873833179473877 4.238584518432617 31.10310173034668 133 133 133
-4.485845565795898 4.031632900238037 31.23619842529297 146 146 146
-3.0680360794067383 4.4182562828063965 34.65172576904297 60 60 60
-2.8300094604492188 11.60646915435791 36.9984016418457 146 146 146
-8.360819816589355 16.74064826965332 38.30977249145508 70 70 70
-4.712428092956543 11.369558334350586 33.9537239074707 64 64 64
-3.1533615589141846 -5.024598598480225 32.049842834472656 89 89 89
-2.6379427909851074 4.083140850067139 32.39228439331055 34 34 34
-0.9753533005714417 4.798789024353027 30.638065338134766 79 79 79
-5.382040500640869 10.930788040161133 42.174949645996094 61 61 61
-0.9524983763694763 7.603977203369141 32.30424880981445 142 142 142
-5.3009748458862305 -15.822484970092773 30.846792221069336 74 74 74
-5.666342735290527 -13.820409774780273 27.27837562561035 80 80 80
-6.742117404937744 -16.7254581451416 33.54421615600586 89 89 89
-6.958500862121582 -16.02957534790039 32.49689865112305 117 117 117
-4.698842525482178 -14.007648468017578 30.436906814575195 140 140 140
-2.844543695449829 -0.1901506930589676 31.668479919433594 158 158 158
-0.6038143634796143 5.251182556152344 27.961654663085938 107 107 107
-2.5218923091888428 -0.23257361352443695 31.498695373535156 20 20 20
-8.095311164855957 -14.755243301391602 37.86078643798828 101 101 101
-4.333752155303955 5.158708095550537 30.060884475708008 149 149 149
-6.772606372833252 -11.212878227233887 31.933361053466797 115 115 115
-10.544577598571777 3.38187575340271 45.04498291015625 118 118 118
-10.10869026184082 -13.216906547546387 39.6092529296875 88 88 88
-9.370862007141113 4.732141971588135 39.30086898803711 90 90 90
-4.993675708770752 -9.840208053588867 32.5115966796875 41 41 41
-2.882944345474243 -8.891397476196289 29.562990188598633 125 125 125
-2.588496685028076 -8.920679092407227 29.66459083557129 138 138 138
-7.431935787200928 3.6665072441101074 31.279380798339844 65 65 65
-10.396316528320312 1.3645588159561157 44.25033187866211 2 2 2
-4.540902137756348 -7.502007961273193 30.68864631652832 84 84 84
-4.668266296386719 -6.179043769836426 30.313220977783203 101 101 101
-8.5743408203125 3.6937875747680664 45.86445236206055 3 3 3
-0.8410354852676392 13.296916961669922 29.25832748413086 67 67 67
-4.500665664672852 -3.4942288398742676 32.043617248535156 110 110 110
-9.336380958557129 -3.914872169494629 38.65122985839844 185 185 185
-6.676008224487305 -3.440340042114258 34.59785461425781 58 58 58
-9.828493118286133 -2.4388177394866943 40.0174560546875 69 69 69
-9.114590644836426 -2.2084100246429443 37.73994827270508 141 141 141
-5.0050859451293945 -1.7723878622055054 33.78022003173828 55 55 55
-4.756536960601807 -1.8791232109069824 33.75514602661133 23 23 23
-6.674572944641113 -17.011112213134766 33.95834732055664 37 37 37
-6.765326023101807 -15.422219276428223 34.3498420715332 37 37 37
-4.844861030578613 -13.892324447631836 31.161476135253906 5 5 5
-10.06838321685791 -11.321904182434082 39.66412353515625 153 153 153
-7.996871471405029 15.483019828796387 42.314369201660156 70 70 70
-8.095500946044922 -7.523955345153809 39.2281494140625 113 113 113
-6.620967864990234 -6.395843029022217 33.37309646606445 99 99 99
-10.545867919921875 3.382340908050537 45.05099105834961 118 118 118
-5.607606887817383 1.4917573928833008 38.363319396972656 121 121 121
-8.30591106414795 12.913565635681152 36.389556884765625 75 75 75
-5.0778889656066895 12.11272144317627 36.21941375732422 47 47 47
-6.82466983795166 12.020200729370117 36.11294937133789 67 67 67
-5.007925033569336 4.384061336517334 34.142051696777344 152 152 152
-7.143482685089111 4.774133682250977 30.334463119506836 61 61 61
-7.202858924865723 6.190426349639893 36.98760223388672 89 89 89
-4.441469669342041 5.815494537353516 33.5318603515625 141 141 141
-4.9843339920043945 10.782630920410156 35.54324722290039 98 98 98
-2.8618249893188477 5.592728137969971 31.1065616607666 174 174 174
-9.652912139892578 8.28873348236084 41.46807861328125 102 102 102
-7.663684844970703 -0.28992047905921936 38.57263946533203 83 83 83
-8.389222145080566 12.323822021484375 43.909080505371094 58 58 58
-7.436777114868164 8.640233993530273 41.508609771728516 26 26 26
-5.690726280212402 9.500493049621582 43.563697814941406 59 59 59
-0.7789076566696167 7.1860456466674805 26.370506286621094 71 71 71
-5.910080432891846 -0.9030547738075256 36.54132080078125 106 106 106
-6.770056247711182 15.08073616027832 36.25140380859375 116 116 116
-3.82967472076416 12.170002937316895 28.393207550048828 73 73 73
-2.3830881118774414 13.69078254699707 30.55312728881836 10 10 10
-0.6147066354751587 12.395112991333008 27.348848342895508 9 9 9
-0.4976346492767334 12.756635665893555 27.614307403564453 107 107 107
-4.809174060821533 -15.69981861114502 30.650705337524414 31 31 31
-10.141914367675781 -17.91217803955078 36.47422409057617 125 125 125
-9.971299171447754 -18.637252807617188 38.49224853515625 79 79 79
-6.7754902839660645 -15.364267349243164 33.68638229370117 126 126 126
-5.462441921234131 -9.06902027130127 26.53676986694336 73 73 73
-9.379329681396484 -11.072770118713379 38.45503234863281 62 62 62
-7.098593235015869 -10.352296829223633 35.58295440673828 120 120 120
-3.288771629333496 -9.580876350402832 36.83345031738281 69 69 69
-2.691837787628174 -7.504897117614746 29.40450668334961 25 25 25
-7.371090888977051 -8.917101860046387 36.185150146484375 25 25 25
-4.606512069702148 -7.2042622566223145 31.658733367919922 134 134 134
-5.440163612365723 -7.267492771148682 35.17060089111328 102 102 102
-9.128683090209961 -7.362100124359131 36.47596740722656 106 106 106
-4.578699111938477 -6.099936008453369 30.498292922973633 26 26 26
-6.59419059753418 -5.299541473388672 27.205636978149414 47 47 47
-9.699006080627441 -5.889583110809326 40.19144058227539 52 52 52
-5.013775825500488 -4.823002338409424 32.869728088378906 92 92 92
-4.995802402496338 -3.5965051651000977 34.334861755371094 14 14 14
-9.823412895202637 -4.153494358062744 40.74921417236328 182 182 182
-7.092150688171387 -3.687692642211914 36.913150787353516 103 103 103
-6.246565818786621 -2.9486441612243652 30.311439514160156 103 103 103
-6.295411586761475 -2.1064255237579346 32.78181076049805 86 86 86
-10.343886375427246 -2.230875015258789 42.195682525634766 116 116 116
-2.9565908908843994 -0.15484008193016052 34.879127502441406 26 26 26
-10.844680786132812 3.328786849975586 45.42266082763672 125 125 125
-6.283490180969238 3.160477638244629 43.20930099487305 71 71 71
-4.87000846862793 2.6095051765441895 35.792091369628906 77 77 77
-7.092079162597656 3.0375149250030518 37.419036865234375 9 9 9
-8.5743408203125 3.6937875747680664 45.86445236206055 3 3 3
-4.229398250579834 2.4313480854034424 30.569721221923828 45 45 45
-6.598837375640869 4.463189125061035 37.02558898925781 39 39 39
-9.37110710144043 4.732265472412109 39.30180740356445 90 90 90
-0.8977586627006531 3.779846429824829 26.818166732788086 132 132 132
-9.758639335632324 6.688777923583984 42.20966339111328 12 12 12
-6.920930862426758 6.299978733062744 37.877540588378906 57 57 57
-4.679568290710449 5.6311354637146 33.794586181640625 15 15 15
-3.2320961952209473 6.520540714263916 36.13969039916992 156 156 156
-9.690839767456055 11.914299011230469 42.49835205078125 10 10 10
-4.561893939971924 9.778925895690918 32.40087127685547 68 68 68
-9.364770889282227 15.320856094360352 42.546226501464844 27 27 27
-0.6655200719833374 9.970914840698242 27.296545028686523 17 17 17
-0.8874973058700562 12.668294906616211 28.194488525390625 68 68 68
-4.902049541473389 16.71283531188965 35.40354537963867 103 103 103
-5.1182098388671875 -16.5159969329834 31.69461441040039 104 104 104
-8.92155647277832 -17.699182510375977 35.70640182495117 71 71 71
-7.6788129806518555 -17.37226676940918 35.168190002441406 44 44 44
-9.917664527893066 -17.099599838256836 37.49831771850586 40 40 40
-7.621880531311035 -16.453067779541016 36.49517822265625 45 45 45
-4.953566551208496 -13.089872360229492 31.765003204345703 107 107 107
