ply
format ascii 1.0
element vertex 716
property float x
property float y
property float z
property uchar red
property uchar green
property uchar blue
end_header
0.7883297801017761 -2.532404899597168 5.367230415344238 108 108 108
0.8145565390586853 -0.46918249130249023 5.542793273925781 76 76 76
0.8016735911369324 -1.1798574924468994 5.4548797607421875 116 116 116
0.8314806222915649 0.505914568901062 5.648899078369141 77 77 77
0.8048282265663147 -2.3247804641723633 5.370064735412598 105 105 105
0.8393540382385254 0.14248912036418915 5.527976036071777 2 2 2
0.8506492972373962 0.7592847347259521 5.669564247131348 74 74 74
0.874625563621521 2.446678638458252 5.810033321380615 62 62 62
0.8098838925361633 -2.016589403152466 5.337444305419922 138 138 138
0.8285373449325562 -0.3606201410293579 5.508968353271484 9 9 9
0.8757622241973877 2.2512965202331543 5.731716156005859 59 59 59
0.8440829515457153 -0.10580244660377502 5.595644474029541 97 97 97
0.8857886791229248 2.168348550796509 5.7108001708984375 63 63 63
0.8870489597320557 1.2004860639572144 5.642735958099365 77 77 77
0.8870280385017395 1.0721020698547363 5.605963230133057 70 70 70
0.8871265053749084 1.091189980506897 5.603363513946533 73 73 73
0.8638414144515991 -0.4941959083080292 5.379101753234863 77 77 77
0.8521739840507507 -1.1635606288909912 5.352166175842285 109 109 109
0.8651137351989746 -0.46655598282814026 5.430814266204834 78 78 78
0.9116414785385132 1.815024733543396 5.689809799194336 63 63 63
0.9202756881713867 2.602137565612793 5.73160982131958 38 38 38
0.8756030797958374 -0.09416908770799637 5.3818583488464355 54 54 54
0.8460506200790405 -1.9310654401779175 5.265105724334717 141 141 141
0.924627423286438 2.654970407485962 5.716225624084473 103 103 103
0.846347451210022 -1.9792397022247314 5.246932029724121 118 118 118
0.9041717052459717 -0.27939581871032715 5.363663673400879 161 161 161
0.8983784914016724 -0.09903476387262344 5.425767421722412 31 31 31
0.9179104566574097 0.6534578204154968 5.516571998596191 31 31 31
0.9391059875488281 1.9280377626419067 5.651449680328369 28 28 28
0.8715324997901917 -1.958816647529602 5.219613075256348 146 146 146
0.8868578672409058 -2.0687103271484375 5.283735275268555 85 85 85
0.933047354221344 0.9242487549781799 5.5242133140563965 18 18 18
0.933047354221344 0.9242487549781799 5.5242133140563965 18 18 18
0.9326061010360718 1.1694012880325317 5.568771839141846 111 111 111
0.9284488558769226 0.4197940230369568 5.478859901428223 31 31 31
0.9212667346000671 -0.07693261653184891 5.418720245361328 39 39 39
0.9001118540763855 -1.3508614301681519 5.168275356292725 52 52 52
0.9309989213943481 0.3388487696647644 5.430139541625977 112 112 112
0.8734441995620728 -3.0898404121398926 5.083649635314941 84 84 84
0.9163861870765686 -0.5876674056053162 5.322127342224121 9 9 9
0.9221481680870056 -1.3818206787109375 5.280441761016846 42 42 42
0.971692681312561 0.017003970220685005 5.395058631896973 120 120 120
1.0091309547424316 2.0206446647644043 5.573658466339111 83 83 83
0.9481303095817566 -1.5134083032608032 5.100405216217041 98 98 98
0.9748578667640686 -0.9819896221160889 5.1245198249816895 150 150 150
0.9821988344192505 -1.1338990926742554 5.0865960121154785 102 102 102
1.050455927848816 2.525665283203125 5.376193046569824 72 72 72
1.0807981491088867 3.2138328552246094 5.543735504150391 45 45 45
0.9816729426383972 -1.6691818237304688 5.028493404388428 118 118 118
1.0723918676376343 2.5203590393066406 5.489924907684326 87 87 87
1.003677248954773 -0.9443526268005371 5.079360485076904 124 124 124
1.0215407609939575 0.1297703981399536 5.160358905792236 115 115 115
1.0365207195281982 0.6803255081176758 5.236378192901611 82 82 82
1.0857266187667847 1.9889880418777466 5.377619743347168 139 139 139
1.071912407875061 1.7873010635375977 5.390397548675537 57 57 57
1.0072903633117676 -0.970260739326477 5.053794860839844 126 126 126
1.018903136253357 -0.11559297144412994 5.105546951293945 77 77 77
1.0965511798858643 2.9547431468963623 5.48538875579834 42 42 42
1.0821563005447388 2.042013168334961 5.388849258422852 33 33 33
1.058539628982544 0.7242007255554199 5.259515285491943 117 117 117
1.0138410329818726 -1.0410610437393188 5.013452529907227 145 145 145
1.0138410329818726 -1.0410610437393188 5.013452529907227 145 145 145
1.0031250715255737 -1.7223247289657593 4.959799289703369 109 109 109
1.0675817728042603 1.8476784229278564 5.276217460632324 59 59 59
1.097629427909851 2.1066689491271973 5.420830249786377 70 70 70
1.0364052057266235 -0.294373095035553 5.108931064605713 136 136 136
1.0064291954040527 -2.6908798217773438 4.84867000579834 80 80 80
1.1293472051620483 2.476109266281128 5.501838684082031 42 42 42
1.0194660425186157 -1.295849084854126 4.9580183029174805 105 105 105
1.0277565717697144 -1.1130669116973877 4.982354640960693 112 112 112
1.0546859502792358 -0.16412535309791565 5.107685565948486 52 52 52
0.9178968667984009 -2.559654474258423 4.425804615020752 96 96 96
1.0446751117706299 -0.7195748090744019 5.028485298156738 108 108 108
1.029328465461731 -1.6370899677276611 4.928020477294922 73 73 73
1.020174503326416 -2.0881927013397217 4.868851661682129 131 131 131
1.128294587135315 2.021427631378174 5.3742780685424805 40 40 40
1.0292929410934448 -2.321484327316284 4.839245319366455 143 143 143
1.1353726387023926 2.02189564704895 5.340065956115723 51 51 51
1.0475726127624512 -0.6382452845573425 4.924068927764893 77 77 77
1.1781316995620728 2.9407005310058594 5.44818639755249 60 60 60
1.0546542406082153 -1.5584056377410889 4.93691349029541 81 81 81
1.034401535987854 -2.418433427810669 4.823538303375244 85 85 85
1.0657775402069092 -1.1759307384490967 4.971258163452148 57 57 57
1.0626689195632935 -1.497888445854187 4.92921257019043 83 83 83
1.0335551500320435 -2.6959481239318848 4.783895492553711 113 113 113
1.1683213710784912 0.8532947301864624 5.260284900665283 107 107 107
1.1689003705978394 0.9673177599906921 5.294802188873291 194 194 194
1.1689003705978394 0.9673177599906921 5.294802188873291 194 194 194
1.1848673820495605 1.355247974395752 5.3091349601745605 49 49 49
1.1836485862731934 1.0141655206680298 5.295865535736084 49 49 49
1.1757076978683472 0.6106384992599487 5.250868320465088 56 56 56
1.075645089149475 -2.59759259223938 4.775767803192139 77 77 77
1.1930913925170898 1.0574965476989746 5.288739204406738 51 51 51
1.1604936122894287 -0.1360679715871811 5.115760326385498 63 63 63
1.1692765951156616 0.23196996748447418 5.16421365737915 61 61 61
1.2155842781066895 1.6515060663223267 5.3663434982299805 43 43 43
1.2516436576843262 2.95522141456604 5.516151428222656 34 34 34
1.1110105514526367 -2.4128103256225586 4.863420009613037 77 77 77
1.1036454439163208 -2.2508530616760254 4.795441150665283 98 98 98
1.1793678998947144 -0.8964386582374573 5.088856220245361 72 72 72
1.2934179306030273 2.837122917175293 5.567523002624512 41 41 41
1.2795028686523438 1.9006937742233276 5.449302673339844 45 45 45
1.2971726655960083 2.4115524291992188 5.519244194030762 42 42 42
1.150854468345642 -2.227623462677002 4.896718502044678 108 108 108
1.150854468345642 -2.227623462677002 4.896718502044678 108 108 108
1.136336326599121 -2.4144198894500732 4.825809955596924 73 73 73
1.1091145277023315 -2.6789050102233887 4.632594108581543 143 143 143
1.163480520248413 -2.5635931491851807 4.858102798461914 78 78 78
1.163480520248413 -2.5635931491851807 4.858102798461914 78 78 78
1.1623159646987915 -1.962397575378418 4.97183084487915 76 76 76
1.332266092300415 3.1310675144195557 5.60517692565918 65 65 65
1.3321471214294434 2.753547430038452 5.549539089202881 78 78 78
1.2632707357406616 0.42061975598335266 5.240760326385498 68 68 68
1.1885722875595093 -2.0997257232666016 4.924249649047852 94 94 94
1.1766799688339233 -2.405895948410034 4.865602970123291 68 68 68
1.2444933652877808 -0.5364972949028015 5.1164870262146 88 88 88
1.289367914199829 0.237070232629776 5.231063365936279 70 70 70
1.3039002418518066 0.5468973517417908 5.288027286529541 119 119 119
1.3039002418518066 0.5468973517417908 5.288027286529541 119 119 119
1.2789438962936401 0.6093680262565613 5.2356367111206055 90 90 90
1.3526713848114014 1.7038087844848633 5.418292045593262 139 139 139
1.3422446250915527 1.2282352447509766 5.387214660644531 91 91 91
1.266475796699524 -0.9420680403709412 5.0793938636779785 76 76 76
1.1385587453842163 -2.6717023849487305 4.559764385223389 127 127 127
1.3604438304901123 1.9194656610488892 5.44754695892334 115 115 115
1.211639642715454 -2.6520073413848877 4.850855827331543 27 27 27
1.3328638076782227 0.4478681683540344 5.277750492095947 114 114 114
1.3072586059570312 -0.8669566512107849 5.222916603088379 55 55 55
1.352370023727417 0.9312807321548462 5.344575881958008 151 151 151
1.2308257818222046 -2.2792956829071045 4.911350250244141 116 116 116
1.3114230632781982 -0.3335059583187103 5.15764856338501 131 131 131
1.2480555772781372 -1.732332706451416 4.97021484375 92 92 92
1.3072967529296875 -0.09676573425531387 5.201653957366943 110 110 110
1.2619346380233765 -1.5511398315429688 5.015782356262207 76 76 76
1.3919779062271118 2.839198589324951 5.52792501449585 93 93 93
1.2579901218414307 -1.7606570720672607 4.993589878082275 101 101 101
1.2917605638504028 -0.5266128182411194 5.129406929016113 90 90 90
1.3928829431533813 2.6004090309143066 5.513339519500732 94 94 94
1.3112940788269043 -0.07438940554857254 5.159207344055176 22 22 22
1.2346670627593994 -2.4821054935455322 4.883763313293457 71 71 71
1.3039840459823608 -0.25216302275657654 5.1568708419799805 68 68 68
1.3039840459823608 -0.25216302275657654 5.1568708419799805 68 68 68
1.3421193361282349 0.17151761054992676 5.246158599853516 154 154 154
1.3861743211746216 2.257927179336548 5.466735363006592 100 100 100
1.294196367263794 -1.7175394296646118 5.073196887969971 97 97 97
1.3120989799499512 -0.6120331883430481 5.130493640899658 106 106 106
1.3164875507354736 -0.5471290946006775 5.143584728240967 100 100 100
1.271484375 -2.0817646980285645 4.944226264953613 95 95 95
1.386649250984192 1.6366335153579712 5.393739700317383 105 105 105
1.3328028917312622 -1.1345326900482178 5.108144283294678 103 103 103
1.371832251548767 1.009743332862854 5.305192470550537 121 121 121
1.2811189889907837 -2.2532856464385986 4.943356990814209 108 108 108
1.3632327318191528 0.4590153694152832 5.234889030456543 127 127 127
1.364425539970398 0.27575933933258057 5.204826354980469 132 132 132
1.3831796646118164 0.6513416171073914 5.265966415405273 122 122 122
1.3557196855545044 -0.26617634296417236 5.1430983543396 139 139 139
1.3750343322753906 -0.4256618618965149 5.190618991851807 138 138 138
1.3526962995529175 -2.3921597003936768 4.879058837890625 152 152 152
1.4579459428787231 0.5719665884971619 5.197774887084961 89 89 89
1.474471092224121 -0.4371985197067261 5.105292797088623 100 100 100
1.3855831623077393 -2.3906493186950684 4.843471050262451 115 115 115
1.4760220050811768 0.3251897394657135 5.062356948852539 91 91 91
1.250791072845459 -2.6384494304656982 4.275885581970215 75 75 75
1.4061676263809204 -2.390636682510376 4.830562114715576 104 104 104
1.503891944885254 0.5863275527954102 5.120251655578613 109 109 109
1.5081124305725098 -0.7234569191932678 5.063014030456543 130 130 130
1.4007569551467896 -2.6348581314086914 4.737144947052002 44 44 44
1.5055770874023438 -0.483703076839447 5.089128017425537 63 63 63
1.5055770874023438 -0.483703076839447 5.089128017425537 63 63 63
1.465874195098877 -2.4055893421173096 4.841791152954102 58 58 58
1.5245479345321655 -0.41419827938079834 4.99260139465332 104 104 104
1.5041918754577637 -2.3125874996185303 4.864333629608154 160 160 160
1.5190430879592896 -2.30363392829895 4.834864139556885 86 86 86
1.4115750789642334 -2.6908936500549316 4.485732555389404 41 41 41
1.5533030033111572 -2.3110601902008057 4.820759296417236 57 57 57
1.6934177875518799 -2.6188716888427734 4.598535537719727 51 51 51
1.603066086769104 -2.702486991882324 4.393304824829102 48 48 48
1.603066086769104 -2.702486991882324 4.393304824829102 48 48 48
1.9719209671020508 0.16396492719650269 5.305349349975586 18 18 18
1.5937244892120361 -2.657637596130371 4.265157222747803 47 47 47
2.0361926555633545 0.18430998921394348 5.3162922859191895 154 154 154
2.0645227432250977 0.26131701469421387 5.31452751159668 127 127 127
1.7074806690216064 -2.5387966632843018 4.3723063468933105 54 54 54
2.062523126602173 0.592069685459137 5.223437786102295 128 128 128
2.067608594894409 -0.032174959778785706 5.257973670959473 132 132 132
2.0869839191436768 0.6926286816596985 5.293612957000732 52 52 52
2.1170284748077393 0.8186527490615845 5.261103630065918 46 46 46
2.0917694568634033 -0.0140916109085083 5.182232856750488 49 49 49
2.091590404510498 -0.042764827609062195 5.175633430480957 45 45 45
2.137519598007202 0.29771366715431213 5.263702392578125 39 39 39
2.0896120071411133 -0.3497360646724701 5.134406566619873 44 44 44
2.088360071182251 -0.40285488963127136 5.124258995056152 161 161 161
2.1064136028289795 -0.060491643846035004 5.163232326507568 119 119 119
2.112147331237793 0.4480282664299011 5.167181491851807 60 60 60
2.135847568511963 0.5717805027961731 5.216256141662598 49 49 49
2.135847568511963 0.5717805027961731 5.216256141662598 49 49 49
2.102996349334717 0.18517261743545532 5.1375274658203125 66 66 66
2.166551351547241 0.6950693130493164 5.153468132019043 128 128 128
2.132824182510376 0.50727379322052 4.977819442749023 129 129 129
2.136244058609009 0.26561063528060913 4.924848556518555 120 120 120
2.174194812774658 0.43183448910713196 4.94658899307251 139 139 139
2.245342969894409 0.7239313125610352 5.0309672355651855 64 64 64
2.245342969894409 0.7239313125610352 5.0309672355651855 64 64 64
2.191157341003418 0.31242865324020386 4.81121301651001 136 136 136
2.1860811710357666 0.22804445028305054 4.791873931884766 156 156 156
2.298102855682373 0.4794967472553253 4.894613742828369 84 84 84
2.1132824420928955 0.6910099983215332 5.238230228424072 90 90 90
-5.681791305541992 -0.3561658263206482 19.260526657104492 48 48 48
2.096907377243042 0.023947685956954956 5.207019805908203 74 74 74
-4.288259029388428 -1.3802659511566162 16.41351318359375 116 116 116
2.113577365875244 0.6921976208686829 5.238656520843506 90 90 90
-7.886498928070068 -2.947587251663208 17.994279861450195 74 74 74
-7.249901294708252 -1.9719488620758057 15.492317199707031 20 20 20
-2.635490655899048 0.10202236473560333 11.593143463134766 250 250 250
-8.049408912658691 -3.738449811935425 21.087350845336914 24 24 24
0.40181586146354675 0.7197180390357971 6.610500812530518 73 73 73
2.1136648654937744 0.7276853322982788 5.219843864440918 165 165 165
-2.40079402923584 0.07343649119138718 11.552901268005371 1 1 1
-8.212217330932617 -3.0623719692230225 18.939905166625977 40 40 40
-2.563481569290161 0.10914198309183121 11.56589412689209 179 179 179
-8.049802780151367 -3.738616466522217 21.088376998901367 24 24 24
-7.543117523193359 -2.1048662662506104 16.658418655395508 125 125 125
1.2701538801193237 -0.8245323896408081 5.1040940284729 155 155 155
-8.253954887390137 -3.0719571113586426 19.105077743530273 41 41 41
1.96024751663208 0.728963315486908 5.200447082519531 246 246 246
1.2977359294891357 -0.5753719806671143 5.1588568687438965 131 131 131
-2.300518274307251 1.678034782409668 11.350116729736328 120 120 120
1.3764705657958984 2.927424192428589 5.578813552856445 80 80 80
-2.3005645275115967 1.678074836730957 11.350273132324219 120 120 120
-2.4798011779785156 0.11892342567443848 11.315354347229004 127 127 127
-2.5536813735961914 1.7364252805709839 11.439913749694824 8 8 8
2.217381477355957 0.2929939031600952 4.814365386962891 62 62 62
-8.39481258392334 -3.2652029991149902 17.747753143310547 194 194 194
-7.420476913452148 -2.9421627521514893 15.926621437072754 201 201 201
-1.8907809257507324 1.7643115520477295 11.504743576049805 22 22 22
-7.36737585067749 -2.8571200370788574 15.575719833374023 139 139 139
-1.8904743194580078 1.764034390449524 11.502981185913086 22 22 22
-3.022134304046631 0.13582536578178406 12.089371681213379 87 87 87
1.0451130867004395 -2.683551549911499 4.877480506896973 66 66 66
-7.572981357574463 -3.037569761276245 16.457361221313477 32 32 32
-2.428858757019043 1.7710717916488647 11.343387603759766 94 94 94
2.1667985916137695 0.4558056890964508 4.93271017074585 95 95 95
-2.502100944519043 1.8171484470367432 11.327730178833008 169 169 169
-7.5264153480529785 -2.015892744064331 16.581026077270508 19 19 19
-8.223611831665039 -2.062714099884033 22.668357849121094 137 137 137
0.9330030083656311 0.9256963729858398 5.53156042098999 18 18 18
2.161571502685547 0.27523329854011536 4.919469356536865 94 94 94
0.9331264495849609 0.9220461845397949 5.5129714012146 21 21 21
2.1293416023254395 0.8889800906181335 5.280065536499023 113 113 113
-2.5176682472229004 1.9421179294586182 11.335980415344238 36 36 36
1.0608179569244385 0.47139105200767517 5.216981410980225 159 159 159
-2.678049325942993 0.11891867965459824 11.514078140258789 17 17 17
-2.4893574714660645 0.028531339019536972 11.5452299118042 203 203 203
1.330013632774353 0.45373085141181946 5.275206089019775 191 191 191
1.3523683547973633 0.9312921166419983 5.344584941864014 151 151 151
-7.981563568115234 -4.036693572998047 21.438016891479492 102 102 102
-8.798274040222168 -2.2421250343322754 22.60776138305664 43 43 43
0.9163839817047119 -0.5876637697219849 5.3220720291137695 9 9 9
1.3523571491241455 0.9312738180160522 5.344470500946045 151 151 151
-7.306437015533447 -2.440707206726074 15.68615436553955 168 168 168
1.3328657150268555 0.44786936044692993 5.277760028839111 114 114 114
-8.5043306350708 -2.3279621601104736 20.53443145751953 163 163 163
2.12634539604187 0.42311057448387146 5.149416446685791 128 128 128
0.6444934010505676 -0.9165701866149902 5.904721260070801 18 18 18
-7.308844566345215 -2.4188735485076904 15.525358200073242 41 41 41
-2.5363667011260986 0.019930768758058548 11.63682746887207 244 244 244
1.3328663110733032 0.4478713870048523 5.27776575088501 114 114 114
1.3101999759674072 -2.407106399536133 4.938293933868408 91 91 91
-2.5749294757843018 0.010709152556955814 11.4899320602417 70 70 70
-8.445277214050293 -2.4539170265197754 20.38675308227539 169 169 169
-8.798352241516113 -2.242154121398926 22.607938766479492 43 43 43
0.9154212474822998 -1.096189260482788 5.241408824920654 189 189 189
-7.309257984161377 -2.4189934730529785 15.526119232177734 41 41 41
-7.911258697509766 -2.2263431549072266 22.317466735839844 80 80 80
-8.253156661987305 -2.2718865871429443 22.699172973632812 62 62 62
-8.253008842468262 -2.271848678588867 22.69883918762207 62 62 62
0.916382908821106 -0.5876697301864624 5.3221893310546875 9 9 9
-0.22823025286197662 3.2062244415283203 6.733255386352539 153 153 153
1.311240792274475 -0.07438802719116211 5.158929824829102 22 22 22
1.0857354402542114 1.9890172481536865 5.377694606781006 139 139 139
0.03218522295355797 0.10669049620628357 7.313328266143799 81 81 81
-8.97435188293457 -2.5952863693237305 22.333385467529297 108 108 108
0.8052852153778076 1.3551265001296997 5.861581802368164 147 147 147
0.92125403881073 -0.07693187892436981 5.418642520904541 39 39 39
-4.224660396575928 -1.812283992767334 16.12140655517578 104 104 104
1.0758368968963623 1.2339407205581665 5.301867961883545 138 138 138
1.0745652914047241 1.2695099115371704 5.3318023681640625 150 150 150
-6.929905891418457 -4.04473352432251 19.067672729492188 188 188 188
-7.216175556182861 -4.075405597686768 19.126657485961914 149 149 149
1.2851165533065796 -1.359503984451294 5.038080215454102 129 129 129
0.9627301692962646 -2.1275124549865723 5.017770290374756 67 67 67
-8.412842750549316 -0.9507412314414978 20.44440269470215 60 60 60
-7.229150772094727 -1.6328028440475464 15.207361221313477 155 155 155
1.0718557834625244 1.7495570182800293 5.348576068878174 72 72 72
1.3316975831985474 -1.1329184770584106 5.094114780426025 108 108 108
1.0273079872131348 -1.315683364868164 4.9808573722839355 29 29 29
1.0747474431991577 1.4905755519866943 5.350639820098877 117 117 117
1.3230564594268799 -1.9848036766052246 4.972348213195801 47 47 47
-2.8996176719665527 -3.037031888961792 13.113455772399902 80 80 80
1.311418890953064 -0.33350467681884766 5.15763521194458 131 131 131
1.2916898727416992 -1.8816025257110596 4.9975786209106445 113 113 113
2.083228588104248 0.2418014109134674 5.250608444213867 86 86 86
0.6528304815292358 -0.4159511923789978 5.932886123657227 80 80 80
0.9295483827590942 1.6611555814743042 5.619365692138672 103 103 103
0.20811574161052704 3.5148046016693115 6.0332536697387695 123 123 123
-8.078606605529785 -2.691162586212158 19.487651824951172 133 133 133
-8.503887176513672 -0.9894715547561646 21.016143798828125 227 227 227
0.4526202976703644 3.3527801036834717 6.280250549316406 101 101 101
1.2517675161361694 -0.05641130357980728 5.184182643890381 164 164 164
-0.1502121537923813 3.3616490364074707 6.895606517791748 103 103 103
2.1136586666107178 0.6922203898429871 5.238859176635742 90 90 90
-8.504352569580078 -0.9895383715629578 21.017169952392578 227 227 227
-7.902451992034912 -1.6305575370788574 22.410573959350586 128 128 128
-7.901706695556641 -1.7552322149276733 22.47603416442871 158 158 158
1.2993717193603516 -0.852242112159729 5.1111273765563965 42 42 42
-8.412799835205078 -0.9507485032081604 20.444263458251953 60 60 60
-8.053750038146973 -3.1378400325775146 18.318706512451172 29 29 29
1.3220305442810059 -1.6339905261993408 5.034416198730469 89 89 89
-8.97098445892334 -2.8888697624206543 22.295650482177734 81 81 81
-8.054720878601074 -3.1381871700286865 18.32086753845215 29 29 29
-7.892812252044678 -1.8333754539489746 22.451452255249023 172 172 172
1.296106219291687 -0.5759866833686829 5.212149143218994 194 194 194
-8.970606803894043 -2.888742208480835 22.294729232788086 81 81 81
-7.384222507476807 -2.7118592262268066 15.625625610351562 103 103 103
2.1150810718536377 0.035448066890239716 5.174979209899902 152 152 152
0.8900766968727112 -1.1535494327545166 5.399509906768799 75 75 75
2.2453460693359375 0.723944365978241 5.030964374542236 64 64 64
1.0354334115982056 -1.33008873462677 4.926797389984131 92 92 92
0.40181395411491394 0.7197204232215881 6.61052131652832 73 73 73
-2.479719877243042 0.11894811689853668 11.315163612365723 127 127 127
-2.5536696910858154 1.736419916152954 11.4398775100708 8 8 8
-2.925933599472046 -2.8535315990448 13.166793823242188 53 53 53
-7.150501251220703 -1.3232783079147339 15.090864181518555 69 69 69
-2.8568193912506104 1.8499776124954224 11.685654640197754 4 4 4
-1.73854660987854 1.7843767404556274 11.291788101196289 119 119 119
0.8942469954490662 -1.0723223686218262 5.2992424964904785 36 36 36
-7.64004373550415 -3.070220470428467 16.519031524658203 9 9 9
0.6486839056015015 3.468198776245117 6.11212158203125 59 59 59
-7.4209489822387695 -2.9423279762268066 15.927632331848145 201 201 201
1.270176649093628 -0.824540913105011 5.104134559631348 155 155 155
0.9023099541664124 -1.0611404180526733 5.273731231689453 57 57 57
1.2712359428405762 0.19485720992088318 5.215547561645508 183 183 183
1.0432038307189941 -2.6230578422546387 4.768845081329346 114 114 114
1.0393126010894775 -0.2857179641723633 5.1365532875061035 34 34 34
1.2830733060836792 0.9598062634468079 5.340896129608154 134 134 134
-7.2902302742004395 -1.4031858444213867 15.87057113647461 71 71 71
-7.322977066040039 -1.710540771484375 15.753643035888672 164 164 164
1.0483652353286743 -1.318884253501892 4.9517083168029785 161 161 161
-2.3901500701904297 0.001103851362131536 11.588905334472656 158 158 158
-0.7626729607582092 3.4383163452148438 6.47618293762207 129 129 129
-0.08279219269752502 3.431973457336426 6.643454074859619 86 86 86
-0.8461287617683411 2.8859264850616455 8.147049903869629 165 165 165
1.0332149267196655 -1.050400972366333 4.990628719329834 42 42 42
1.0305899381637573 -1.3656877279281616 4.9778876304626465 187 187 187
1.3437498807907104 1.9642208814620972 5.486988544464111 92 92 92
1.0340840816497803 -1.3580397367477417 4.9282660484313965 92 92 92
2.1060965061187744 0.719443678855896 5.296420097351074 139 139 139
1.0306013822555542 -0.08419257402420044 5.09310245513916 29 29 29
-7.150787830352783 -1.3232977390289307 15.091425895690918 69 69 69
-2.678286075592041 0.13447453081607819 11.057826042175293 219 219 219
1.028455138206482 -1.1032987833023071 5.024511337280273 152 152 152
1.0622062683105469 -0.5527994632720947 5.08241605758667 91 91 91
1.0669562816619873 -0.037215735763311386 5.151008605957031 198 198 198
0.8948983550071716 -1.120463490486145 5.23044490814209 78 78 78
0.9284177422523499 0.419826865196228 5.479589462280273 31 31 31
-1.8577677011489868 -2.5363028049468994 10.992363929748535 16 16 16
0.9284213185310364 0.4197736978530884 5.4786200523376465 31 31 31
-2.900428533554077 -3.0376203060150146 13.1160888671875 80 80 80
0.9212544560432434 -0.07692954689264297 5.418613910675049 39 39 39
-4.224658012390137 -1.8122835159301758 16.12139892578125 104 104 104
-7.408751010894775 -2.869786262512207 15.890132904052734 94 94 94
-8.973893165588379 -2.595156192779541 22.33224868774414 108 108 108
0.9318777918815613 0.9437342286109924 5.655515670776367 101 101 101
1.3436464071273804 0.6886768937110901 5.295173168182373 95 95 95
-8.048627853393555 -3.7462687492370605 21.084922790527344 34 34 34
-7.542892932891846 -2.1048390865325928 16.657930374145508 125 125 125
-7.542990684509277 -2.1048645973205566 16.658174514770508 125 125 125
1.3169498443603516 -0.07466870546340942 5.181469917297363 52 52 52
2.1667792797088623 0.4558117091655731 4.932664394378662 95 95 95
-4.219589710235596 -2.1107468605041504 16.053739547729492 76 76 76
-2.4288651943206787 1.7710673809051514 11.343400955200195 94 94 94
-8.049680709838867 -3.738570213317871 21.08806610107422 24 24 24
-6.682535648345947 -2.229902982711792 14.382098197937012 61 61 61
1.310200572013855 -2.4071109294891357 4.938302040100098 91 91 91
1.3562169075012207 1.448667049407959 5.421202659606934 46 46 46
-6.929905891418457 -4.04473352432251 19.067672729492188 188 188 188
-4.1767706871032715 -2.3943378925323486 15.886198043823242 6 6 6
-1.8907809257507324 1.7643115520477295 11.504743576049805 22 22 22
1.3114427328109741 -0.33351829648017883 5.1577630043029785 131 131 131
-7.6428141593933105 -2.8061234951019287 16.32626724243164 64 64 64
-2.899448871612549 -3.036895513534546 13.112822532653809 80 80 80
-2.9276397228240967 -0.5808009505271912 13.602957725524902 77 77 77
0.9113961458206177 -1.1046583652496338 5.301774024963379 105 105 105
0.9037202000617981 -0.0304123368114233 5.445485591888428 52 52 52
0.7957038879394531 0.8741124272346497 5.831686019897461 171 171 171
-2.502908229827881 0.023124737665057182 11.540705680847168 192 192 192
1.2851165533065796 -1.359503984451294 5.038080215454102 129 129 129
1.3114298582077026 -0.3335094451904297 5.15769100189209 131 131 131
-2.677906036376953 0.11891333758831024 11.513433456420898 17 17 17
-2.469090700149536 0.11679296940565109 11.266072273254395 127 127 127
-2.6780214309692383 0.11890676617622375 11.513874053955078 17 17 17
-7.9021897315979 -1.63051438331604 22.409900665283203 128 128 128
1.3421146869659424 0.17151886224746704 5.24607515335083 154 154 154
-8.978419303894043 -1.8488582372665405 22.65273666381836 126 126 126
-1.887576699256897 -2.145763874053955 11.168998718261719 4 4 4
-8.770247459411621 -1.8660366535186768 22.65595245361328 103 103 103
-4.50754451751709 -3.2152035236358643 16.60773468017578 7 7 7
2.113654375076294 0.7276963591575623 5.21978759765625 165 165 165
-2.1847240924835205 -2.918278455734253 11.529115676879883 24 24 24
-2.1846563816070557 -2.918159246444702 11.528748512268066 24 24 24
-2.184650421142578 -2.9181535243988037 11.528727531433105 24 24 24
2.0832231044769287 0.24179966747760773 5.250585079193115 86 86 86
-7.981414318084717 -4.036622047424316 21.437667846679688 102 102 102
-8.798233985900879 -2.2421140670776367 22.607669830322266 43 43 43
-8.974828720092773 -2.250368595123291 22.55607795715332 59 59 59
0.6427918076515198 -1.4228062629699707 5.811120510101318 123 123 123
2.161581039428711 0.27523723244667053 4.919501781463623 94 94 94
0.6427913308143616 -1.4228124618530273 5.811120986938477 123 123 123
2.2173643112182617 0.29299286007881165 4.814301490783691 62 62 62
0.7939566373825073 0.3714389204978943 5.736721515655518 129 129 129
0.6675625443458557 1.059220790863037 6.112282752990723 118 118 118
0.022894233465194702 3.2635440826416016 6.815998554229736 112 112 112
0.45256876945495605 3.6021482944488525 6.111316204071045 64 64 64
1.0451133251190186 -2.6835520267486572 4.87748384475708 66 66 66
1.0430856943130493 -2.6194303035736084 4.7617011070251465 114 114 114
2.0856711864471436 0.3281615376472473 5.342636585235596 76 76 76
-2.5189692974090576 1.8330906629562378 11.417815208435059 161 161 161
-2.8567614555358887 1.8499506711959839 11.685482025146484 4 4 4
0.718657910823822 -2.718177556991577 5.460470199584961 47 47 47
2.1502938270568848 0.319974422454834 4.916037559509277 68 68 68
-7.072030067443848 -2.289644241333008 21.46810531616211 116 116 116
-2.901412010192871 -1.4433619976043701 13.335390090942383 48 48 48
2.2073469161987305 0.3345046043395996 4.818689823150635 76 76 76
-7.246346473693848 -1.6960113048553467 15.604433059692383 164 164 164
0.9028128981590271 -2.4213407039642334 5.131475448608398 35 35 35
0.9163857102394104 -0.5876546502113342 5.322059631347656 9 9 9
-0.5064282417297363 3.1013851165771484 7.566481590270996 58 58 58
2.0899038314819336 -0.09019245207309723 5.164092540740967 188 188 188
-8.066137313842773 -2.795685052871704 18.529468536376953 27 27 27
0.047025080770254135 0.576017439365387 7.335582733154297 47 47 47
1.2977352142333984 -0.5753704905509949 5.158846378326416 131 131 131
0.9627301096916199 -2.127511978149414 5.017768383026123 67 67 67
2.1135833263397217 0.6921999454498291 5.238683223724365 90 90 90
1.291689395904541 -1.8815891742706299 4.997554779052734 113 113 113
-4.7098188400268555 -4.320537567138672 11.6075439453125 182 182 182
-4.3561201095581055 -4.335550308227539 11.733404159545898 197 197 197
0.9042109251022339 -1.8944811820983887 5.198652267456055 135 135 135
2.146082639694214 0.553931713104248 4.963100910186768 114 114 114
1.0609577894210815 0.47145628929138184 5.217705726623535 159 159 159
2.1132802963256836 0.691011905670166 5.2382307052612305 90 90 90
-4.453073978424072 -2.275243043899536 16.36085319519043 20 20 20
0.25170382857322693 3.2950947284698486 6.749645709991455 142 142 142
-8.373775482177734 -2.787722110748291 20.20230484008789 117 117 117
-0.057748083025217056 3.4798665046691895 6.065260887145996 87 87 87
-5.936835289001465 -0.6678558588027954 19.76828384399414 150 150 150
-8.896621704101562 -3.2710118293762207 21.390546798706055 146 146 146
0.6192449927330017 3.486314296722412 6.090905666351318 102 102 102
-8.97097110748291 -2.888869524002075 22.295602798461914 81 81 81
-8.383793830871582 -2.7860326766967773 20.224105834960938 116 116 116
0.15715105831623077 0.8394491672515869 7.165657043457031 8 8 8
-5.662046432495117 -0.49150803685188293 19.13028335571289 21 21 21
-4.6247334480285645 -2.2665646076202393 17.288713455200195 76 76 76
1.0718473196029663 1.749543309211731 5.348543643951416 72 72 72
0.9188355803489685 -1.3763830661773682 5.261900901794434 48 48 48
-2.553683280944824 1.7364304065704346 11.439922332763672 8 8 8
0.8052901029586792 1.3550945520401 5.8614301681518555 147 147 147
-2.300703763961792 1.678146243095398 11.350746154785156 120 120 120
-0.15131400525569916 3.2714264392852783 6.591693878173828 83 83 83
1.0383620262145996 -0.8409207463264465 5.024636268615723 73 73 73
2.106584072113037 -0.004390440881252289 5.157723426818848 21 21 21
1.3026256561279297 1.1934561729431152 5.313595771789551 149 149 149
-2.300558567047119 1.6780582666397095 11.350241661071777 120 120 120
-0.14768539369106293 3.278921604156494 6.710999488830566 45 45 45
-1.8577855825424194 -2.536330461502075 10.99246597290039 16 16 16
1.299363613128662 -0.852240264415741 5.111153602600098 42 42 42
2.0969085693359375 0.02394787035882473 5.20702600479126 74 74 74
2.115063428878784 0.035439662635326385 5.174920558929443 152 152 152
1.3114354610443115 -0.3335179090499878 5.157728672027588 131 131 131
-2.9260520935058594 -2.8536386489868164 13.167216300964355 53 53 53
-1.845703125 -2.3282647132873535 11.015745162963867 10 10 10
0.06927220523357391 3.434239149093628 6.252415657043457 34 34 34
-7.677236557006836 -1.5683401823043823 22.508909225463867 80 80 80
-7.687157154083252 -1.568888783454895 22.534639358520508 80 80 80
0.3887856602668762 -0.48217108845710754 6.512157440185547 61 61 61
0.9212586283683777 -0.07693269848823547 5.418675422668457 39 39 39
0.9157698154449463 1.1445204019546509 5.591893672943115 129 129 129
0.8509000539779663 0.14676901698112488 5.567997932434082 0 0 0
-7.957560062408447 -1.7713003158569336 22.615327835083008 153 153 153
-2.9969067573547363 -2.7198269367218018 13.444063186645508 72 72 72
-8.361465454101562 -3.1118812561035156 19.332944869995117 55 55 55
-2.902780771255493 0.38600581884384155 11.23885440826416 68 68 68
-2.9770894050598145 1.6501495838165283 11.781576156616211 130 130 130
-0.3213914930820465 3.0035994052886963 8.106080055236816 124 124 124
1.0458813905715942 0.9584815502166748 5.244709491729736 5 5 5
-0.6940250992774963 2.948293447494507 7.934309005737305 14 14 14
0.49256324768066406 3.3874762058258057 6.084445476531982 85 85 85
-7.2936930656433105 -2.0374677181243896 22.132387161254883 81 81 81
-3.067509412765503 -2.6255853176116943 13.884256362915039 34 34 34
-4.2588629722595215 -1.5264068841934204 16.27870750427246 147 147 147
-4.728546619415283 -3.188318967819214 16.963531494140625 47 47 47
1.3467673063278198 0.24481557309627533 5.239526271820068 45 45 45
-8.07238483428955 -3.4067132472991943 18.612688064575195 76 76 76
2.12728214263916 0.24443787336349487 4.9005937576293945 34 34 34
2.12933611869812 0.8889839053153992 5.280050754547119 113 113 113
2.1483681201934814 0.26883092522621155 5.188413619995117 108 108 108
2.133422374725342 0.352858304977417 5.2167744636535645 95 95 95
0.8949748277664185 -1.1187191009521484 5.226123332977295 78 78 78
-2.977144241333008 1.6501870155334473 11.781810760498047 130 130 130
1.0451133251190186 -2.6835525035858154 4.877486705780029 66 66 66
0.3370090425014496 3.424302339553833 6.259578227996826 104 104 104
1.0344064235687256 -2.4184463024139404 4.823562145233154 85 85 85
1.0344040393829346 -2.418450117111206 4.823573589324951 85 85 85
0.718687891960144 -2.7182881832122803 5.4607038497924805 47 47 47
1.0199331045150757 -2.396211862564087 4.863670349121094 45 45 45
1.31020188331604 -2.407111644744873 4.938304424285889 91 91 91
0.0682021826505661 3.438236713409424 6.259475231170654 34 34 34
2.103245735168457 0.7090307474136353 5.273133277893066 58 58 58
2.0463812351226807 0.7080917954444885 5.279984951019287 51 51 51
2.112514019012451 0.6927012205123901 5.233644008636475 83 83 83
1.0343804359436035 -2.12465238571167 4.89833927154541 55 55 55
2.1132888793945312 0.6910107731819153 5.238247394561768 90 90 90
0.8922048211097717 -2.1202075481414795 5.15408992767334 119 119 119
1.2916851043701172 -1.881584644317627 4.997544288635254 113 113 113
0.5746046304702759 -0.17927351593971252 6.121990203857422 17 17 17
0.9042136073112488 -1.894491195678711 5.19868278503418 135 135 135
0.9042136669158936 -1.8944900035858154 5.1986799240112305 135 135 135
0.39493897557258606 3.399644374847412 6.276322364807129 128 128 128
0.8929365277290344 -1.5960620641708374 5.168476104736328 158 158 158
0.7565590739250183 -1.6732968091964722 5.487649440765381 128 128 128
2.0969045162200928 0.023944122716784477 5.207022666931152 74 74 74
2.115055799484253 0.03544024005532265 5.1748881340026855 152 152 152
-2.400777578353882 0.07346157729625702 11.552840232849121 1 1 1
1.3114423751831055 -0.33351776003837585 5.1577558517456055 131 131 131
1.311430811882019 -0.33351439237594604 5.157711982727051 131 131 131
0.6671019196510315 1.8065240383148193 6.21028995513916 29 29 29
0.5238650441169739 0.052824441343545914 6.281614780426025 56 56 56
1.056341290473938 -1.312243938446045 4.953488349914551 25 25 25
1.0721979141235352 2.5160043239593506 5.481449604034424 87 87 87
-6.2577924728393555 -4.1497368812561035 16.294078826904297 213 213 213
-2.1846461296081543 -2.9181487560272217 11.52871322631836 24 24 24
-2.6779918670654297 0.11891888827085495 11.51378345489502 17 17 17
0.03201063722372055 0.10546770691871643 7.290895462036133 79 79 79
-2.7298202514648438 0.027409272268414497 11.984028816223145 131 131 131
-7.902543067932129 -1.6305952072143555 22.410709381103516 128 128 128
2.1251585483551025 0.003351454623043537 5.153744220733643 55 55 55
0.28590062260627747 2.0783462524414062 7.009416103363037 104 104 104
-7.902339935302734 -1.630536437034607 22.410295486450195 128 128 128
-2.899292230606079 -3.0367777347564697 13.112322807312012 80 80 80
-2.9187631607055664 -0.754311740398407 13.548823356628418 85 85 85
-2.2906103134155273 0.0349879190325737 12.031694412231445 10 10 10
-7.872587203979492 -1.762930154800415 22.398082733154297 153 153 153
1.0771859884262085 2.7444658279418945 5.47348165512085 108 108 108
1.2958874702453613 -1.1233011484146118 5.0620646476745605 161 161 161
-6.376125335693359 -1.0982643365859985 20.65169334411621 118 118 118
-2.926010847091675 -2.8536136150360107 13.16712760925293 53 53 53
0.9212544560432434 -0.07693023979663849 5.418633460998535 39 39 39
-1.845713496208191 -2.3282713890075684 11.01578426361084 10 10 10
1.2957872152328491 -1.1038864850997925 5.145665168762207 100 100 100
-7.216134548187256 -4.075385570526123 19.126544952392578 149 149 149
1.061737060546875 1.9872571229934692 5.3762712478637695 103 103 103
1.033261775970459 -1.0468471050262451 4.976561069488525 70 70 70
2.1667873859405518 0.4558136463165283 4.932698726654053 95 95 95
0.8963602185249329 -1.0704072713851929 5.257198333740234 106 106 106
1.0791200399398804 2.2477104663848877 5.42313814163208 97 97 97
2.1667776107788086 0.4558124244213104 4.932660102844238 95 95 95
0.2704520523548126 0.19295211136341095 6.818502902984619 63 63 63
2.166806936264038 0.4558066725730896 4.932743072509766 95 95 95
2.110013961791992 0.5008956789970398 5.2280707359313965 83 83 83
-7.293726921081543 -2.037487745285034 22.132465362548828 81 81 81
-4.507313251495361 -3.2150726318359375 16.607044219970703 7 7 7
-8.224034309387207 -2.0628957748413086 22.669584274291992 137 137 137
1.3354403972625732 0.4896915555000305 5.262664794921875 37 37 37
-4.507430553436279 -3.2151405811309814 16.60739517211914 7 7 7
-7.9816670417785645 -4.036746501922607 21.438241958618164 102 102 102
-4.259521007537842 -1.526642084121704 16.280719757080078 147 147 147
1.3026727437973022 1.1934903860092163 5.31374979019165 149 149 149
2.080970048904419 0.45563119649887085 5.135804653167725 131 131 131
-8.12677001953125 -3.9427595138549805 21.25627899169922 31 31 31
-7.911327838897705 -2.2263681888580322 22.31763458251953 80 80 80
-7.5783281326293945 -3.8682899475097656 20.882932662963867 249 249 249
-8.253708839416504 -2.272036075592041 22.7003116607666 62 62 62
1.3526513576507568 1.703782081604004 5.418210506439209 139 139 139
-8.606820106506348 -2.2689902782440186 22.640235900878906 109 109 109
-8.798454284667969 -2.2421939373016357 22.608198165893555 43 43 43
-8.047699928283691 -3.7458667755126953 21.08281135559082 34 34 34
-7.912825584411621 -2.2268357276916504 22.32187843322754 80 80 80
1.3328713178634644 0.44788339734077454 5.27780818939209 114 114 114
-7.899959087371826 -3.8309178352355957 21.781599044799805 77 77 77
0.9326349496841431 1.1694483757019043 5.5689311027526855 111 111 111
0.9284509420394897 0.419791042804718 5.478796482086182 31 31 31
-8.607547760009766 -2.2692015171051025 22.641935348510742 109 109 109
-7.253635883331299 1.5764497518539429 20.860864639282227 150 150 150
-5.769837856292725 -2.0137171745300293 19.394554138183594 166 166 166
2.0813286304473877 0.17313891649246216 5.159945964813232 168 168 168
1.067033052444458 1.2570611238479614 5.282827377319336 119 119 119
2.0813305377960205 0.17313887178897858 5.159954071044922 168 168 168
-4.622276306152344 -2.694584369659424 17.07058334350586 123 123 123
1.3421136140823364 0.1715160310268402 5.246081352233887 154 154 154
-0.8452615141868591 1.9396262168884277 9.369297981262207 24 24 24
1.0622143745422363 -0.5528052449226379 5.082385063171387 91 91 91
-4.622200965881348 -2.694549798965454 17.070358276367188 123 123 123
-0.16719551384449005 3.3358712196350098 6.635421276092529 160 160 160
2.090827465057373 0.3516864776611328 5.301186561584473 59 59 59
0.9163854718208313 -0.5876563787460327 5.322096824645996 9 9 9
0.7939725518226624 0.3714118003845215 5.736230850219727 129 129 129
-2.2540605068206787 1.7736566066741943 11.41677188873291 11 11 11
0.5152676701545715 -0.6958310008049011 6.16965913772583 92 92 92
-2.8922905921936035 -1.969781517982483 13.248271942138672 13 13 13
-2.4286398887634277 1.770986557006836 11.342727661132812 94 94 94
-0.23941023647785187 3.2650671005249023 6.781457424163818 136 136 136
-1.8907623291015625 1.7642948627471924 11.504633903503418 22 22 22
2.2173454761505127 0.29299256205558777 4.81428861618042 62 62 62
2.085677146911621 0.3281638026237488 5.342663764953613 76 76 76
0.2886093258857727 3.338994264602661 6.748013019561768 125 125 125
-2.553659200668335 1.7364025115966797 11.439838409423828 11 11 11
2.1615829467773438 0.2752387225627899 4.919507026672363 94 94 94
-2.5536887645721436 1.7364307641983032 11.43993854522705 8 8 8
-2.2917654514312744 1.6711877584457397 11.319587707519531 120 120 120
2.1448841094970703 0.2548955976963043 4.8945631980896 41 41 41
0.9409928917884827 1.4271701574325562 5.595381736755371 82 82 82
-4.8963141441345215 -2.3819291591644287 17.306772232055664 56 56 56
0.6730639338493347 1.311384677886963 6.140491485595703 3 3 3
-2.753983736038208 -1.7049460411071777 12.589731216430664 87 87 87
2.1269848346710205 0.24563585221767426 4.8996901512146 26 26 26
2.113670587539673 0.7276914715766907 5.21986722946167 165 165 165
-0.1394967883825302 3.265223741531372 6.66942024230957 47 47 47
-7.405320644378662 -1.887381911277771 16.35610580444336 20 20 20
-5.681612491607666 -0.35616135597229004 19.259906768798828 48 48 48
-7.542972087860107 -2.1048569679260254 16.658151626586914 125 125 125
-7.994503021240234 -2.4129695892333984 18.286943435668945 26 26 26
2.083714246749878 0.24177706241607666 5.251842975616455 86 86 86
-6.007626533508301 -0.6799598932266235 19.967496871948242 133 133 133
-2.9456217288970947 -1.6312142610549927 13.454975128173828 118 118 118
0.9037160277366638 -0.03041211888194084 5.445486545562744 52 52 52
-6.749285697937012 -1.2791401147842407 21.316402435302734 31 31 31
1.3534373044967651 1.7081536054611206 5.426320552825928 176 176 176
-0.04785618558526039 3.3218495845794678 6.4339447021484375 111 111 111
-7.731447696685791 -2.8505699634552 17.692182540893555 157 157 157
0.9114471077919006 -1.1047359704971313 5.302078723907471 105 105 105
2.245858669281006 0.5212724804878235 4.900280475616455 48 48 48
0.8936274647712708 -2.6659696102142334 5.106984615325928 43 43 43
2.161529541015625 0.2752416431903839 4.919311046600342 94 94 94
-2.926071882247925 -2.8536617755889893 13.167308807373047 53 53 53
-7.665839672088623 -3.082120895385742 16.561342239379883 9 9 9
0.9150630831718445 -0.6017600893974304 5.4756760597229 71 71 71
-9.055068969726562 -2.909304618835449 22.267845153808594 80 80 80
-7.687085151672363 -1.5688666105270386 22.5344295501709 80 80 80
1.0184118747711182 -1.09158194065094 4.958773136138916 118 118 118
0.8922021389007568 -0.8541432023048401 5.164528846740723 65 65 65
1.0744935274124146 1.4866442680358887 5.333309173583984 104 104 104
1.0451130867004395 -2.683551788330078 4.877487659454346 66 66 66
1.3562169075012207 1.4486664533615112 5.421202659606934 46 46 46
1.3661375045776367 -2.4852664470672607 4.826630115509033 63 63 63
-8.253870964050293 -2.272071361541748 22.700918197631836 62 62 62
0.718669593334198 -2.7182400226593018 5.460598945617676 47 47 47
-8.798404693603516 -2.2421748638153076 22.608057022094727 43 43 43
-8.847512245178223 -2.1214635372161865 21.96522331237793 104 104 104
1.250537395477295 -2.1050455570220947 4.911013126373291 155 155 155
-7.936061382293701 -2.1149256229400635 22.57834815979004 45 45 45
-4.709831237792969 -4.320548057556152 11.60757064819336 182 182 182
0.9027539491653442 -1.9401687383651733 5.322091102600098 75 75 75
0.9042132496833801 -1.8945019245147705 5.198713302612305 135 135 135
-2.9506723880767822 -1.283772587776184 13.53981876373291 80 80 80
1.3220272064208984 -1.6339795589447021 5.0343804359436035 89 89 89
1.0286201238632202 -1.5696736574172974 4.927177906036377 143 143 143
0.8793565034866333 -1.5980714559555054 5.226649284362793 124 124 124
1.976751685142517 0.13801465928554535 5.307980537414551 86 86 86
2.1132800579071045 0.6910102963447571 5.238224029541016 90 90 90
2.105271339416504 0.15258757770061493 5.221682548522949 90 90 90
1.0298115015029907 -1.3740506172180176 4.997861385345459 115 115 115
1.0401406288146973 -1.3689216375350952 4.956888198852539 48 48 48
1.2645149230957031 -0.5587944984436035 5.084743976593018 170 170 170
1.285122036933899 -1.3595178127288818 5.038118362426758 129 129 129
0.9247092604637146 0.16555353999137878 5.326124668121338 107 107 107
1.2851383686065674 -1.3595408201217651 5.0381951332092285 129 129 129
0.9213513135910034 -1.393967628479004 5.224556922912598 115 115 115
1.342118263244629 0.1715172380208969 5.246142864227295 154 154 154
2.081343412399292 0.17313864827156067 5.159996032714844 168 168 168
0.8943871259689331 -1.3866804838180542 5.273417949676514 26 26 26
1.2861037254333496 0.46291983127593994 5.245093822479248 126 126 126
1.079028606414795 2.24751877784729 5.422701835632324 97 97 97
-5.985104084014893 -4.172240734100342 16.397356033325195 170 170 170
-7.89980411529541 -3.830867052078247 21.78118324279785 77 77 77
1.3026703596115112 1.193487286567688 5.313727855682373 149 149 149
1.2791117429733276 -1.1273612976074219 5.076854705810547 101 101 101
1.2912485599517822 -1.1258472204208374 5.070687770843506 133 133 133
-2.9258522987365723 -2.8534417152404785 13.166394233703613 53 53 53
-2.9260787963867188 -2.8536670207977295 13.167330741882324 53 53 53
1.0374281406402588 -0.32847297191619873 5.101770877838135 102 102 102
1.3114275932312012 -0.33350759744644165 5.1576642990112305 131 131 131
2.1135807037353516 0.692199170589447 5.238669395446777 90 90 90
1.0344070196151733 -2.418466567993164 4.823607921600342 85 85 85
0.8960639834403992 -1.0739459991455078 5.283385276794434 133 133 133
2.1296334266662598 0.8888871669769287 5.281445026397705 113 113 113
-7.803193092346191 -4.04323148727417 20.76435661315918 104 104 104
-2.428553342819214 1.7709547281265259 11.342458724975586 94 94 94
-4.507543563842773 -3.215207576751709 16.607744216918945 7 7 7
-7.981523513793945 -4.036670207977295 21.437946319580078 102 102 102
-2.8640682697296143 -2.436903238296509 12.92715835571289 78 78 78
-7.274000644683838 -3.579852819442749 19.286827087402344 63 63 63
-7.578532695770264 -3.868415117263794 20.883420944213867 249 249 249
-7.766155242919922 -1.0815966129302979 22.010608673095703 182 182 182
-8.049819946289062 -3.738621234893799 21.088407516479492 24 24 24
0.33200618624687195 3.5526435375213623 6.108633518218994 48 48 48
0.16824370622634888 3.5213119983673096 6.071374416351318 53 53 53
1.0383613109588623 -0.8408929109573364 5.024444580078125 73 73 73
2.1615545749664307 0.2752411961555481 4.919410705566406 94 94 94
2.14660382270813 0.7189805507659912 5.379311561584473 82 82 82
2.127563953399658 0.6475031971931458 5.22591495513916 60 60 60
1.2993741035461426 -0.8522485494613647 5.111185550689697 42 42 42
0.07412814348936081 3.539001941680908 6.288965702056885 116 116 116
-5.359731674194336 -0.674653172492981 17.895715713500977 97 97 97
0.9223335385322571 -0.8453126549720764 5.308367729187012 125 125 125
1.3764814138412476 2.9274234771728516 5.5788092613220215 80 80 80
0.6444937586784363 -0.9165685772895813 5.904706001281738 18 18 18
-5.683441162109375 -0.49269047379493713 19.19133186340332 21 21 21
