ply
format ascii 1.0
element vertex 717
property float x
property float y
property float z
property uchar red
property uchar green
property uchar blue
end_header
-0.053575314581394196 0.2845284938812256 5.168323040008545 33 33 33
-0.053575314581394196 0.2845284938812256 5.168323040008545 33 33 33
-0.04645457863807678 -1.2032928466796875 4.956045150756836 43 43 43
-0.045328255742788315 0.04138157516717911 5.1454339027404785 41 41 41
-0.04902864247560501 -1.750472903251648 4.894519805908203 52 52 52
-0.021344151347875595 1.2022486925125122 4.926175117492676 102 102 102
-0.0381295420229435 -0.04747799038887024 5.124606132507324 35 35 35
-0.0381295420229435 -0.04747799038887024 5.124606132507324 35 35 35
-0.04656362906098366 -0.8305922150611877 5.013991832733154 42 42 42
-0.03142429515719414 0.11181265860795975 5.052389621734619 41 41 41
-0.04172182455658913 0.06992942839860916 5.2044758796691895 45 45 45
-0.024163110181689262 0.9769105315208435 4.891033172607422 69 69 69
-0.005290482193231583 -0.20663230121135712 5.108019828796387 62 62 62
-0.002792556304484606 -2.071629524230957 4.729200839996338 25 25 25
-0.012534714303910732 -1.0955312252044678 4.981939315795898 58 58 58
-0.01171639934182167 -0.3985080122947693 5.080748558044434 56 56 56
-0.009453906677663326 -0.8160530924797058 5.012048244476318 68 68 68
-0.008276400156319141 0.9599661827087402 4.872142314910889 123 123 123
0.0087231220677495 -1.9734731912612915 4.769405364990234 41 41 41
-0.003772863419726491 -1.6624199151992798 4.892996311187744 61 61 61
0.0005711821722798049 -1.6785147190093994 4.88269567489624 54 54 54
0.008212325163185596 -1.724260687828064 4.87227725982666 34 34 34
0.006714291404932737 0.9397985339164734 4.851228713989258 102 102 102
0.015150712803006172 0.8202906250953674 4.875445365905762 121 121 121
0.027014445513486862 0.22175683081150055 5.087281227111816 31 31 31
0.02926073968410492 1.411412000656128 4.854989528656006 107 107 107
0.02723674289882183 -2.289764404296875 4.424903869628906 43 43 43
0.06267893314361572 0.14995162189006805 5.066636562347412 46 46 46
0.05623349919915199 -2.300731897354126 4.4866108894348145 41 41 41
0.07748186588287354 0.9303748607635498 4.775975704193115 103 103 103
0.09231153130531311 0.7894452214241028 4.711623191833496 124 124 124
0.10654561966657639 1.4673871994018555 4.724470615386963 80 80 80
0.11837416887283325 0.7062065005302429 5.058738708496094 71 71 71
0.12229757010936737 0.6480202078819275 5.085226058959961 32 32 32
0.12232404947280884 0.703815221786499 5.033117294311523 74 74 74
0.12751659750938416 1.1806832551956177 4.7426886558532715 65 65 65
0.1483222246170044 1.126435399055481 4.689009666442871 107 107 107
0.15789805352687836 0.8060879111289978 4.64659309387207 122 122 122
0.17677733302116394 1.2166204452514648 4.686767578125 85 85 85
0.2240421324968338 1.0165634155273438 4.586481094360352 123 123 123
0.2294548749923706 1.4452695846557617 4.631788730621338 112 112 112
0.2587217688560486 0.7401301860809326 4.820070266723633 58 58 58
0.25105294585227966 0.8944596648216248 4.55251932144165 131 131 131
0.2528430223464966 0.9445057511329651 4.572789192199707 100 100 100
0.2638125717639923 1.2233548164367676 4.576300144195557 59 59 59
0.29417452216148376 0.9634340405464172 4.489335536956787 132 132 132
0.29570096731185913 -2.318058967590332 4.399123191833496 17 17 17
0.30837973952293396 1.3301210403442383 4.533506870269775 56 56 56
0.32957687973976135 1.4067072868347168 4.513309478759766 104 104 104
0.3578333556652069 1.928107738494873 4.546527862548828 57 57 57
0.378084272146225 1.5454773902893066 4.4675374031066895 120 120 120
0.368490993976593 0.8289498686790466 4.417728900909424 151 151 151
0.4333486258983612 0.7634577751159668 4.678660869598389 49 49 49
0.4074636399745941 0.9384235143661499 4.339280605316162 135 135 135
0.4171425700187683 0.8968324661254883 4.338270664215088 122 122 122
0.4224318861961365 0.9391474723815918 4.323709487915039 139 139 139
0.47939562797546387 2.3252055644989014 4.472654819488525 79 79 79
0.4912429451942444 0.6670302152633667 4.52672815322876 34 34 34
0.4793868660926819 2.325176954269409 4.4726033210754395 79 79 79
0.5278468132019043 0.5119446516036987 4.771261215209961 135 135 135
0.49463412165641785 0.9824580550193787 4.250739574432373 179 179 179
0.49091845750808716 0.9782203435897827 4.201616287231445 120 120 120
0.5006394982337952 1.4334526062011719 4.300315856933594 108 108 108
0.503178596496582 1.3177382946014404 4.2683892250061035 53 53 53
0.5066442489624023 1.04216468334198 4.227680206298828 157 157 157
0.5058851838111877 1.1082319021224976 4.2448272705078125 152 152 152
0.5041589140892029 0.9478226900100708 4.217077255249023 156 156 156
0.5274379253387451 2.1307108402252197 4.319701194763184 34 34 34
0.5153486132621765 1.1531202793121338 4.241979122161865 138 138 138
0.5178722739219666 1.2131462097167969 4.257834434509277 79 79 79
0.520822286605835 1.3432594537734985 4.286217212677002 96 96 96
0.5597699880599976 0.7653995752334595 4.519044399261475 39 39 39
0.517335057258606 0.920510470867157 4.213161945343018 145 145 145
0.5438609719276428 -2.1248888969421387 4.093398094177246 85 85 85
0.5438609719276428 -2.1248888969421387 4.093398094177246 85 85 85
0.5542425513267517 0.9110428690910339 4.167335510253906 112 112 112
0.5766575336456299 1.2788448333740234 4.19322395324707 62 62 62
0.5883459448814392 1.7097020149230957 4.2110066413879395 80 80 80
0.58437180519104 1.0023314952850342 4.145378589630127 81 81 81
0.629828691482544 0.7080238461494446 4.451694011688232 35 35 35
0.6284096837043762 0.743820309638977 4.424871444702148 52 52 52
0.6363406777381897 0.6668999791145325 4.428260326385498 45 45 45
0.6024448275566101 2.0044429302215576 4.1879730224609375 49 49 49
0.6084980368614197 1.5897225141525269 4.177273750305176 53 53 53
0.6083416938781738 1.572668194770813 4.146409511566162 51 51 51
0.6445027589797974 2.2201690673828125 4.191391944885254 90 90 90
0.6503474712371826 1.7865331172943115 4.160319805145264 82 82 82
0.6322554349899292 1.0574432611465454 3.993791341781616 76 76 76
0.6479297876358032 0.9307296276092529 4.036462783813477 73 73 73
0.714646577835083 0.09917381405830383 4.475116729736328 177 177 177
0.6734880805015564 1.6788265705108643 4.117042064666748 20 20 20
0.6640967726707458 1.3184924125671387 4.092387676239014 68 68 68
0.6861427426338196 1.356606364250183 4.069973945617676 75 75 75
0.7236671447753906 2.0374717712402344 4.085561752319336 91 91 91
0.7170553207397461 1.7499444484710693 4.029428958892822 93 93 93
0.76043701171875 0.6578081846237183 4.20078182220459 27 27 27
0.7621064782142639 0.8539128303527832 4.268932342529297 135 135 135
0.7849816679954529 0.4661741256713867 4.3302226066589355 168 168 168
0.7223437428474426 0.9890606999397278 3.9540092945098877 87 87 87
0.7621021270751953 0.8538975715637207 4.26885461807251 135 135 135
0.7621021270751953 0.8538975715637207 4.26885461807251 135 135 135
0.7621017098426819 0.853907585144043 4.26890754699707 135 135 135
0.7342749238014221 1.3632616996765137 3.990506410598755 52 52 52
0.7730808854103088 0.7329744696617126 4.246914863586426 45 45 45
0.7312392592430115 1.6548529863357544 3.955035448074341 93 93 93
0.7872009873390198 0.7908470034599304 4.246853828430176 36 36 36
0.732900083065033 1.0356688499450684 3.9449498653411865 74 74 74
0.7419973611831665 1.5499188899993896 3.9854743480682373 38 38 38
0.767690896987915 1.996806025505066 4.012183666229248 82 82 82
0.8292025923728943 0.7626004219055176 4.292760848999023 57 57 57
0.8256557583808899 0.7371677160263062 4.183817386627197 50 50 50
0.7599151134490967 0.997611939907074 3.9189321994781494 66 66 66
0.7562786936759949 0.9345477223396301 3.8942997455596924 89 89 89
0.7562786936759949 0.9345477223396301 3.8942997455596924 89 89 89
0.7816976308822632 1.1049394607543945 3.8969461917877197 70 70 70
0.7872947454452515 1.121186375617981 3.893190383911133 74 74 74
0.8108121752738953 1.2823323011398315 3.9838852882385254 42 42 42
0.8558696508407593 0.8225840926170349 4.177596092224121 61 61 61
0.8104252815246582 1.8251739740371704 3.9461700916290283 109 109 109
0.8194805383682251 1.3684661388397217 3.8477580547332764 58 58 58
0.8271119594573975 1.6505825519561768 3.9046921730041504 51 51 51
0.8227237462997437 1.2241549491882324 3.8758559226989746 78 78 78
0.8371389508247375 1.9952629804611206 3.9266369342803955 68 68 68
0.863158643245697 -0.0548413023352623 4.007094383239746 56 56 56
0.9005356431007385 0.7283462285995483 4.1987457275390625 23 23 23
0.8411467671394348 1.6848758459091187 3.9008431434631348 57 57 57
0.8613289594650269 -0.005317140836268663 4.04335355758667 45 45 45
0.8273596167564392 1.3584338426589966 3.8061351776123047 47 47 47
0.8548781275749207 1.898400068283081 3.8900442123413086 119 119 119
0.8796986937522888 -0.3150022625923157 3.9955575466156006 63 63 63
0.8541693091392517 1.7933191061019897 3.8733279705047607 121 121 121
0.9070771932601929 0.7918802499771118 4.113081932067871 56 56 56
0.9069859385490417 0.5287890434265137 4.0623779296875 40 40 40
0.8728908896446228 1.5109504461288452 3.8668487071990967 21 21 21
0.8963888883590698 -0.24577604234218597 3.9655961990356445 34 34 34
0.8973062634468079 -0.3692164123058319 3.961153745651245 42 42 42
0.885606050491333 1.9473426342010498 3.8465757369995117 141 141 141
0.9233989715576172 0.32762449979782104 4.009854316711426 36 36 36
0.8860308527946472 1.83128023147583 3.8388593196868896 132 132 132
0.9514021277427673 0.9093740582466125 4.1139421463012695 100 100 100
0.9192242622375488 -0.3891048729419708 3.9361751079559326 64 64 64
0.9449730515480042 0.7407741546630859 4.01375675201416 40 40 40
0.9255556464195251 -0.22752200067043304 3.927889823913574 38 38 38
0.9102858901023865 -0.9539629817008972 3.8544042110443115 61 61 61
0.9449753761291504 0.7407702207565308 4.013783931732178 40 40 40
0.8995124101638794 1.348079800605774 3.7763216495513916 38 38 38
0.9039638638496399 1.545344591140747 3.760260581970215 124 124 124
0.9554868936538696 0.4075635075569153 3.964517831802368 26 26 26
0.916486382484436 1.9048585891723633 3.8031837940216064 140 140 140
0.9630306959152222 0.6572886109352112 3.9932916164398193 82 82 82
0.9578961133956909 0.31619569659233093 3.951244592666626 35 35 35
0.9164592623710632 1.4036376476287842 3.7809956073760986 58 58 58
0.956178605556488 0.2913133502006531 3.9432878494262695 39 39 39
0.9549336433410645 0.19181686639785767 3.9360084533691406 36 36 36
0.9009045958518982 1.0458829402923584 3.7459793090820312 59 59 59
0.9558490514755249 0.14023032784461975 3.9215877056121826 39 39 39
0.9551644325256348 0.02431005798280239 3.91633939743042 41 41 41
0.9658461213111877 0.5221310257911682 3.961221694946289 75 75 75
0.958154022693634 0.06105572357773781 3.924426317214966 39 39 39
0.939144492149353 1.3902961015701294 3.8315653800964355 88 88 88
0.9635884761810303 0.34275150299072266 3.923898220062256 38 38 38
0.9576689600944519 -0.3891313076019287 3.8528506755828857 46 46 46
0.96730637550354 0.05832565575838089 3.8879144191741943 64 64 64
0.9701502323150635 0.010782363824546337 3.878207206726074 85 85 85
0.994568943977356 0.688059389591217 3.9699480533599854 73 73 73
0.9656590223312378 -0.1335994154214859 3.820482015609741 69 69 69
0.9991282820701599 0.7953134179115295 3.9652485847473145 122 122 122
0.938434362411499 1.3590915203094482 3.722844123840332 42 42 42
0.9849787354469299 0.16382884979248047 3.9086153507232666 64 64 64
1.0063269138336182 0.33831432461738586 3.989703416824341 23 23 23
0.918245792388916 1.0487470626831055 3.6291370391845703 84 84 84
0.944186806678772 1.4014885425567627 3.721728801727295 62 62 62
0.944186806678772 1.4014885425567627 3.721728801727295 62 62 62
0.9968874454498291 0.2530670464038849 3.923654317855835 35 35 35
0.9434917569160461 1.4977593421936035 3.7397050857543945 47 47 47
0.9725724458694458 -0.3955698311328888 3.814983606338501 106 106 106
0.9521276354789734 1.518673300743103 3.7431604862213135 46 46 46
0.9622548222541809 1.813315749168396 3.7402114868164062 86 86 86
1.0103468894958496 0.386889785528183 3.869166374206543 48 48 48
1.0345994234085083 0.5316941738128662 4.002034664154053 44 44 44
1.0254321098327637 0.8715606927871704 3.912423849105835 68 68 68
0.9906610250473022 -0.8429589867591858 3.7691380977630615 59 59 59
0.971585750579834 1.4449726343154907 3.692655324935913 48 48 48
1.0480228662490845 0.32609686255455017 3.983433961868286 38 38 38
0.9753422141075134 1.6383781433105469 3.7025506496429443 39 39 39
1.0216236114501953 0.9180840849876404 3.852686882019043 103 103 103
0.9789053201675415 1.2117550373077393 3.67348313331604 88 88 88
0.9829160571098328 1.6841562986373901 3.6989634037017822 74 74 74
0.9785261154174805 1.3966436386108398 3.680079221725464 47 47 47
0.9929304122924805 1.7202281951904297 3.6976318359375 95 95 95
0.9792429804801941 -1.8478115797042847 3.6721572875976562 66 66 66
1.0176177024841309 -0.8272990584373474 3.7804081439971924 94 94 94
0.9995089769363403 1.7545506954193115 3.7000887393951416 108 108 108
1.0593229532241821 -0.15210427343845367 3.870781898498535 41 41 41
0.9859480857849121 1.1105507612228394 3.6400208473205566 117 117 117
0.989249587059021 1.1066923141479492 3.6477725505828857 93 93 93
1.0048388242721558 1.9054700136184692 3.697632074356079 114 114 114
1.0004562139511108 1.5413684844970703 3.6839635372161865 39 39 39
1.0053226947784424 1.6564085483551025 3.681143045425415 32 32 32
1.0053226947784424 1.6564085483551025 3.681143045425415 32 32 32
1.0023704767227173 1.418500542640686 3.6631999015808105 41 41 41
1.1268824338912964 0.7402206659317017 4.1151885986328125 39 39 39
1.0353580713272095 -0.8630730509757996 3.767544746398926 30 30 30
1.0294348001480103 -1.3147047758102417 3.733459711074829 25 25 25
1.0294348001480103 -1.3147047758102417 3.733459711074829 25 25 25
1.0170209407806396 1.71994149684906 3.67372727394104 32 32 32
1.012412190437317 1.459484577178955 3.648754358291626 70 70 70
1.0416820049285889 -1.1636556386947632 3.7296760082244873 19 19 19
1.0837873220443726 0.8569304943084717 3.867799758911133 114 114 114
1.0221054553985596 -1.4550979137420654 3.6629116535186768 23 23 23
1.0699100494384766 -0.8725341558456421 3.794840097427368 33 33 33
1.0674992799758911 -1.0281285047531128 3.7838592529296875 34 34 34
1.0538718700408936 1.8571796417236328 3.720381259918213 70 70 70
1.0426623821258545 1.7666698694229126 3.666846990585327 53 53 53
1.0940802097320557 0.8956519961357117 3.8814287185668945 41 41 41
1.0474432706832886 1.6869993209838867 3.6313586235046387 108 108 108
1.0448449850082397 1.8607105016708374 3.640836477279663 113 113 113
1.0634942054748535 1.786190390586853 3.650038719177246 69 69 69
1.0474430322647095 1.6869975328445435 3.6313555240631104 108 108 108
1.1287921667099 -0.8133730292320251 3.8788959980010986 114 114 114
1.058111548423767 1.332545518875122 3.6334831714630127 31 31 31
1.0424696207046509 1.28449285030365 3.579319477081299 66 66 66
1.2030142545700073 0.550942599773407 4.129190444946289 59 59 59
1.2046624422073364 0.497850626707077 4.121253967285156 69 69 69
1.2046624422073364 0.497850626707077 4.121253967285156 69 69 69
1.2044930458068848 0.41827821731567383 4.113224983215332 40 40 40
1.0928171873092651 -0.855894148349762 3.7228498458862305 37 37 37
1.048999547958374 1.100197434425354 3.5671627521514893 76 76 76
1.0544500350952148 1.395956039428711 3.546658515930176 73 73 73
1.198729395866394 0.15061917901039124 4.0644145011901855 35 35 35
1.0612688064575195 1.5371785163879395 3.5932042598724365 89 89 89
1.1285741329193115 0.9244473576545715 3.8230888843536377 92 92 92
1.1290451288223267 0.9386234879493713 3.8227899074554443 117 117 117
1.0601420402526855 1.4380958080291748 3.5844614505767822 54 54 54
1.1257518529891968 0.8662163019180298 3.809318780899048 126 126 126
1.1036452054977417 -0.9235255718231201 3.7182860374450684 30 30 30
1.0745455026626587 1.5799577236175537 3.5964503288269043 25 25 25
1.0661416053771973 1.7807985544204712 3.554957866668701 104 104 104
1.0812543630599976 -1.3033161163330078 3.6321895122528076 18 18 18
1.1954678297042847 -0.17660920321941376 4.009037017822266 47 47 47
1.1324015855789185 0.8199349641799927 3.800182580947876 74 74 74
1.193400263786316 -0.2831248939037323 3.9871346950531006 41 41 41
1.2111473083496094 -0.24041242897510529 4.008792877197266 128 128 128
1.228730320930481 0.33804988861083984 4.082555770874023 32 32 32
1.2021867036819458 -0.36368948221206665 3.9897236824035645 40 40 40
1.1419899463653564 0.8549883961677551 3.7900679111480713 50 50 50
1.2013611793518066 -0.41975483298301697 3.977290630340576 45 45 45
1.197137475013733 -0.7000004053115845 3.9290897846221924 62 62 62
1.1199767589569092 -1.0245546102523804 3.6644272804260254 16 16 16
1.0725164413452148 1.0338752269744873 3.5099754333496094 57 57 57
1.208223581314087 -0.7265711426734924 3.950528860092163 76 76 76
1.2148712873458862 -0.4716458320617676 3.9679644107818604 92 92 92
1.213155746459961 -0.5208833813667297 3.9591422080993652 104 104 104
1.2127577066421509 -0.5382381677627563 3.956465721130371 112 112 112
1.0801379680633545 1.0768325328826904 3.5199992656707764 61 61 61
1.0845869779586792 1.514009952545166 3.528696060180664 51 51 51
1.0872358083724976 1.3321871757507324 3.5189859867095947 47 47 47
1.2225202322006226 -0.6277543306350708 3.957533359527588 65 65 65
1.2403383255004883 -0.21979419887065887 4.012479782104492 51 51 51
1.227510929107666 -0.6425501704216003 3.9460270404815674 36 36 36
1.1534225940704346 -0.8543323874473572 3.69519305229187 31 31 31
1.251174807548523 -0.770897388458252 4.022637844085693 102 102 102
1.0984798669815063 1.4035320281982422 3.515016555786133 55 55 55
1.1114692687988281 1.7109870910644531 3.556016683578491 58 58 58
1.1120522022247314 1.8076372146606445 3.5612690448760986 60 60 60
1.2211706638336182 -0.6756700873374939 3.9222469329833984 96 96 96
1.2611874341964722 0.5916611552238464 3.9861762523651123 131 131 131
1.2684613466262817 0.6222931742668152 4.050477027893066 94 94 94
1.268739104270935 0.46270084381103516 4.050008296966553 52 52 52
1.2698255777359009 0.3637407124042511 4.050002098083496 45 45 45
1.283845067024231 0.5913057327270508 4.0858259201049805 126 126 126
1.2455880641937256 -0.6203756928443909 3.9610321521759033 81 81 81
1.1037304401397705 1.22002375125885 3.5273900032043457 91 91 91
1.1217950582504272 1.657915711402893 3.522634744644165 34 34 34
1.1141183376312256 1.4525045156478882 3.4980673789978027 43 43 43
1.1315099000930786 1.7667478322982788 3.532679319381714 89 89 89
1.1242685317993164 1.3661900758743286 3.5015382766723633 38 38 38
1.1010140180587769 1.077317476272583 3.42612361907959 66 66 66
1.1010140180587769 1.077317476272583 3.42612361907959 66 66 66
1.2276625633239746 0.8126291632652283 3.8005857467651367 62 62 62
1.1253068447113037 1.332993745803833 3.4681968688964844 41 41 41
1.3356038331985474 0.6203505396842957 4.017047882080078 156 156 156
1.151605248451233 1.384448766708374 3.4518775939941406 132 132 132
1.3720859289169312 -0.2406126856803894 4.090988636016846 49 49 49
1.1462284326553345 1.4168775081634521 3.3755228519439697 49 49 49
1.2582166194915771 0.9542794823646545 3.7682511806488037 115 115 115
1.374743938446045 -0.5822152495384216 4.069972038269043 40 40 40
1.3428990840911865 0.6869634985923767 3.961771011352539 108 108 108
1.242577075958252 0.8656518459320068 3.6561827659606934 55 55 55
1.1605440378189087 1.1091516017913818 3.412114143371582 60 60 60
1.1685987710952759 1.326744556427002 3.430269241333008 42 42 42
1.2469450235366821 0.9701727628707886 3.645214319229126 103 103 103
1.4244248867034912 -0.32706576585769653 4.160158634185791 61 61 61
1.394509196281433 -0.5309090614318848 4.063309669494629 95 95 95
1.1983416080474854 0.9974217414855957 3.483588457107544 110 110 110
1.1983416080474854 0.9974217414855957 3.483588457107544 110 110 110
1.3134758472442627 -0.7825168967247009 3.8264002799987793 176 176 176
1.2521295547485352 -0.8420071601867676 3.5815341472625732 28 28 28
1.2079836130142212 1.0262714624404907 3.4551281929016113 98 98 98
1.4206289052963257 -1.917673945426941 4.036769390106201 20 20 20
1.2024506330490112 1.493401288986206 3.3915934562683105 42 42 42
1.2845814228057861 0.8789793848991394 3.623183488845825 63 63 63
1.2049615383148193 1.3212071657180786 3.376810312271118 87 87 87
1.2958067655563354 0.8890197277069092 3.608584403991699 35 35 35
1.200688362121582 1.3952950239181519 3.3123021125793457 57 57 57
1.2170201539993286 1.0208146572113037 3.3743696212768555 118 118 118
1.3023170232772827 0.8729425668716431 3.596493721008301 55 55 55
1.218318223953247 1.487684965133667 3.3633055686950684 80 80 80
1.2338087558746338 1.1178302764892578 3.400942325592041 89 89 89
1.222684383392334 1.0337976217269897 3.3394131660461426 76 76 76
1.5590044260025024 -0.3752964735031128 4.234323024749756 83 83 83
1.2492691278457642 1.5595958232879639 3.38690185546875 20 20 20
1.2376264333724976 1.3936012983322144 3.349217414855957 42 42 42
1.343447208404541 0.8377055525779724 3.6413755416870117 105 105 105
1.243786334991455 1.5303705930709839 3.3652827739715576 24 24 24
1.2322293519973755 1.504056692123413 3.3440945148468018 14 14 14
1.4293720722198486 0.6866264343261719 3.8605756759643555 135 135 135
1.2686362266540527 1.0019710063934326 3.424044370651245 104 104 104
1.3848716020584106 -0.7662339210510254 3.7259294986724854 81 81 81
1.2359397411346436 1.3401271104812622 3.3211729526519775 30 30 30
1.3116804361343384 0.9896977543830872 3.516818046569824 107 107 107
1.247697114944458 1.0239592790603638 3.322542667388916 112 112 112
1.4464836120605469 0.6654313802719116 3.849402904510498 93 93 93
1.4496315717697144 0.6961895227432251 3.833794116973877 83 83 83
1.2610572576522827 1.2263399362564087 3.303407907485962 97 97 97
1.411668062210083 -0.7339543104171753 3.7193222045898438 68 68 68
1.3546581268310547 0.888352632522583 3.5411317348480225 45 45 45
1.283409833908081 1.1170216798782349 3.342771530151367 98 98 98
1.3555151224136353 0.95406174659729 3.50226092338562 119 119 119
1.2901307344436646 1.6380503177642822 3.31680965423584 43 43 43
1.2838245630264282 1.4741555452346802 3.2886805534362793 38 38 38
1.292761206626892 1.2337250709533691 3.294628381729126 105 105 105
1.2906697988510132 1.2293223142623901 3.2874035835266113 106 106 106
1.4405405521392822 -0.7726453542709351 3.6657283306121826 85 85 85
1.294856309890747 1.3457670211791992 3.276402235031128 92 92 92
1.307637333869934 1.49032461643219 3.2829723358154297 53 53 53
1.4778409004211426 0.8220506906509399 3.734137773513794 126 126 126
1.4778409004211426 0.8220506906509399 3.734137773513794 126 126 126
1.4310827255249023 0.8618605136871338 3.6132256984710693 67 67 67
1.404139518737793 0.9670217037200928 3.5211431980133057 26 26 26
1.4041401147842407 0.9670228958129883 3.521144151687622 26 26 26
1.5002316236495972 0.670177698135376 3.7804555892944336 72 72 72
1.5100483894348145 0.8602811694145203 3.819216251373291 29 29 29
1.304517149925232 1.4541606903076172 3.261186361312866 60 60 60
1.473166823387146 0.8560873866081238 3.6765992641448975 116 116 116
1.4657493829727173 -0.748462438583374 3.646890163421631 71 71 71
1.511476993560791 0.8159366846084595 3.741609811782837 57 57 57
1.5182558298110962 0.7127978801727295 3.7589406967163086 72 72 72
1.5042004585266113 0.8246141672134399 3.7153995037078857 84 84 84
1.7881227731704712 -0.6726189851760864 4.372849941253662 96 96 96
1.5394868850708008 0.677490770816803 3.7326133251190186 72 72 72
1.3948646783828735 -0.7821901440620422 3.379877805709839 125 125 125
1.3484313488006592 1.3857064247131348 3.2501699924468994 75 75 75
1.8196595907211304 -0.5060420036315918 4.375565528869629 147 147 147
1.827790379524231 -0.5554314255714417 4.38867712020874 127 127 127
1.5595561265945435 0.668215811252594 3.7441091537475586 137 137 137
1.4405279159545898 0.9053022265434265 3.4364511966705322 47 47 47
1.562934160232544 0.7274494171142578 3.729567050933838 67 67 67
1.3597931861877441 1.4505943059921265 3.196300745010376 67 67 67
1.5405224561691284 -0.7652330994606018 3.669617176055908 101 101 101
1.352279543876648 1.2075077295303345 3.1918716430664062 86 86 86
1.3595327138900757 1.4498921632766724 3.1948907375335693 67 67 67
1.4768145084381104 1.007097601890564 3.434359073638916 84 84 84
1.5269807577133179 0.8820482492446899 3.5119364261627197 66 66 66
1.553331732749939 -0.7617346048355103 3.552506923675537 120 120 120
1.493138313293457 0.9447270035743713 3.386054515838623 60 60 60
1.5958547592163086 0.7103415131568909 3.6122384071350098 82 82 82
1.470668911933899 1.0316177606582642 3.317809581756592 107 107 107
1.563023567199707 -0.7428598999977112 3.5287225246429443 170 170 170
1.4402823448181152 -1.4922254085540771 3.2237818241119385 71 71 71
1.501254677772522 0.9184284210205078 3.36962628364563 52 52 52
1.5590248107910156 0.9284732937812805 3.4881770610809326 86 86 86
1.5154961347579956 0.9532365798950195 3.366340398788452 52 52 52
1.459645390510559 1.1711148023605347 3.11706280708313 75 75 75
-0.5876635313034058 0.9073557257652283 4.839292526245117 97 97 97
-0.36925485730171204 -1.9066894054412842 4.626905918121338 137 137 137
1.0930533409118652 0.8004794120788574 3.8849637508392334 16 16 16
1.0931099653244019 0.8005312085151672 3.8851497173309326 16 16 16
0.5805537700653076 1.2258139848709106 4.1893768310546875 162 162 162
-0.8688389658927917 0.7151708006858826 4.683072090148926 4 4 4
1.4811596870422363 -0.7366938591003418 3.6636881828308105 141 141 141
1.4216629266738892 -0.7728902101516724 3.6381921768188477 89 89 89
-0.3879760503768921 -0.8240034580230713 4.81127405166626 60 60 60
-0.61503666639328 0.31507766246795654 4.800345420837402 197 197 197
1.294886589050293 -0.7714383602142334 3.8278968334198 194 194 194
1.2790888547897339 -0.7764319181442261 3.848568916320801 216 216 216
0.9960632920265198 -0.4893037974834442 3.7405693531036377 110 110 110
-0.6243564486503601 0.06551727652549744 4.718283176422119 30 30 30
1.2634650468826294 0.5944281220436096 3.9912185668945312 137 137 137
-0.3879322409629822 -0.823974072933197 4.811112403869629 60 60 60
-1.333929419517517 0.7693153619766235 4.340429306030273 20 20 20
-0.8177692294120789 -1.250876545906067 4.378309726715088 178 178 178
1.410821795463562 0.6402015686035156 4.041543960571289 91 91 91
-1.4667155742645264 0.98813396692276 4.2969207763671875 159 159 159
1.193955421447754 -0.7905765175819397 3.8564486503601074 169 169 169
1.2482388019561768 0.5989810824394226 4.065939426422119 104 104 104
-0.7245266437530518 0.2819862961769104 4.709784507751465 162 162 162
1.4093561172485352 0.6265879273414612 3.899505853652954 34 34 34
1.4685449600219727 0.6530962586402893 3.833254814147949 72 72 72
-1.4350932836532593 0.9783930778503418 4.293488502502441 116 116 116
-0.37778106331825256 0.6447099447250366 4.989304542541504 90 90 90
0.7621020078659058 0.8538991212844849 4.268863201141357 135 135 135
-1.3757963180541992 1.2061601877212524 4.421545028686523 33 33 33
-0.35006681084632874 -2.1125218868255615 4.646101951599121 28 28 28
0.552631676197052 0.9442902207374573 4.155145168304443 193 193 193
0.9057819843292236 1.5498195886611938 3.8300278186798096 81 81 81
-1.3559446334838867 1.6164792776107788 4.468418121337891 20 20 20
1.25066339969635 0.5993898510932922 4.074740409851074 89 89 89
-1.375815987586975 1.2061737775802612 4.421610355377197 33 33 33
-1.1220842599868774 -0.095408596098423 4.352283477783203 85 85 85
1.2377409934997559 0.5916202664375305 4.1535186767578125 78 78 78
1.0076313018798828 -0.4697791337966919 3.822122812271118 139 139 139
-0.594842255115509 1.315234899520874 4.953628063201904 55 55 55
1.4913641214370728 0.8242612481117249 3.743678092956543 46 46 46
-1.4533923864364624 -0.49685290455818176 4.071781158447266 20 20 20
1.4586983919143677 -0.7547098994255066 3.6677422523498535 58 58 58
-1.4503648281097412 -0.06335492432117462 4.102851390838623 90 90 90
-1.3726325035095215 0.3521825969219208 4.257410049438477 147 147 147
-1.435697317123413 0.5692760944366455 4.2325029373168945 34 34 34
0.9842661619186401 -0.6940628290176392 3.7907023429870605 149 149 149
-1.1259889602661133 -0.785112738609314 4.2618255615234375 25 25 25
-1.3726165294647217 0.35217195749282837 4.257369041442871 147 147 147
-0.6299349069595337 0.28800955414772034 4.781879425048828 158 158 158
-0.6356989741325378 -0.38525137305259705 4.652902126312256 26 26 26
0.9833810925483704 0.7862505316734314 3.977513074874878 114 114 114
0.878250777721405 0.7484999299049377 4.120174407958984 144 144 144
-1.3481444120407104 1.416203498840332 4.426562309265137 22 22 22
-1.443747639656067 -0.7601136565208435 4.0218586921691895 46 46 46
-0.3817434310913086 0.6718782782554626 4.996755123138428 8 8 8
1.5046826601028442 -0.7467477321624756 3.584587812423706 134 134 134
-1.0991592407226562 0.7674829959869385 4.539670944213867 184 184 184
1.0032049417495728 -0.5801042318344116 3.8105099201202393 141 141 141
1.2185025215148926 0.518984317779541 4.101406574249268 75 75 75
0.8988635540008545 0.8260976076126099 4.115771293640137 94 94 94
-1.134905457496643 0.10199550539255142 4.398899078369141 74 74 74
1.5118931531906128 -0.752143383026123 3.611441135406494 173 173 173
0.9039583206176758 0.7176684141159058 4.026931285858154 82 82 82
-1.455364465713501 0.3695825934410095 4.214437007904053 34 34 34
1.2305973768234253 -0.7463317513465881 3.8931760787963867 142 142 142
1.0076137781143188 -0.7430378198623657 3.8008575439453125 185 185 185
0.29939788579940796 1.1444807052612305 4.534063816070557 63 63 63
1.413023829460144 -0.7646691799163818 3.6019320487976074 85 85 85
-1.3377805948257446 0.7721593379974365 4.325271129608154 86 86 86
-1.3179359436035156 0.562242865562439 4.280060291290283 137 137 137
-1.4459917545318604 0.1360432207584381 4.167165279388428 126 126 126
0.9813764095306396 -0.7250243425369263 3.7011513710021973 167 167 167
-0.6352896690368652 0.4735353887081146 4.797984600067139 32 32 32
1.0502426624298096 -0.8489054441452026 3.763145923614502 72 72 72
-1.449172854423523 0.7983949184417725 4.27757453918457 37 37 37
-1.142069935798645 0.07231661677360535 4.387016773223877 13 13 13
-1.4514142274856567 -0.31179216504096985 4.081059455871582 61 61 61
-0.6353068947792053 0.4735557734966278 4.7981133460998535 32 32 32
1.4968271255493164 0.6540982723236084 3.7835638523101807 75 75 75
1.2837172746658325 0.5769827365875244 4.120793342590332 161 161 161
0.8601924180984497 1.6589888334274292 3.859529972076416 84 84 84
-1.3818106651306152 1.84891676902771 4.4689106941223145 104 104 104
0.44833359122276306 0.8538932800292969 4.295085430145264 94 94 94
-1.3768668174743652 1.8491034507751465 4.473451614379883 96 96 96
0.9057812094688416 1.5498175621032715 3.830024003982544 81 81 81
-0.609717071056366 -1.2390313148498535 4.550203323364258 70 70 70
-0.4159016013145447 -1.0317236185073853 4.720858573913574 158 158 158
-0.5070415735244751 0.684074342250824 4.860109806060791 159 159 159
-0.3150613307952881 0.5087937116622925 5.10994291305542 128 128 128
-0.4388408660888672 -2.08258056640625 4.535820960998535 112 112 112
-1.2466812133789062 -0.5456545352935791 4.20150899887085 55 55 55
-0.634395956993103 -0.8102205991744995 4.597512245178223 34 34 34
1.516066551208496 0.5873838067054749 4.138721466064453 196 196 196
1.2412561178207397 0.8090735673904419 3.881610155105591 178 178 178
0.45398661494255066 1.4087148904800415 4.368767738342285 12 12 12
-0.8585017919540405 -0.5734742283821106 4.448913097381592 56 56 56
1.503515601158142 -0.7438779473304749 3.6308274269104004 53 53 53
1.218411922454834 -0.7772354483604431 3.7942748069763184 235 235 235
-0.38460052013397217 0.6529402732849121 5.0185465812683105 83 83 83
-0.8536585569381714 1.5627084970474243 4.779928207397461 81 81 81
1.0067641735076904 -1.2679630517959595 3.709965229034424 103 103 103
-0.43885645270347595 -2.0825982093811035 4.535867214202881 112 112 112
-0.3710368573665619 -0.17613615095615387 4.896028995513916 109 109 109
-0.8692165613174438 -0.1504019796848297 4.540640830993652 57 57 57
-0.3815138041973114 0.49124687910079956 4.984390735626221 144 144 144
-1.4344422817230225 -1.1823527812957764 3.97780704498291 80 80 80
-0.602035403251648 0.34263473749160767 4.700098514556885 123 123 123
-1.4586551189422607 0.5535860657691956 4.223787784576416 124 124 124
-1.44594407081604 1.4239089488983154 4.366427421569824 2 2 2
-0.14241118729114532 -1.2687362432479858 4.889720439910889 46 46 46
-0.8479167222976685 1.5640279054641724 4.843911647796631 20 20 20
-1.0987882614135742 0.3611886501312256 4.437119960784912 230 230 230
1.2313098907470703 -0.3413904011249542 3.995781660079956 38 38 38
-1.3804738521575928 -0.29522231221199036 4.238564968109131 136 136 136
-0.5374144315719604 0.4710843861103058 4.825632572174072 105 105 105
-0.8586981296539307 -0.12366540729999542 4.542027473449707 152 152 152
1.0018982887268066 -0.9588152170181274 3.743130922317505 132 132 132
-0.644999623298645 0.7016022801399231 4.827881813049316 25 25 25
0.44833219051361084 0.8538990616798401 4.295106410980225 94 94 94
-0.41587796807289124 -1.0316543579101562 4.720524787902832 158 158 158
0.3606392443180084 1.1389508247375488 4.435025215148926 25 25 25
-0.4247303903102875 -1.0525285005569458 4.820000648498535 168 168 168
-0.14243485033512115 -1.268724799156189 4.889630317687988 46 46 46
0.9931064248085022 -0.5668032765388489 3.80623459815979 153 153 153
-0.8722739815711975 -1.8433033227920532 4.2545671463012695 78 78 78
-1.231333613395691 0.7544897198677063 4.429812431335449 16 16 16
1.1446318626403809 0.689143717288971 4.135825157165527 68 68 68
-0.3844400644302368 1.0836700201034546 5.063992023468018 15 15 15
-0.4320501983165741 -0.37861281633377075 4.808499336242676 111 111 111
-0.5458250045776367 0.8314487934112549 4.902067184448242 111 111 111
-0.3575300872325897 0.5808324217796326 5.0276780128479 158 158 158
-0.535423994064331 0.47042369842529297 4.809040069580078 79 79 79
1.1931556463241577 0.8542869091033936 3.7057909965515137 117 117 117
1.1347668170928955 0.8803312182426453 3.8237454891204834 128 128 128
-0.8636261820793152 0.6185593008995056 4.659870624542236 19 19 19
-1.4587582349777222 2.1067073345184326 4.479483604431152 19 19 19
-1.3742426633834839 0.3512052297592163 4.261885166168213 170 170 170
-1.0851280689239502 0.7618055939674377 4.510228633880615 178 178 178
0.9426326155662537 0.7131973505020142 4.010149002075195 148 148 148
-0.35478538274765015 0.4646419584751129 4.963829517364502 180 180 180
1.0745465755462646 1.5799624919891357 3.5964579582214355 25 25 25
-0.3784097135066986 0.6684090495109558 4.957470417022705 100 100 100
1.7452536821365356 0.3959658443927765 4.407444953918457 140 140 140
-1.4434696435928345 -1.1834895610809326 3.9448442459106445 108 108 108
0.24264225363731384 1.12070631980896 4.581483840942383 4 4 4
-1.115010380744934 0.5328027009963989 4.471363544464111 13 13 13
-0.8861328959465027 -0.1514769047498703 4.629467010498047 64 64 64
-1.450466513633728 -0.29645925760269165 4.1165385246276855 108 108 108
0.2994108200073242 1.1444305181503296 4.533924579620361 63 63 63
-1.3640999794006348 1.8624516725540161 4.493712425231934 24 24 24
-1.3679943084716797 1.8379563093185425 4.444118022918701 112 112 112
-1.4239344596862793 0.3452533483505249 4.287661552429199 84 84 84
1.2755053043365479 0.6141183972358704 4.1520771980285645 155 155 155
1.2983335256576538 0.6093378067016602 4.103244304656982 54 54 54
-1.4065818786621094 0.3300386369228363 4.222687721252441 26 26 26
0.6408233642578125 1.6941465139389038 4.172259330749512 10 10 10
1.0008653402328491 -0.7575007677078247 3.7766361236572266 146 146 146
-0.8390702605247498 0.7074492573738098 4.653406620025635 24 24 24
1.3911151885986328 0.6163463592529297 3.8516907691955566 117 117 117
0.3858375549316406 1.1793997287750244 4.493749141693115 34 34 34
-1.4533936977386475 -0.4968539774417877 4.071784019470215 20 20 20
-0.61981600522995 -1.8438961505889893 4.457021236419678 61 61 61
-0.7059646248817444 -2.3103907108306885 4.259525299072266 105 105 105
-1.3580187559127808 -0.095859095454216 4.2216925621032715 75 75 75
-0.9560542106628418 0.3088838756084442 4.56221342086792 92 92 92
1.3746479749679565 0.6243683695793152 3.937206506729126 106 106 106
-0.8830796480178833 0.2966269254684448 4.629406452178955 68 68 68
0.8714956045150757 0.7625570893287659 4.160233974456787 38 38 38
0.5772398114204407 1.6412910223007202 4.161423206329346 61 61 61
-0.5948387384414673 1.3152285814285278 4.953615188598633 55 55 55
0.8219438791275024 0.26836782693862915 4.121531963348389 131 131 131
-0.5948395133018494 1.3152306079864502 4.953618049621582 55 55 55
0.9960690140724182 -0.48930859565734863 3.7405946254730225 110 110 110
-0.3670574724674225 -1.892587661743164 4.589181900024414 132 132 132
-1.1215639114379883 0.7504236102104187 4.537135124206543 41 41 41
-0.8830378651618958 0.29661262035369873 4.629214763641357 68 68 68
1.1266603469848633 0.7011355757713318 4.148193359375 99 99 99
1.4685379266738892 0.6530951857566833 3.8332417011260986 72 72 72
1.4041376113891602 0.9670111536979675 3.5211308002471924 26 26 26
1.1158909797668457 0.7100369334220886 4.101288795471191 110 110 110
-1.3758071660995483 1.2061671018600464 4.421576976776123 33 33 33
1.2485095262527466 0.599263072013855 4.067669868469238 104 104 104
0.13064585626125336 -0.7694976925849915 4.870314598083496 167 167 167
-1.4344942569732666 -1.592431902885437 3.884793281555176 82 82 82
-0.8179520964622498 -1.2509820461273193 4.378734588623047 178 178 178
0.8945239782333374 0.7400739192962646 4.112895965576172 104 104 104
-1.3287804126739502 -1.0940539836883545 3.999967336654663 23 23 23
-1.4234139919281006 1.212782621383667 4.306647300720215 121 121 121
-0.6343968510627747 -0.8102214336395264 4.597517490386963 34 34 34
0.5805481672286987 1.2258121967315674 4.189324378967285 162 162 162
-0.5948361754417419 1.3152272701263428 4.953608512878418 55 55 55
0.8521867394447327 0.7643399834632874 4.18430233001709 99 99 99
-1.4494233131408691 -0.06333210319280624 4.100185394287109 90 90 90
-0.6075196862220764 0.9315792322158813 4.993381500244141 153 153 153
-1.3442561626434326 1.5985941886901855 4.355409622192383 71 71 71
-1.1348683834075928 0.10197171568870544 4.398809432983398 74 74 74
-0.635300874710083 0.47355082631111145 4.798079013824463 32 32 32
-1.4491758346557617 0.7983951568603516 4.277577877044678 37 37 37
-1.125988483428955 -0.7851186990737915 4.2618255615234375 25 25 25
-0.6162327527999878 0.4784964919090271 4.819789409637451 3 3 3
-0.6829632520675659 0.4845716059207916 4.765288352966309 70 70 70
-0.3881511390209198 -2.35390305519104 4.5059967041015625 74 74 74
-1.4241927862167358 -0.7470192909240723 3.9668922424316406 80 80 80
-1.5580110549926758 -0.060035720467567444 4.056663513183594 53 53 53
-1.4254690408706665 -0.04638567566871643 4.083522796630859 63 63 63
1.175439476966858 -0.7713567614555359 3.885923147201538 254 254 254
1.4811546802520752 -0.7366930246353149 3.6636886596679688 141 141 141
0.8988214135169983 0.826043963432312 4.115612506866455 94 94 94
0.8465657234191895 0.844687283039093 4.186849594116211 86 86 86
1.3135931491851807 -0.7826096415519714 3.826751947402954 176 176 176
1.512490153312683 -0.752374529838562 3.6137890815734863 173 173 173
1.3734863996505737 -0.7716900706291199 3.7314181327819824 158 158 158
-1.095133900642395 -1.3772050142288208 4.1056294441223145 62 62 62
1.5086859464645386 -0.7496889233589172 3.599514961242676 173 173 173
1.470847487449646 -0.7631849050521851 3.658925771713257 189 189 189
-0.8503140211105347 1.3709396123886108 4.805066108703613 17 17 17
1.089433193206787 -0.796068012714386 3.826633930206299 203 203 203
1.1790341138839722 -0.8275232911109924 3.9186904430389404 105 105 105
-1.4493906497955322 0.5577813386917114 4.221696376800537 10 10 10
-1.4636869430541992 0.5550856590270996 4.216327667236328 103 103 103
-0.38105490803718567 0.648993730545044 4.991508960723877 126 126 126
1.4163535833358765 -0.7678856253623962 3.6160776615142822 91 91 91
1.5105239152908325 -0.7681463956832886 3.5976979732513428 125 125 125
-1.445999026298523 0.13604234158992767 4.167179584503174 126 126 126
-1.434442162513733 -1.18235182762146 3.977806568145752 80 80 80
1.5103931427001953 0.859667181968689 3.821552276611328 23 23 23
-0.38629958033561707 -2.0618577003479004 4.588813781738281 10 10 10
0.9759818911552429 -0.7276809811592102 3.748892307281494 175 175 175
-1.4588367938995361 0.5539736747741699 4.224161624908447 124 124 124
0.24264971911907196 1.120667815208435 4.581394195556641 4 4 4
-0.6118515729904175 1.1364725828170776 4.931354999542236 1 1 1
-0.2095244824886322 0.6094510555267334 5.111324787139893 129 129 129
-0.8479287028312683 1.5640417337417603 4.84395170211792 20 20 20
-1.4350279569625854 -0.9369468092918396 3.972153425216675 112 112 112
-1.3481318950653076 1.4161937236785889 4.426536560058594 22 22 22
-1.3778188228607178 -0.9884912967681885 4.1247148513793945 45 45 45
-1.347989797592163 1.4160799980163574 4.4262776374816895 22 22 22
-0.7418949007987976 0.2822841703891754 4.70071268081665 36 36 36
1.1931564807891846 0.8542888760566711 3.7057926654815674 117 117 117
-0.8502346873283386 1.3709052801132202 4.8049187660217285 17 17 17
1.1932244300842285 0.8544284701347351 3.706206798553467 117 117 117
-1.1079251766204834 -0.7484495639801025 4.230617046356201 63 63 63
-0.1518523246049881 0.23098422586917877 4.924525737762451 121 121 121
-0.6382921934127808 0.8939447402954102 4.847752571105957 79 79 79
-1.3847054243087769 1.6323938369750977 4.427790641784668 134 134 134
-1.5126303434371948 -0.386109858751297 4.032285213470459 124 124 124
-0.6366271376609802 -0.5695757269859314 4.541965007781982 103 103 103
-1.3529772758483887 -0.11875218898057938 4.203246593475342 56 56 56
1.5542182922363281 0.66776043176651 3.7288055419921875 138 138 138
-1.0997624397277832 0.3603161573410034 4.438844680786133 222 222 222
-0.5625188946723938 1.108393669128418 4.917508125305176 3 3 3
-0.2611626982688904 -2.3676400184631348 4.4832763671875 80 80 80
-0.18572565913200378 0.6558790802955627 5.147470951080322 75 75 75
-0.8552259802818298 -0.12349555641412735 4.530704975128174 148 148 148
1.187837839126587 0.7885903716087341 3.848034620285034 117 117 117
-0.4388563930988312 -2.08260178565979 4.535869121551514 112 112 112
-0.43885329365730286 -2.082597255706787 4.535859107971191 112 112 112
1.2185121774673462 0.5189887881278992 4.101429462432861 75 75 75
-0.29471710324287415 -2.438295841217041 4.56199312210083 65 65 65
-1.094069004058838 1.6167564392089844 4.664708137512207 20 20 20
1.4097295999526978 -0.7615151405334473 3.6879074573516846 133 133 133
-1.1155292987823486 -1.611256718635559 4.11958646774292 89 89 89
1.0076134204864502 -0.7430371046066284 3.8008525371551514 185 185 185
-1.330031394958496 1.595785140991211 4.455881595611572 110 110 110
-0.6900691390037537 0.2884055972099304 4.6806321144104 159 159 159
1.5236274003982544 0.6616857647895813 3.7304816246032715 143 143 143
-0.15571977198123932 0.23758505284786224 5.052579879760742 131 131 131
-1.1353845596313477 -0.33493590354919434 4.311336994171143 33 33 33
-0.28733742237091064 -2.380518913269043 4.452483654022217 95 95 95
-1.1323577165603638 -1.1917786598205566 4.217446804046631 24 24 24
-0.3929218351840973 -1.2249902486801147 4.7174224853515625 127 127 127
-1.451444387435913 -0.31180164217948914 4.081155776977539 61 61 61
-0.6991554498672485 0.29618528485298157 4.709758758544922 191 191 191
-0.8600998520851135 -1.445297122001648 4.323667526245117 171 171 171
0.8601153492927551 1.6588383913040161 3.8591816425323486 84 84 84
-1.358018398284912 -0.0958651751279831 4.221689701080322 75 75 75
-0.6299314498901367 0.2880096435546875 4.78185510635376 158 158 158
-1.4492065906524658 0.7984145283699036 4.277631759643555 37 37 37
-1.4192190170288086 0.7817000150680542 4.189019203186035 57 57 57
0.8616511821746826 0.7729973793029785 4.150828838348389 149 149 149
-0.586178183555603 0.914714515209198 4.9235711097717285 143 143 143
-1.1339324712753296 0.34773677587509155 4.450663089752197 34 34 34
0.8281360268592834 -0.2869313955307007 4.053515911102295 233 233 233
-1.420779824256897 -0.7463993430137634 3.957602024078369 68 68 68
0.8812923431396484 0.7550578713417053 4.135107040405273 136 136 136
0.9794296026229858 -0.4179977774620056 3.8065202236175537 119 119 119
1.3810595273971558 -0.1891467273235321 4.1164350509643555 95 95 95
0.8945269584655762 0.7400758862495422 4.112911224365234 104 104 104
-1.1172209978103638 0.3398039937019348 4.445258617401123 171 171 171
-1.363999366760254 0.5692635178565979 4.338606357574463 67 67 67
-0.6118292212486267 1.1364614963531494 4.931273460388184 1 1 1
-1.4509741067886353 -0.29648101329803467 4.117321014404297 108 108 108
-1.3710447549819946 0.15214574337005615 4.225613594055176 136 136 136
1.1615623235702515 0.7269020676612854 4.1351447105407715 137 137 137
1.486289381980896 -0.7576887011528015 3.622983932495117 236 236 236
-1.1124992370605469 0.7672773003578186 4.505247116088867 66 66 66
-1.1215585470199585 0.7504209280014038 4.537112236022949 41 41 41
-0.6099783182144165 0.3019220232963562 4.7768635749816895 103 103 103
-1.428415298461914 -0.9630888104438782 4.009274005889893 26 26 26
-1.4478695392608643 -0.9406973719596863 3.991530656814575 109 109 109
-1.451424479484558 -0.31187310814857483 4.081057548522949 61 61 61
-0.5948399305343628 1.3152313232421875 4.953620433807373 55 55 55
-1.0951292514801025 -1.3772039413452148 4.105621337890625 62 62 62
-1.116554617881775 0.532414436340332 4.476865768432617 10 10 10
-1.375805139541626 1.2061660289764404 4.421579837799072 33 33 33
-0.7059386968612671 -2.310370922088623 4.259471893310547 105 105 105
-0.6352857947349548 0.4735374450683594 4.797962665557861 32 32 32
-1.4211996793746948 1.2107523679733276 4.30291748046875 121 121 121
0.9960685968399048 -0.4893069267272949 3.7405900955200195 110 110 110
-1.1348661184310913 0.10196724534034729 4.398810386657715 74 74 74
-0.6356987357139587 -0.3852541446685791 4.652921676635742 26 26 26
-1.348141074180603 1.416200876235962 4.426554203033447 22 22 22
-0.8618970513343811 0.5346654653549194 4.656152248382568 15 15 15
-0.6099109053611755 0.3130221962928772 4.77668571472168 178 178 178
-1.436343789100647 1.6422090530395508 4.42469596862793 24 24 24
-0.8830886483192444 0.29662853479385376 4.629428386688232 68 68 68
1.1790454387664795 -0.8275324106216431 3.918757677078247 105 105 105
-1.4533909559249878 -0.4968492090702057 4.07177734375 20 20 20
1.0876222848892212 -0.7918281555175781 3.812253952026367 203 203 203
-1.4274331331253052 -0.4893772304058075 3.9991350173950195 83 83 83
-0.8480507135391235 1.564142107963562 4.844234466552734 20 20 20
0.3862482011318207 1.1790006160736084 4.490968704223633 34 34 34
-0.6161485910415649 0.7065632939338684 4.865735054016113 102 102 102
1.2378894090652466 0.591776967048645 4.154438018798828 78 78 78
0.818368673324585 1.711978793144226 3.909694194793701 54 54 54
1.0745468139648438 1.5799641609191895 3.596461057662964 25 25 25
-0.8647886514663696 -1.4477787017822266 4.334615230560303 149 149 149
1.488012671470642 -0.7397890686988831 3.617516040802002 130 130 130
1.1756956577301025 -0.7766579389572144 3.8913137912750244 254 254 254
1.3723479509353638 0.9574955701828003 3.5112619400024414 39 39 39
1.275500774383545 0.6141125559806824 4.152050495147705 155 155 155
1.2790863513946533 -0.7764242887496948 3.8485939502716064 216 216 216
-0.3848567306995392 -1.9395179748535156 4.601233005523682 24 24 24
1.0517370700836182 -0.8521284461021423 3.777280330657959 74 74 74
-0.6545767784118652 0.043165188282728195 4.711772441864014 122 122 122
-0.6829322576522827 0.48455724120140076 4.765196800231934 70 70 70
-0.6143016815185547 0.4779450595378876 4.810986518859863 14 14 14
-1.4353867769241333 -1.36939537525177 3.928577184677124 80 80 80
0.5805503726005554 1.2258164882659912 4.1893486976623535 162 162 162
-1.4482965469360352 -0.06330675631761551 4.0969929695129395 90 90 90
-1.1169668436050415 -0.7554115056991577 4.271204471588135 95 95 95
-0.6546388864517212 -0.3851637542247772 4.638578414916992 115 115 115
-1.4459127187728882 0.13603730499744415 4.167013168334961 126 126 126
