ply
format ascii 1.0
element vertex 718
property float x
property float y
property float z
property uchar red
property uchar green
property uchar blue
end_header
-1.5363718271255493 3.437361001968384 5.499928951263428 60 60 60
-1.5363718271255493 3.437361001968384 5.499928951263428 60 60 60
-2.1837470531463623 2.529597520828247 7.937342643737793 20 20 20
-2.15706467628479 1.6095573902130127 7.7851409912109375 121 121 121
-2.3424105644226074 -2.336876630783081 8.459111213684082 53 53 53
-2.105689287185669 -2.3617546558380127 7.6472320556640625 81 81 81
-2.105689287185669 -2.3617546558380127 7.6472320556640625 81 81 81
-2.1595458984375 0.738707959651947 7.855479717254639 105 105 105
-2.133889675140381 1.3788107633590698 7.771214008331299 38 38 38
-2.1833314895629883 3.09564471244812 7.886706829071045 123 123 123
-2.019928455352783 -2.6209144592285156 7.374288082122803 115 115 115
-2.0122365951538086 -2.7377588748931885 7.354788780212402 122 122 122
-2.224069595336914 -1.0909501314163208 8.136835098266602 152 152 152
-1.718734860420227 3.27524471282959 6.283999919891357 60 60 60
-2.127023220062256 1.481020450592041 7.77905797958374 85 85 85
-2.007685422897339 -2.8249709606170654 7.342921733856201 93 93 93
-1.444654941558838 3.4600491523742676 5.2899861335754395 132 132 132
-1.974606990814209 -1.9437637329101562 7.192460536956787 119 119 119
-2.1421852111816406 2.8414433002471924 7.9018731117248535 56 56 56
-2.1523141860961914 3.0673649311065674 7.946495056152344 42 42 42
-2.1453208923339844 2.720529794692993 7.929019927978516 58 58 58
-2.1552340984344482 2.8745806217193604 7.9916157722473145 65 65 65
-2.1374480724334717 2.790963649749756 7.93298864364624 63 63 63
-2.116405487060547 2.228314161300659 7.864151477813721 101 101 101
-2.087970733642578 1.028393030166626 7.770423889160156 90 90 90
-2.0858044624328613 1.1559644937515259 7.767491340637207 59 59 59
-2.0129752159118652 -1.6901599168777466 7.517916679382324 145 145 145
-1.9724887609481812 -2.6840932369232178 7.450923442840576 98 98 98
-2.1002256870269775 2.229599714279175 7.922801494598389 45 45 45
-1.9498246908187866 -2.82201886177063 7.384839057922363 95 95 95
-2.2518153190612793 -1.5384002923965454 8.531840324401855 54 54 54
-2.134913206100464 2.3353168964385986 8.116047859191895 15 15 15
-2.3929338455200195 0.35225963592529297 9.20372200012207 32 32 32
-2.0271244049072266 1.7019323110580444 7.796367645263672 117 117 117
-2.0271244049072266 1.7019323110580444 7.796367645263672 117 117 117
-2.039355516433716 2.2138614654541016 7.855214595794678 112 112 112
-2.0042545795440674 0.8454779386520386 7.751761436462402 59 59 59
-2.032711982727051 -1.0079891681671143 7.9502410888671875 29 29 29
-2.0013911724090576 1.085510015487671 7.7679877281188965 56 56 56
-2.064807653427124 2.974144458770752 7.976496696472168 100 100 100
-2.0060319900512695 1.7482353448867798 7.814566135406494 120 120 120
-1.9030300378799438 -2.739896774291992 7.417021751403809 134 134 134
-2.368743419647217 0.17626257240772247 9.211777687072754 176 176 176
-2.0071887969970703 1.875178575515747 7.880529880523682 125 125 125
-1.592890977859497 3.3504137992858887 6.251523971557617 64 64 64
-1.592890977859497 3.3504137992858887 6.251523971557617 64 64 64
-1.989425539970398 1.211558222770691 7.818017482757568 38 38 38
-1.9877769947052002 -1.2304325103759766 7.918337821960449 168 168 168
-1.8544540405273438 3.1392595767974854 7.36341667175293 54 54 54
-1.8777031898498535 -2.5914268493652344 7.41010046005249 117 117 117
-1.952027440071106 1.0375726222991943 7.738729476928711 57 57 57
-1.9333218336105347 3.195638656616211 7.668343544006348 86 86 86
-1.9771897792816162 1.4139155149459839 7.8474249839782715 40 40 40
-2.0003671646118164 3.033949851989746 7.978298664093018 53 53 53
-1.9690954685211182 2.5427932739257812 8.003887176513672 54 54 54
-1.959114670753479 2.3240344524383545 7.943582057952881 59 59 59
-1.9278274774551392 1.2668062448501587 7.820820331573486 36 36 36
-2.066035270690918 3.3414316177368164 8.39877986907959 58 58 58
-1.4380645751953125 3.3907721042633057 5.856802463531494 64 64 64
-1.9402449131011963 2.457813024520874 7.9032464027404785 48 48 48
-1.9346554279327393 1.3722343444824219 7.889644145965576 12 12 12
-1.7499326467514038 -3.134638547897339 7.2655158042907715 83 83 83
-1.4792977571487427 3.354104995727539 6.087795734405518 129 129 129
-2.2031524181365967 -0.401056170463562 9.181051254272461 117 117 117
-1.9502708911895752 1.8251591920852661 7.991883754730225 38 38 38
-1.7952361106872559 -3.093242883682251 7.399017810821533 98 98 98
-1.9241256713867188 2.5946052074432373 7.947426795959473 68 68 68
-1.3838547468185425 3.430767297744751 5.645750522613525 150 150 150
-1.9282925128936768 1.009200930595398 7.9721360206604 62 62 62
-1.9365849494934082 2.279609441757202 7.933723449707031 35 35 35
-1.8903340101242065 1.2668542861938477 7.821065425872803 41 41 41
-1.801711082458496 0.8635905385017395 7.567627906799316 49 49 49
-1.8920623064041138 1.7358736991882324 7.853072166442871 148 148 148
-1.7892802953720093 -3.7003173828125 7.490691661834717 65 65 65
-1.9287526607513428 -1.1520620584487915 7.994856834411621 39 39 39
-1.9268975257873535 2.6729719638824463 8.053860664367676 79 79 79
-1.8886748552322388 1.632603406906128 7.873836040496826 110 110 110
-1.9755785465240479 0.44793078303337097 8.299686431884766 78 78 78
-1.9040309190750122 2.933187246322632 8.00368881225586 66 66 66
-1.8574516773223877 1.264496088027954 7.828494071960449 57 57 57
-1.7503747940063477 3.1816518306732178 7.3777995109558105 58 58 58
-1.7892370223999023 -3.700258255004883 7.4905781745910645 65 65 65
-1.2295150756835938 3.4501607418060303 5.221477031707764 117 117 117
-1.8517934083938599 1.693206548690796 7.9139084815979 102 102 102
-1.7470457553863525 -3.3759281635284424 7.465750217437744 69 69 69
-1.8348463773727417 2.1868093013763428 7.8835768699646 113 113 113
-1.7934285402297974 1.1127418279647827 7.744955539703369 76 76 76
-1.8170255422592163 2.1178743839263916 7.898157119750977 107 107 107
-1.8436163663864136 2.716667652130127 7.992098331451416 59 59 59
-1.8064621686935425 2.2346341609954834 7.857656478881836 8 8 8
-1.8391350507736206 2.7783761024475098 7.988527774810791 56 56 56
-1.820576548576355 2.4162330627441406 7.913596153259277 59 59 59
-1.820576548576355 2.4162330627441406 7.913596153259277 59 59 59
-1.8418104648590088 -2.4028167724609375 7.966899871826172 53 53 53
-1.8105257749557495 2.176994800567627 7.93234920501709 119 119 119
-1.6792253255844116 -1.2578433752059937 7.3765692710876465 61 61 61
-1.6792253255844116 -1.2578433752059937 7.3765692710876465 61 61 61
-1.7738473415374756 1.2754772901535034 7.798829555511475 37 37 37
-1.3109281063079834 3.413421630859375 5.730806350708008 145 145 145
-1.8108863830566406 0.7252814173698425 8.041524887084961 120 120 120
-1.7866214513778687 -1.4920003414154053 7.935205459594727 77 77 77
-1.6677604913711548 -2.8471760749816895 7.4420952796936035 99 99 99
-1.7652547359466553 -1.9262155294418335 7.890591621398926 71 71 71
-1.8548927307128906 0.4043186604976654 8.29498291015625 71 71 71
-1.7808585166931152 2.0303406715393066 7.952327728271484 27 27 27
-1.7520877122879028 0.9603899717330933 7.866861343383789 56 56 56
-1.243924856185913 3.427544593811035 5.6038336753845215 57 57 57
-1.7523610591888428 1.9257336854934692 7.9026780128479 103 103 103
-1.6516458988189697 -2.7957162857055664 7.459562301635742 107 107 107
-1.631718635559082 -2.556436061859131 7.380584716796875 109 109 109
-1.5974979400634766 -3.507185220718384 7.250208854675293 71 71 71
-1.7258328199386597 1.2157680988311768 7.833992958068848 61 61 61
-1.7438136339187622 -1.2932952642440796 7.944779396057129 44 44 44
-1.402066946029663 3.28969144821167 6.387777805328369 104 104 104
-1.744837999343872 -1.1489415168762207 7.999290943145752 48 48 48
-1.728843331336975 -2.2482621669769287 7.903611660003662 63 63 63
-1.728843331336975 -2.2482621669769287 7.903611660003662 63 63 63
-1.7026389837265015 -2.306129217147827 7.802816390991211 25 25 25
-1.2055543661117554 3.3951852321624756 5.556029319763184 119 119 119
-1.7354270219802856 2.8622994422912598 8.007357597351074 36 36 36
-1.7224825620651245 -1.2735848426818848 7.958269119262695 80 80 80
-1.6030604839324951 -3.1851820945739746 7.427041053771973 88 88 88
-1.6030604839324951 -3.1851820945739746 7.427041053771973 88 88 88
-1.7034368515014648 2.316495180130005 7.951190948486328 106 106 106
-1.798531174659729 2.8946337699890137 8.259997367858887 51 51 51
-1.686236023902893 1.6719361543655396 7.888183116912842 121 121 121
-1.6468771696090698 -2.088650941848755 7.787359714508057 91 91 91
-1.6702710390090942 2.821460723876953 7.819979190826416 53 53 53
-1.6691114902496338 -1.2318323850631714 7.9017229080200195 151 151 151
-1.667513370513916 0.900438666343689 7.81443977355957 87 87 87
-1.2580572366714478 3.379528045654297 5.9275126457214355 58 58 58
-1.2580572366714478 3.379528045654297 5.9275126457214355 58 58 58
-1.7131754159927368 2.775282621383667 8.075868606567383 47 47 47
-1.5724587440490723 -3.6316699981689453 7.437486171722412 48 48 48
-1.5724587440490723 -3.6316699981689453 7.437486171722412 48 48 48
-1.6456642150878906 -2.0596394538879395 7.826963424682617 79 79 79
-1.6597506999969482 1.5044876337051392 7.902851104736328 49 49 49
-1.677817463874817 3.0430312156677246 8.068134307861328 47 47 47
-1.69607412815094 0.7031069397926331 8.15792465209961 121 121 121
-1.6347602605819702 1.624701976776123 7.898452281951904 98 98 98
-1.5277239084243774 -3.6512815952301025 7.472106456756592 50 50 50
-1.5176786184310913 -2.855881690979004 7.471501350402832 102 102 102
-1.1704530715942383 3.356025218963623 5.799525737762451 89 89 89
-1.1704530715942383 3.356025218963623 5.799525737762451 89 89 89
-1.6461830139160156 0.6256993412971497 8.118590354919434 61 61 61
-1.6544561386108398 3.091463327407837 8.061793327331543 70 70 70
-1.628506064414978 0.623624861240387 8.06574821472168 62 62 62
-1.4918118715286255 -3.655900001525879 7.395122528076172 73 73 73
-1.2475261688232422 3.352228879928589 6.189311981201172 63 63 63
-1.581713318824768 2.3385744094848633 7.873791217803955 105 105 105
-1.1287651062011719 3.409740924835205 5.674654006958008 124 124 124
-1.1287651062011719 3.409740924835205 5.674654006958008 124 124 124
-1.5658303499221802 1.901469349861145 7.890172004699707 126 126 126
-1.5658303499221802 1.901469349861145 7.890172004699707 126 126 126
-1.5925079584121704 2.5436956882476807 8.040188789367676 59 59 59
-1.5955040454864502 3.1168856620788574 8.05331039428711 61 61 61
-1.5709424018859863 1.528425693511963 7.938779830932617 82 82 82
-1.5709424018859863 1.528425693511963 7.938779830932617 82 82 82
-1.6015440225601196 1.1015002727508545 8.080805778503418 22 22 22
-1.1391568183898926 3.403207540512085 5.726600170135498 34 34 34
-1.5837832689285278 2.8507730960845947 8.071443557739258 52 52 52
-1.560727596282959 1.922298789024353 7.953481197357178 133 133 133
-1.1795164346694946 3.3699440956115723 6.032183647155762 127 127 127
-1.550804853439331 3.17673397064209 7.986293792724609 24 24 24
-1.1155614852905273 3.423489809036255 5.725395679473877 173 173 173
-1.5471028089523315 2.2114057540893555 8.002166748046875 117 117 117
-1.564430832862854 3.114635705947876 8.134196281433105 111 111 111
-1.545041561126709 3.129300594329834 8.036004066467285 64 64 64
-1.4738881587982178 0.869178056716919 7.7872538566589355 76 76 76
-1.4969104528427124 1.4617176055908203 7.93706750869751 41 41 41
-1.0706064701080322 3.4087557792663574 5.678283214569092 69 69 69
-1.3773229122161865 -3.5688910484313965 7.329634189605713 45 45 45
-1.4345430135726929 2.336888074874878 7.844418048858643 60 60 60
-1.4345430135726929 2.336888074874878 7.844418048858643 60 60 60
-1.471669316291809 1.5807819366455078 7.976478576660156 12 12 12
-1.4896798133850098 2.8770461082458496 8.090396881103516 77 77 77
-1.1066948175430298 3.3658125400543213 6.023897171020508 150 150 150
-1.4687892198562622 2.4463493824005127 8.043742179870605 114 114 114
-1.459061622619629 1.5837476253509521 8.004104614257812 20 20 20
-1.4565130472183228 2.302651882171631 8.017107963562012 90 90 90
-1.4253360033035278 1.7500872611999512 7.980795860290527 136 136 136
-1.0808535814285278 3.365553617477417 5.9454851150512695 53 53 53
-1.0808535814285278 3.365553617477417 5.9454851150512695 53 53 53
-1.0808535814285278 3.365553617477417 5.9454851150512695 53 53 53
-1.4404739141464233 2.593838691711426 8.078858375549316 81 81 81
-1.4382869005203247 2.881786346435547 8.069770812988281 45 45 45
-1.0002267360687256 3.4823083877563477 5.538822650909424 108 108 108
-1.0995856523513794 3.3341705799102783 6.268307685852051 53 53 53
-1.0995856523513794 3.3341705799102783 6.268307685852051 53 53 53
-1.1087597608566284 3.33078670501709 6.332158088684082 144 144 144
-1.4274016618728638 0.5719377398490906 8.156896591186523 67 67 67
-1.4252043962478638 0.6199973821640015 8.166961669921875 113 113 113
-1.4252043962478638 0.6199973821640015 8.166961669921875 113 113 113
-1.3873947858810425 1.6366212368011475 7.985562801361084 131 131 131
-1.4075576066970825 -0.45179280638694763 8.281529426574707 254 254 254
-0.9782188534736633 3.425614833831787 5.761363983154297 140 140 140
-1.4153226613998413 0.3828440010547638 8.391417503356934 253 253 253
-1.3440430164337158 1.9344186782836914 8.018797874450684 129 129 129
-1.3514904975891113 2.3416457176208496 8.098586082458496 105 105 105
-1.3439528942108154 2.4592010974884033 8.094822883605957 117 117 117
-1.3143489360809326 1.5974889993667603 7.997458457946777 60 60 60
-1.3344579935073853 2.6688292026519775 8.102643013000488 52 52 52
-1.3327621221542358 2.6684694290161133 8.097367286682129 47 47 47
-1.3319183588027954 1.6537034511566162 7.990842342376709 70 70 70
-1.3051140308380127 1.1884589195251465 7.966660022735596 37 37 37
-0.9791181683540344 3.424949884414673 6.005549430847168 91 91 91
-1.324318766593933 1.8204587697982788 8.122504234313965 34 34 34
-1.324318766593933 1.8204587697982788 8.122504234313965 34 34 34
-1.2107491493225098 -3.383136510848999 7.51740837097168 29 29 29
-1.2921050786972046 1.0448046922683716 8.0507173538208 49 49 49
-1.3113244771957397 3.1157538890838623 8.195603370666504 123 123 123
-1.2973519563674927 1.4928267002105713 7.999210357666016 127 127 127
-1.1872671842575073 -3.5257456302642822 7.445900917053223 58 58 58
-1.2835824489593506 2.2640228271484375 8.092498779296875 33 33 33
-1.2669622898101807 1.4537239074707031 8.014484405517578 37 37 37
-0.850965142250061 3.4914722442626953 5.389608383178711 85 85 85
-0.891456663608551 3.411301851272583 5.65424919128418 121 121 121
-1.2263034582138062 1.8538485765457153 8.012726783752441 99 99 99
-1.2356188297271729 1.3652217388153076 8.007981300354004 40 40 40
-0.9580749273300171 3.346729040145874 6.226970672607422 53 53 53
-1.271539568901062 -0.2445269227027893 8.291948318481445 203 203 203
-1.2311283349990845 2.369053363800049 8.091479301452637 109 109 109
-1.2210582494735718 2.332594156265259 8.10319709777832 114 114 114
-0.9432897567749023 3.349658966064453 6.303943157196045 83 83 83
-1.1888724565505981 1.2247090339660645 7.978438854217529 39 39 39
-1.1573303937911987 2.0656251907348633 7.9290289878845215 137 137 137
-1.1896750926971436 1.8990612030029297 8.101985931396484 48 48 48
-1.1896750926971436 1.8990612030029297 8.101985931396484 48 48 48
-0.9350879788398743 3.3182592391967773 6.370388031005859 118 118 118
-1.1786741018295288 2.171950101852417 8.089115142822266 41 41 41
-1.1701643466949463 1.6451246738433838 8.059572219848633 137 137 137
-1.1104601621627808 -3.0761003494262695 7.658896446228027 66 66 66
-1.0814934968948364 -3.319413423538208 7.499454975128174 80 80 80
-1.1615757942199707 3.102579116821289 8.068268775939941 62 62 62
-0.8519454002380371 3.3905539512634277 5.9551591873168945 159 159 159
-1.1450457572937012 1.900283932685852 8.021612167358398 50 50 50
-1.155235767364502 -1.9655935764312744 8.136555671691895 223 223 223
-1.083078145980835 -2.558755397796631 7.635889530181885 98 98 98
-1.1670751571655273 0.634562611579895 8.231706619262695 62 62 62
-1.155398964881897 0.2734682559967041 8.209324836730957 254 254 254
-1.1124240159988403 2.08632755279541 8.074882507324219 102 102 102
-0.8905581831932068 3.3238892555236816 6.367787837982178 64 64 64
-0.8905581831932068 3.3238892555236816 6.367787837982178 64 64 64
-0.9545890688896179 3.2483465671539307 6.847846031188965 54 54 54
-1.1170122623443604 3.1854681968688965 7.946791172027588 78 78 78
-0.7456879019737244 3.4427425861358643 5.447684288024902 94 94 94
-1.117300033569336 2.4779086112976074 8.176225662231445 30 30 30
-1.0966987609863281 1.5551835298538208 8.046831130981445 15 15 15
-1.138576626777649 3.0912322998046875 8.233965873718262 87 87 87
-1.0834014415740967 1.2792667150497437 8.05922794342041 49 49 49
-1.0145031213760376 -3.3599815368652344 7.627504348754883 65 65 65
-1.0050430297851562 3.197237730026245 7.563615798950195 59 59 59
-1.0595850944519043 1.1043975353240967 7.995555877685547 64 64 64
-1.0595850944519043 1.1043975353240967 7.995555877685547 64 64 64
-1.086536169052124 2.5068845748901367 8.155586242675781 17 17 17
-1.0865484476089478 2.5068912506103516 8.155630111694336 17 17 17
-1.0865484476089478 2.5068912506103516 8.155630111694336 17 17 17
-1.0586199760437012 1.187868356704712 8.033357620239258 52 52 52
-1.062988042831421 1.666570782661438 8.069209098815918 119 119 119
-1.0358455181121826 2.637263536453247 7.986902713775635 52 52 52
-0.7266775369644165 3.420475482940674 5.736993789672852 158 158 158
-1.0319159030914307 1.3430229425430298 8.069169998168945 93 93 93
-0.9865310788154602 0.9105057120323181 7.99408483505249 80 80 80
-1.0100324153900146 1.1315990686416626 8.098047256469727 72 72 72
-0.7381221652030945 3.3857688903808594 5.895520210266113 60 60 60
-0.6792683601379395 3.4406673908233643 5.497832775115967 83 83 83
-0.9467498064041138 2.9664981365203857 7.972419261932373 58 58 58
-0.9273086190223694 -2.772711753845215 7.619012355804443 104 104 104
-0.9697402715682983 1.442384123802185 8.078733444213867 39 39 39
-0.9191514849662781 -2.5276126861572266 7.661603927612305 104 104 104
-0.9682754874229431 1.519221305847168 8.074448585510254 31 31 31
-0.8990136384963989 -3.667325258255005 7.677257061004639 36 36 36
-0.9215410351753235 1.2823936939239502 8.070666313171387 52 52 52
-0.9314271807670593 1.635727047920227 8.12751293182373 67 67 67
-0.8586024045944214 -2.7743921279907227 7.667857646942139 106 106 106
-0.6453471779823303 3.3831779956817627 5.917503833770752 140 140 140
-0.6453471779823303 3.3831779956817627 5.917503833770752 140 140 140
-0.9010627269744873 0.9175222516059875 8.072356224060059 54 54 54
-0.6274306178092957 3.377042293548584 5.7887864112854 48 48 48
-0.8683722615242004 0.8370115756988525 7.911535263061523 63 63 63
-0.8347042202949524 -2.635685682296753 7.679358959197998 106 106 106
-0.655220091342926 3.351339101791382 6.096485614776611 86 86 86
-0.655220091342926 3.351339101791382 6.096485614776611 86 86 86
-0.8599645495414734 1.6554869413375854 8.109199523925781 98 98 98
-0.8612390756607056 1.5061852931976318 8.132912635803223 44 44 44
-0.8324143886566162 2.9867844581604004 7.886270046234131 53 53 53
-0.8293991684913635 1.6306625604629517 7.978503704071045 97 97 97
-0.8035683035850525 0.9752458333969116 8.007342338562012 69 69 69
-0.6099913120269775 3.3387844562530518 6.373927116394043 75 75 75
-0.7959590554237366 0.4030212461948395 8.597221374511719 159 159 159
-0.7372349500656128 1.096366047859192 8.024225234985352 52 52 52
-0.7273668646812439 2.254693031311035 8.025333404541016 116 116 116
-0.7234338521957397 2.3209517002105713 8.020371437072754 79 79 79
-0.6862284541130066 -2.7841098308563232 7.617115020751953 71 71 71
-0.6837698221206665 -2.637631893157959 7.698177814483643 77 77 77
-0.5223146677017212 3.394108295440674 5.963423728942871 65 65 65
-0.7135400772094727 1.7969999313354492 8.264411926269531 0 0 0
-0.7135400772094727 1.7969999313354492 8.264411926269531 0 0 0
-0.6866936683654785 1.539908528327942 8.164225578308105 67 67 67
-0.48064956068992615 3.4142255783081055 5.610709190368652 139 139 139
-0.6675843000411987 1.4978574514389038 8.15616512298584 112 112 112
-0.47273898124694824 3.4646553993225098 5.9354329109191895 47 47 47
-0.5859477519989014 1.0102757215499878 7.967423915863037 43 43 43
-0.5940988659858704 -2.905799150466919 7.725889682769775 79 79 79
-0.617813229560852 1.7007077932357788 8.16944694519043 98 98 98
-0.617813229560852 1.7007077932357788 8.16944694519043 98 98 98
-0.6165120601654053 1.824100375175476 8.165948867797852 120 120 120
-0.6401471495628357 1.7806241512298584 8.24620246887207 17 17 17
-0.5881507396697998 1.9984711408615112 8.209741592407227 7 7 7
-0.5469300150871277 -3.1111350059509277 7.700911998748779 65 65 65
-0.595058023929596 2.3868203163146973 8.240279197692871 85 85 85
-0.5361992716789246 2.7072246074676514 7.668248653411865 60 60 60
-0.5466030836105347 1.4706867933273315 8.162510871887207 104 104 104
-0.5417813658714294 1.711546540260315 8.209206581115723 118 118 118
-0.44634270668029785 3.3487637042999268 6.557043075561523 97 97 97
-0.5358884334564209 2.3702268600463867 8.218626022338867 127 127 127
-0.5232741236686707 0.8267983794212341 8.092780113220215 96 96 96
-0.4799406826496124 2.4170167446136475 7.674502849578857 140 140 140
-0.48232463002204895 2.739696979522705 7.755948543548584 54 54 54
-0.5018365383148193 1.3720922470092773 8.191035270690918 32 32 32
-0.37722858786582947 3.2787551879882812 6.455875396728516 48 48 48
-0.5441762208938599 0.17162764072418213 8.690498352050781 237 237 237
-0.44059011340141296 2.6622369289398193 7.540318489074707 47 47 47
-0.4671943783760071 2.3046164512634277 8.186656951904297 132 132 132
-0.4642731845378876 2.5090255737304688 8.208126068115234 112 112 112
-0.4099300801753998 -3.0038063526153564 7.746850967407227 57 57 57
-0.3940049707889557 2.5698959827423096 7.56668758392334 119 119 119
-0.40663209557533264 -3.4268174171447754 7.857059001922607 42 42 42
-0.4262242019176483 1.012199878692627 8.239928245544434 99 99 99
-0.4288141429424286 1.7314308881759644 8.306098937988281 52 52 52
-0.27856969833374023 3.402493715286255 5.736232280731201 120 120 120
-0.39609166979789734 1.3466066122055054 8.19270133972168 103 103 103
-0.3697499930858612 0.9401015639305115 8.134654998779297 68 68 68
-0.35247156023979187 -3.4082589149475098 7.71927547454834 47 47 47
-0.34487441182136536 1.369663953781128 8.06227970123291 38 38 38
-0.34487441182136536 1.369663953781128 8.06227970123291 38 38 38
-0.36228078603744507 1.0369598865509033 8.146376609802246 16 16 16
-0.3777424395084381 1.7641538381576538 8.271960258483887 81 81 81
-0.3563095033168793 1.216636061668396 8.163538932800293 81 81 81
-0.30180832743644714 3.2602763175964355 6.954874515533447 37 37 37
-0.3046239912509918 2.4092869758605957 7.561233043670654 70 70 70
-0.3242979645729065 1.8604648113250732 8.293704986572266 57 57 57
-0.3278680145740509 3.2553017139434814 7.764389991760254 123 123 123
-0.2833055555820465 3.175602912902832 7.487133026123047 53 53 53
-0.3028317391872406 2.2757461071014404 8.143152236938477 22 22 22
-0.28069913387298584 2.742753744125366 7.6076130867004395 14 14 14
-0.27341097593307495 2.5541341304779053 7.559891223907471 108 108 108
-0.300679087638855 0.4295215308666229 8.536020278930664 82 82 82
-0.2717357277870178 2.4730968475341797 8.315103530883789 44 44 44
-0.24847640097141266 1.830915093421936 8.290940284729004 79 79 79
-0.24426566064357758 0.6239264011383057 8.440751075744629 51 51 51
-0.19312714040279388 3.2999932765960693 6.698655605316162 85 85 85
-0.19197191298007965 3.2355051040649414 7.107879161834717 82 82 82
-0.19197191298007965 3.2355051040649414 7.107879161834717 82 82 82
-0.22671514749526978 0.9859054684638977 8.244266510009766 74 74 74
-0.20951902866363525 -3.1130881309509277 7.765084743499756 50 50 50
-0.1565288007259369 3.3932783603668213 5.843851566314697 149 149 149
-0.20380711555480957 -2.8816978931427 7.783799171447754 53 53 53
-0.2120436131954193 1.6144068241119385 8.284388542175293 63 63 63
-0.19875983893871307 -2.5950591564178467 7.922904014587402 69 69 69
-0.18773770332336426 0.935981810092926 8.245492935180664 70 70 70
-0.1936139613389969 0.7280768752098083 8.163999557495117 99 99 99
-0.18896543979644775 0.5354008078575134 8.44936466217041 33 33 33
-0.18476247787475586 -4.156615257263184 8.538782119750977 42 42 42
-0.16520997881889343 1.3428547382354736 8.258209228515625 86 86 86
-0.1525699943304062 2.2871031761169434 8.274163246154785 19 19 19
-0.102379210293293 -2.251189708709717 7.642366409301758 54 54 54
-0.11032857745885849 -2.425961494445801 8.235786437988281 32 32 32
-0.0921378806233406 3.455030679702759 5.767054557800293 121 121 121
-0.12427970767021179 0.6276224851608276 8.494697570800781 49 49 49
-0.11876258999109268 1.792718529701233 8.343564987182617 65 65 65
-0.0891396626830101 3.3088467121124268 6.538056373596191 97 97 97
-0.1268848478794098 1.0086305141448975 8.010977745056152 16 16 16
-0.09843703359365463 1.255562424659729 7.915482997894287 32 32 32
-0.09843703359365463 1.255562424659729 7.915482997894287 32 32 32
-0.0995023176074028 1.1345311403274536 8.268485069274902 48 48 48
-0.06714002043008804 3.258833408355713 7.030238151550293 80 80 80
-0.08114459365606308 1.9622023105621338 8.298141479492188 106 106 106
-0.07545547187328339 2.237712860107422 8.379596710205078 11 11 11
-0.07833211123943329 -1.9833511114120483 8.142672538757324 29 29 29
-0.07438664883375168 1.0127649307250977 8.0657320022583 7 7 7
-0.07438664883375168 1.0127649307250977 8.0657320022583 7 7 7
-0.06223025172948837 -3.1202332973480225 7.816558361053467 50 50 50
-0.04267943277955055 1.5968623161315918 8.326743125915527 46 46 46
-0.032663796097040176 -2.5575549602508545 7.859734535217285 54 54 54
-0.01972336880862713 3.3823130130767822 5.94296407699585 69 69 69
-0.026951681822538376 -3.18520188331604 8.057828903198242 61 61 61
-0.01921972446143627 1.1100844144821167 8.280678749084473 69 69 69
0.009894538670778275 0.27978089451789856 8.455690383911133 77 77 77
-0.017859777435660362 1.2974469661712646 8.317962646484375 4 4 4
-0.011679518967866898 3.0796356201171875 7.893052577972412 98 98 98
-0.01097014918923378 -3.460359811782837 7.783336639404297 29 29 29
0.009978730231523514 3.3816535472869873 5.967065811157227 106 106 106
0.016052860766649246 1.0137168169021606 8.2787446975708 82 82 82
0.021751323714852333 3.087048292160034 8.101219177246094 11 11 11
0.035412393510341644 -1.3773086071014404 8.221481323242188 12 12 12
0.04335332289338112 3.2913100719451904 6.120567798614502 93 93 93
0.05747152864933014 -0.3374512195587158 7.92153787612915 69 69 69
0.04630506411194801 1.3200145959854126 8.356075286865234 66 66 66
0.0895514264702797 -1.59213387966156 8.024948120117188 39 39 39
0.05145462974905968 3.392909049987793 5.642339706420898 97 97 97
0.10105972737073898 3.1004409790039062 7.932015419006348 81 81 81
0.14806495606899261 1.6747596263885498 7.989820957183838 58 58 58
0.1459576040506363 3.2084410190582275 7.063716888427734 95 95 95
0.1341075450181961 3.4165751934051514 5.66103458404541 136 136 136
0.2389657348394394 -0.6437426209449768 7.55229377746582 97 97 97
0.2025141417980194 3.429222345352173 5.704680442810059 63 63 63
0.2701985538005829 3.1453256607055664 6.874927520751953 76 76 76
0.2431349903345108 3.3408002853393555 6.180211067199707 67 67 67
0.2431349903345108 3.3408002853393555 6.180211067199707 67 67 67
0.2431349903345108 3.3408002853393555 6.180211067199707 67 67 67
0.30197006464004517 0.38980329036712646 7.334417343139648 136 136 136
0.22952884435653687 3.40360164642334 5.517016410827637 70 70 70
0.2652706205844879 3.437944173812866 5.568337440490723 43 43 43
0.2652706205844879 3.437944173812866 5.568337440490723 43 43 43
0.337820440530777 3.3053479194641113 6.5599894523620605 104 104 104
0.337820440530777 3.3053479194641113 6.5599894523620605 104 104 104
0.30923518538475037 3.4564127922058105 5.622396469116211 146 146 146
0.39597171545028687 1.3621381521224976 7.070916175842285 91 91 91
0.37250879406929016 3.3384082317352295 6.433878421783447 115 115 115
0.37250879406929016 3.3384082317352295 6.433878421783447 115 115 115
0.4175151288509369 0.9120439291000366 6.816951274871826 118 118 118
0.4391365647315979 0.8895372152328491 6.889425754547119 82 82 82
0.36635634303092957 3.4405617713928223 5.558079242706299 76 76 76
0.44681596755981445 -2.5278537273406982 6.618293285369873 119 119 119
0.48131823539733887 -1.0268558263778687 6.635470390319824 54 54 54
0.48131823539733887 -1.0268558263778687 6.635470390319824 54 54 54
0.4544410705566406 -3.063368082046509 6.538710117340088 38 38 38
0.4632246494293213 -3.320366144180298 6.494678020477295 36 36 36
0.44693395495414734 3.407897710800171 5.861855506896973 163 163 163
0.4906001091003418 -1.9311448335647583 6.457680702209473 22 22 22
0.5143342614173889 2.111117362976074 6.660953998565674 87 87 87
0.5669193267822266 1.8185155391693115 6.562674522399902 40 40 40
0.5728236436843872 -0.18226735293865204 6.420816421508789 80 80 80
0.5550800561904907 -0.5342421531677246 6.370994567871094 58 58 58
0.5824115872383118 -0.9945526719093323 6.436103343963623 136 136 136
0.5950812697410583 0.3002491891384125 6.4878315925598145 105 105 105
0.5796030759811401 -1.228166103363037 6.281478404998779 26 26 26
0.5892181396484375 -0.4363856613636017 6.348067283630371 59 59 59
0.5772906541824341 -1.957161784172058 6.1853108406066895 50 50 50
0.5852411985397339 -1.9423131942749023 6.182953357696533 132 132 132
0.5250648856163025 3.4595727920532227 5.470129013061523 53 53 53
0.601372241973877 -2.0537688732147217 6.177090644836426 129 129 129
0.6497684121131897 1.4735254049301147 6.5853190422058105 52 52 52
0.6601682305335999 -0.20382051169872284 6.434566497802734 65 65 65
0.6923630237579346 1.7387819290161133 6.618854522705078 25 25 25
0.7002708315849304 0.7534245848655701 6.507924556732178 63 63 63
0.7452080249786377 2.1918880939483643 6.659235954284668 15 15 15
0.6853075623512268 3.3687238693237305 6.262293338775635 58 58 58
0.59883052110672 3.3823561668395996 5.426399230957031 109 109 109
0.7818953990936279 3.148197650909424 6.777472972869873 25 25 25
0.7961614727973938 1.963107943534851 6.6810197830200195 52 52 52
0.6713340878486633 -3.2347095012664795 5.683430194854736 19 19 19
0.6579368710517883 3.4115724563598633 5.538966655731201 87 87 87
0.7718899846076965 -0.1962052881717682 6.440221309661865 74 74 74
0.74628084897995 -2.2312259674072266 6.208897590637207 85 85 85
0.7797220945358276 -0.3599177300930023 6.407994270324707 98 98 98
0.765681266784668 -1.3462860584259033 6.281401634216309 80 80 80
0.7792721390724182 -0.646613359451294 6.391011714935303 100 100 100
0.7961440682411194 -0.07456320524215698 6.431981563568115 52 52 52
0.803307056427002 0.14724381268024445 6.469525337219238 17 17 17
0.7784205079078674 -0.9995940923690796 6.31388521194458 24 24 24
0.7722956538200378 -2.2090096473693848 6.1549072265625 101 101 101
0.7139078974723816 3.3954415321350098 5.656584739685059 114 114 114
0.727125883102417 3.4471535682678223 5.576594352722168 61 61 61
0.8362401723861694 -0.9680902361869812 6.294588565826416 153 153 153
0.877612829208374 3.3158464431762695 6.595828056335449 59 59 59
0.8249006867408752 -2.1994640827178955 6.195010662078857 165 165 165
0.8906311988830566 3.2152459621429443 6.649898052215576 43 43 43
0.8950416445732117 2.391465425491333 6.627285957336426 62 62 62
0.846457302570343 -2.1411631107330322 6.175127029418945 152 152 152
0.7568528056144714 -2.989633560180664 5.410538196563721 51 51 51
0.7568528056144714 -2.989633560180664 5.410538196563721 51 51 51
0.8623144626617432 3.3790924549102783 6.158376216888428 144 144 144
0.9048814177513123 -2.0614099502563477 6.197880744934082 136 136 136
0.9581119418144226 -2.194420099258423 6.147078990936279 35 35 35
0.9582070112228394 -2.1912848949432373 6.132152557373047 35 35 35
0.9836481809616089 -2.105112314224243 6.129762649536133 179 179 179
0.8609525561332703 -2.406553030014038 5.199119567871094 78 78 78
1.0121859312057495 3.4591283798217773 5.547147750854492 78 78 78
0.9069353938102722 -2.7266998291015625 4.903124809265137 139 139 139
1.0557011365890503 3.442646026611328 5.634632587432861 138 138 138
1.038374900817871 3.4428975582122803 5.573801040649414 29 29 29
1.3018800020217896 3.294182062149048 6.560186862945557 62 62 62
1.2648186683654785 3.330357789993286 6.33488655090332 42 42 42
1.2888802289962769 3.345365047454834 6.430807113647461 51 51 51
1.1170313358306885 -2.362421751022339 5.3975677490234375 64 64 64
1.4043467044830322 3.306833267211914 6.777082920074463 87 87 87
1.087339997291565 -2.350290060043335 5.186570167541504 70 70 70
1.4512341022491455 3.2683937549591064 6.832878112792969 14 14 14
1.2621569633483887 3.423525333404541 5.643348693847656 141 141 141
1.0415732860565186 -2.3570072650909424 4.458344459533691 146 146 146
1.354232907295227 3.4269607067108154 5.769351005554199 63 63 63
1.385977864265442 3.4286084175109863 5.847870826721191 127 127 127
1.1847727298736572 -2.306093692779541 4.1438493728637695 36 36 36
1.2865333557128906 0.4077942669391632 3.699108123779297 18 18 18
1.3341854810714722 2.1274290084838867 3.6262643337249756 67 67 67
1.3865692615509033 0.45300886034965515 3.480100393295288 69 69 69
1.383407473564148 1.6702271699905396 3.4593193531036377 60 60 60
1.3784934282302856 0.6836798191070557 3.4445269107818604 24 24 24
1.386378288269043 0.9467580318450928 3.358928680419922 80 80 80
1.360878586769104 -1.4026576280593872 3.241018772125244 126 126 126
1.3753060102462769 -1.4168940782546997 3.204137086868286 130 130 130
1.4215320348739624 1.9158046245574951 3.298194646835327 48 48 48
1.4400883913040161 1.919966220855713 3.327782154083252 76 76 76
1.4502036571502686 -0.7537315487861633 3.070711612701416 84 84 84
1.017285943031311 3.491957426071167 5.851019859313965 36 36 36
0.3456672728061676 3.394078493118286 6.234087944030762 132 132 132
-2.7545814514160156 -1.0262820720672607 8.842177391052246 230 230 230
-1.2933568954467773 1.981505274772644 8.010862350463867 214 214 214
-1.950249195098877 1.8251415491104126 7.991796970367432 38 38 38
0.04448394849896431 3.3893847465515137 6.304479122161865 110 110 110
-1.3243706226348877 1.8204727172851562 8.122650146484375 34 34 34
-2.2239670753479004 -0.17983342707157135 9.058886528015137 250 250 250
-2.466339588165283 -0.17057952284812927 8.987015724182129 145 145 145
0.5589808821678162 -1.7061004638671875 6.249769687652588 7 7 7
0.8072170615196228 -1.9387907981872559 6.245725154876709 107 107 107
1.2951393127441406 -0.05630163475871086 3.659555435180664 7 7 7
-2.2683088779449463 -0.9418695569038391 7.0325422286987305 230 230 230
0.5553202629089355 -0.7621814012527466 6.34567403793335 17 17 17
-2.662931442260742 -1.040523886680603 7.762930393218994 164 164 164
0.3149110972881317 3.4219460487365723 5.952250957489014 45 45 45
-2.0885050296783447 -0.11218500137329102 8.925545692443848 251 251 251
-1.950256586074829 1.825146198272705 7.991816997528076 38 38 38
-0.5002856254577637 1.7702666521072388 8.234655380249023 6 6 6
0.4754672944545746 3.4200005531311035 5.6324849128723145 163 163 163
0.463351845741272 3.3763599395751953 6.128539562225342 132 132 132
-1.59893000125885 1.7902336120605469 7.937862873077393 91 91 91
-2.3431785106658936 -1.0003044605255127 8.992587089538574 143 143 143
-2.8159291744232178 -0.9640451669692993 8.706356048583984 31 31 31
-3.3772292137145996 -2.156723737716675 7.442020416259766 109 109 109
-1.613946557044983 2.2274117469787598 7.872692584991455 4 4 4
-2.2294464111328125 -0.9526365995407104 8.869324684143066 219 219 219
-2.461674213409424 -0.9507194757461548 8.862788200378418 202 202 202
-3.377239465713501 -2.1567306518554688 7.442042350769043 109 109 109
0.40009796619415283 3.386234998703003 5.952676296234131 196 196 196
0.534105122089386 3.41219162940979 5.809703350067139 11 11 11
1.0344386100769043 3.3763175010681152 5.992401599884033 67 67 67
-2.745950698852539 -0.2587100863456726 8.960352897644043 175 175 175
-0.43706008791923523 3.385131597518921 5.798142910003662 64 64 64
-1.793986201286316 1.7845392227172852 7.853761196136475 101 101 101
-2.6855204105377197 1.796815276145935 7.634299278259277 1 1 1
-1.2001080513000488 3.4777259826660156 5.453278064727783 139 139 139
-0.4328860938549042 3.362142324447632 6.151158809661865 182 182 182
0.4069434106349945 3.3472113609313965 6.199492931365967 165 165 165
-2.2081587314605713 -1.3646571636199951 7.798202037811279 154 154 154
-0.5555824637413025 3.349911689758301 6.098929405212402 119 119 119
0.33283352851867676 3.397731304168701 5.917206764221191 176 176 176
-2.142084836959839 1.735816478729248 7.569289207458496 108 108 108
0.5500636696815491 -0.30139631032943726 6.314445972442627 14 14 14
-2.040158271789551 0.48905515670776367 8.156415939331055 188 188 188
-2.0401203632354736 0.4890381097793579 8.156272888183594 188 188 188
-2.027897357940674 0.48364168405532837 8.328376770019531 208 208 208
0.16423021256923676 3.4083640575408936 5.850401401519775 169 169 169
-0.5389652848243713 3.2985262870788574 6.339382171630859 69 69 69
0.5835264325141907 -1.9531320333480835 6.1728339195251465 0 0 0
0.5583580136299133 -0.6493306756019592 6.3393707275390625 111 111 111
0.060585230588912964 3.319671630859375 6.327695846557617 184 184 184
-0.7516657114028931 3.386385440826416 5.956214904785156 46 46 46
-0.6298434734344482 0.9491347670555115 8.185615539550781 63 63 63
0.5517131686210632 -0.07606084644794464 6.458515167236328 80 80 80
-0.0892508402466774 3.4120445251464844 6.082974910736084 104 104 104
-2.805426597595215 -0.5124752521514893 8.747105598449707 130 130 130
0.2493637353181839 3.392160177230835 5.905879974365234 158 158 158
-1.0002410411834717 3.4823384284973145 5.5388689041137695 108 108 108
0.7439343333244324 3.391812562942505 5.743896961212158 88 88 88
-1.9305226802825928 1.5685924291610718 7.86355447769165 115 115 115
-1.465305209159851 3.3819429874420166 5.4241790771484375 54 54 54
-0.8106112480163574 3.3480398654937744 5.675312042236328 179 179 179
0.8090344071388245 -1.0162125825881958 6.346865177154541 113 113 113
0.8105534315109253 -0.5473825931549072 6.413554668426514 171 171 171
-1.089247465133667 3.3682000637054443 6.2746710777282715 120 120 120
0.23387762904167175 3.4162940979003906 5.650196552276611 168 168 168
-0.572812557220459 3.4546051025390625 5.818603515625 119 119 119
-1.5988980531692505 1.7902047634124756 7.937791347503662 91 91 91
-1.5398536920547485 -3.129136085510254 7.394055366516113 162 162 162
0.8536176085472107 -2.241121530532837 6.14608907699585 107 107 107
-2.8692758083343506 1.3617613315582275 7.64662504196167 127 127 127
-0.7754714488983154 3.4484684467315674 5.552541732788086 44 44 44
0.8086761236190796 -1.7961957454681396 6.248271942138672 87 87 87
1.2814338207244873 3.4168834686279297 5.9438300132751465 180 180 180
-1.5004866123199463 1.6183619499206543 7.936489582061768 6 6 6
0.19603998959064484 3.363813638687134 6.138094425201416 182 182 182
-1.707204818725586 3.3055620193481445 6.508417129516602 79 79 79
0.36101391911506653 3.3614420890808105 5.872130393981934 88 88 88
0.8032624125480652 0.14725928008556366 6.468833923339844 17 17 17
-1.9768614768981934 -1.6248583793640137 7.853429317474365 139 139 139
-3.377250909805298 -2.1567342281341553 7.4420576095581055 109 109 109
0.8189647793769836 -2.1903414726257324 6.2494707107543945 83 83 83
0.5425212383270264 -1.009981632232666 6.413591384887695 47 47 47
0.8537349104881287 -2.238666534423828 6.139423847198486 107 107 107
-2.7559876441955566 -0.6064718961715698 9.067510604858398 73 73 73
0.8536220788955688 -2.2411956787109375 6.146303176879883 107 107 107
0.21000559628009796 3.3666884899139404 5.720573425292969 83 83 83
-0.5881491899490356 1.9984675645828247 8.209726333618164 7 7 7
-3.1502490043640137 0.5496959090232849 8.029436111450195 149 149 149
-0.9050912857055664 3.3597395420074463 6.097922325134277 168 168 168
-1.479565978050232 1.5981768369674683 7.917912483215332 199 199 199
-1.391738772392273 1.548074722290039 7.662323474884033 163 163 163
-2.2571444511413574 1.7986732721328735 7.859347343444824 138 138 138
0.4626331627368927 3.364429235458374 6.1047539710998535 124 124 124
-1.420971393585205 -2.2525060176849365 8.075785636901855 93 93 93
-2.539309024810791 0.3938608765602112 7.729080677032471 106 106 106
0.7934874296188354 3.3656537532806396 6.101998805999756 166 166 166
1.2952110767364502 -0.05623029172420502 3.660212516784668 7 7 7
0.6539912223815918 3.3737683296203613 5.928831100463867 61 61 61
0.28647249937057495 3.396146774291992 5.804841995239258 160 160 160
0.6854654550552368 3.3983311653137207 6.151443958282471 91 91 91
-2.200082778930664 0.5253564119338989 8.795434951782227 123 123 123
-0.5555818676948547 3.349911689758301 6.098926544189453 119 119 119
-2.685528516769409 1.796817660331726 7.634318828582764 1 1 1
-0.45549196004867554 3.3486320972442627 5.98061990737915 110 110 110
-2.8322417736053467 -1.0717922449111938 7.958856105804443 160 160 160
-2.0912225246429443 -0.06355676054954529 9.205528259277344 166 166 166
-1.950273871421814 1.8251547813415527 7.991852760314941 38 38 38
-1.6107714176177979 2.2254574298858643 7.863569259643555 4 4 4
-2.221189022064209 1.805782437324524 7.85117769241333 65 65 65
-1.70599365234375 0.520795464515686 8.169432640075684 51 51 51
-1.9596223831176758 3.2916481494903564 6.360963344573975 160 160 160
-1.9247444868087769 2.0250444412231445 7.911389350891113 24 24 24
-1.6139620542526245 2.2274153232574463 7.8727216720581055 4 4 4
-1.66554594039917 1.7925468683242798 7.991021156311035 16 16 16
-1.5989309549331665 1.7902343273162842 7.9378662109375 91 91 91
-1.8794729709625244 -3.2590160369873047 7.366306304931641 116 116 116
-0.9978842735290527 1.7873814105987549 8.123359680175781 101 101 101
0.31528446078300476 3.4728779792785645 5.935074329376221 133 133 133
-1.9247653484344482 2.0250658988952637 7.91147518157959 24 24 24
1.060654878616333 3.435053586959839 5.767134666442871 70 70 70
-0.6989472508430481 3.4332125186920166 5.745480537414551 101 101 101
-0.6337802410125732 3.3691601753234863 6.068018913269043 131 131 131
-2.229651689529419 -0.9525942802429199 8.869878768920898 219 219 219
1.1040265560150146 3.392296314239502 5.830048561096191 150 150 150
0.03534325957298279 -0.9297545552253723 8.237318992614746 1 1 1
0.035346321761608124 -0.9297474026679993 8.237292289733887 1 1 1
-2.7545807361602783 -1.0262796878814697 8.842207908630371 230 230 230
-2.4844024181365967 -1.0515319108963013 9.049779891967773 7 7 7
-0.314849317073822 0.3914632201194763 8.644950866699219 62 62 62
0.807214081287384 -1.9387762546539307 6.245686054229736 107 107 107
0.4495409429073334 3.3969709873199463 5.870491981506348 42 42 42
-2.8177573680877686 -2.378162384033203 7.471344470977783 126 126 126
0.8090345859527588 -1.0162160396575928 6.346859931945801 113 113 113
0.16557703912258148 3.3768649101257324 5.762284278869629 186 186 186
-0.24608060717582703 3.386381149291992 5.797913074493408 30 30 30
0.4617044925689697 3.4491212368011475 5.844164848327637 29 29 29
0.2957450747489929 3.3722190856933594 6.73691987991333 156 156 156
0.45632404088974 3.318758964538574 6.437373638153076 152 152 152
-1.3208849430084229 -0.9974372982978821 4.822461128234863 135 135 135
-1.2210115194320679 1.5460400581359863 8.023421287536621 31 31 31
-2.2212018966674805 1.80579674243927 7.851232528686523 65 65 65
-1.296532154083252 1.4892714023590088 7.995761871337891 128 128 128
-0.8191184401512146 3.3864598274230957 6.111578941345215 143 143 143
-2.7560627460479736 -0.606448233127594 9.067777633666992 73 73 73
-1.484248399734497 3.4213263988494873 5.758005619049072 98 98 98
-0.5143097043037415 3.249298095703125 6.560302734375 70 70 70
1.1147528886795044 3.437187910079956 6.106381893157959 98 98 98
0.5437138676643372 1.5128173828125 6.545087814331055 89 89 89
0.5578926801681519 -0.07261750847101212 6.363217830657959 118 118 118
0.8352007269859314 -2.2118818759918213 6.156504154205322 85 85 85
-2.999011993408203 0.11199355870485306 8.913895606994629 157 157 157
-0.5860970616340637 3.4089090824127197 5.5445475578308105 151 151 151
-1.3038805723190308 2.4788336753845215 8.07476806640625 137 137 137
-1.9689178466796875 2.542642593383789 8.003435134887695 54 54 54
-0.7203217148780823 3.309133291244507 6.590633392333984 21 21 21
0.19053278863430023 3.334263801574707 6.243492603302002 167 167 167
0.5028582215309143 3.375736951828003 5.816472053527832 136 136 136
-0.22077444195747375 2.6564228534698486 7.625237941741943 63 63 63
-1.6548006534576416 1.6035076379776 8.08169174194336 38 38 38
-0.3046205937862396 2.4092729091644287 7.561182022094727 70 70 70
-0.6785660982131958 3.3991901874542236 6.045060634613037 25 25 25
1.2749959230422974 3.4136900901794434 5.946165084838867 156 156 156
-2.9488043785095215 1.5824178457260132 7.66550350189209 120 120 120
-2.5488128662109375 -1.371653437614441 7.803194046020508 146 146 146
0.5311426520347595 3.3130109310150146 5.7735090255737305 50 50 50
-0.5860064029693604 3.4087393283843994 5.544290065765381 151 151 151
-3.1428134441375732 0.0164632648229599 8.991004943847656 244 244 244
0.8555557727813721 3.388747215270996 6.1254987716674805 137 137 137
-1.9316643476486206 1.5696828365325928 7.868267059326172 115 115 115
-1.850777506828308 -2.5256147384643555 7.44053316116333 57 57 57
-2.5853192806243896 -0.895921528339386 8.80694580078125 58 58 58
0.7961429357528687 -0.07456039637327194 6.432040214538574 52 52 52
1.2961384057998657 -0.05469701811671257 3.668516159057617 11 11 11
0.763069748878479 -1.7017074823379517 6.275307655334473 145 145 145
-2.4509260654449463 2.5208609104156494 7.879500865936279 21 21 21
1.2952098846435547 -0.05623217672109604 3.660202980041504 7 7 7
0.538705587387085 3.460247039794922 5.761086463928223 79 79 79
-1.2933475971221924 1.9814844131469727 8.010818481445312 214 214 214
1.3033758401870728 0.17218969762325287 3.6832053661346436 70 70 70
0.4542838931083679 0.3471996784210205 6.85760498046875 26 26 26
0.5500150918960571 1.057256817817688 6.523151874542236 195 195 195
-2.8857808113098145 2.306211233139038 7.766201496124268 114 114 114
0.2526671290397644 3.431096315383911 5.6855788230896 160 160 160
0.8536204695701599 -2.241229295730591 6.146397113800049 107 107 107
-1.7262284755706787 1.3671218156814575 7.90732479095459 135 135 135
0.8049599528312683 -0.3047768771648407 6.4257731437683105 91 91 91
0.5340965390205383 3.4122800827026367 5.809845447540283 11 11 11
0.8189566135406494 -2.1904537677764893 6.249825954437256 83 83 83
0.5689253807067871 3.3816614151000977 6.052868366241455 157 157 157
0.8032599687576294 0.14725421369075775 6.469041347503662 17 17 17
-0.6179616451263428 1.507171392440796 8.218091011047363 123 123 123
-1.2649434804916382 1.4752031564712524 8.006671905517578 128 128 128
-2.8226804733276367 -2.381186008453369 7.480688571929932 126 126 126
-1.2933597564697266 1.9815090894699097 8.010878562927246 214 214 214
-1.195784330368042 1.5338282585144043 7.954150676727295 114 114 114
0.807213544845581 -1.9388041496276855 6.245768070220947 107 107 107
0.04471589997410774 3.412505865097046 6.348167419433594 87 87 87
-3.3383290767669678 -0.5857844948768616 7.568451881408691 129 129 129
-2.079014539718628 0.5009229183197021 8.312254905700684 146 146 146
-1.9247435331344604 2.025043487548828 7.911386489868164 24 24 24
-1.2947168350219727 1.561641812324524 8.08017635345459 27 27 27
-1.2585296630859375 1.6135648488998413 7.998735427856445 131 131 131
-1.3143471479415894 1.59748113155365 7.997469902038574 60 60 60
-1.4957882165908813 1.6141839027404785 7.988105297088623 183 183 183
-2.685546398162842 1.796829342842102 7.634352207183838 1 1 1
-2.1188132762908936 -0.8358371257781982 9.03678035736084 47 47 47
0.23648008704185486 3.322767734527588 5.750292778015137 123 123 123
-1.309806227684021 0.41026562452316284 8.211860656738281 102 102 102
-1.4209825992584229 -2.25251841545105 8.075811386108398 93 93 93
-1.7744141817092896 -1.5131638050079346 7.331830024719238 121 121 121
