ply
format ascii 1.0
element vertex 716
property float x
property float y
property float z
property uchar red
property uchar green
property uchar blue
end_header
-1.0520544052124023 -0.5867853164672852 5.963957786560059 103 103 103
-1.123830795288086 1.1297024488449097 6.278393745422363 148 148 148
-1.01103937625885 -3.0193419456481934 5.683560371398926 49 49 49
-1.07220458984375 0.787169873714447 6.1932477951049805 53 53 53
-1.0173358917236328 -2.7960455417633057 5.798661708831787 94 94 94
-0.9927325248718262 -2.668025493621826 5.694439888000488 48 48 48
-0.9757528901100159 -2.945038318634033 5.636110782623291 113 113 113
-0.9846574664115906 -2.4902098178863525 5.711946964263916 85 85 85
-1.0841752290725708 1.6023988723754883 6.370934009552002 97 97 97
-0.9694090485572815 -3.471449851989746 5.709047794342041 65 65 65
-1.0431389808654785 0.7455632090568542 6.208170413970947 59 59 59
-1.0271645784378052 0.014815261587500572 6.160609722137451 90 90 90
-1.0594286918640137 1.2554879188537598 6.334631443023682 185 185 185
-0.9418749213218689 -3.523118019104004 5.657565593719482 71 71 71
-1.0723719596862793 1.926310658454895 6.446543216705322 82 82 82
-0.9994197487831116 -0.6608867645263672 6.0145134925842285 14 14 14
-0.9854487776756287 -0.9300668239593506 5.93419075012207 116 116 116
-1.0702260732650757 2.113497018814087 6.486599445343018 48 48 48
-1.0202465057373047 0.3619685769081116 6.1920952796936035 29 29 29
-0.9897102117538452 -0.17774486541748047 6.043516635894775 97 97 97
-0.9058054089546204 -3.4268510341644287 5.570099353790283 58 58 58
-1.0453087091445923 1.7746034860610962 6.432069301605225 80 80 80
-1.023698091506958 0.038809556514024734 6.268588542938232 18 18 18
-0.9402090907096863 -2.068431854248047 5.814342975616455 90 90 90
-0.9402090907096863 -2.068431854248047 5.814342975616455 90 90 90
-0.9186050295829773 -2.7453389167785645 5.683920860290527 97 97 97
-1.0373986959457397 1.903490662574768 6.442432880401611 74 74 74
-0.8973562121391296 -3.371570587158203 5.611825466156006 29 29 29
-1.0251950025558472 1.8836129903793335 6.414308547973633 72 72 72
-1.0233930349349976 2.5478127002716064 6.475003719329834 62 62 62
-0.9884810447692871 1.6059783697128296 6.390407562255859 38 38 38
-0.8953666687011719 -2.8175642490386963 5.698628902435303 67 67 67
-1.0176376104354858 1.9948790073394775 6.4846577644348145 21 21 21
-1.0176376104354858 1.9948790073394775 6.4846577644348145 21 21 21
-0.8703250885009766 -3.3861188888549805 5.574655532836914 69 69 69
-0.9502610564231873 -0.649172306060791 6.0697855949401855 39 39 39
-1.0148342847824097 1.688538670539856 6.503398895263672 46 46 46
-0.9628373980522156 0.1883339136838913 6.174323558807373 66 66 66
-0.8794479370117188 -3.2226741313934326 5.650753974914551 73 73 73
-0.8703813552856445 -2.8938961029052734 5.629513740539551 86 86 86
-0.9786427617073059 0.9051615595817566 6.306060314178467 46 46 46
-0.9194299578666687 -1.0368565320968628 5.995031356811523 106 106 106
-0.8552019596099854 -3.227525234222412 5.593453407287598 93 93 93
-0.9036432504653931 -1.690822720527649 5.928707599639893 60 60 60
-0.9809377193450928 1.6879794597625732 6.444469451904297 22 22 22
-0.9119105935096741 -0.5417133569717407 6.032439708709717 84 84 84
-0.8652536273002625 -2.134962320327759 5.806252479553223 63 63 63
-0.9576612710952759 1.2229632139205933 6.353084564208984 121 121 121
-0.8466188311576843 -2.927182674407959 5.703375816345215 65 65 65
-0.8206827044487 -3.318065881729126 5.626894950866699 44 44 44
-0.8475558161735535 -2.5237033367156982 5.744474411010742 70 70 70
-0.8439995050430298 -2.5179648399353027 5.733543395996094 70 70 70
-0.8612681031227112 -1.8817325830459595 5.853217601776123 95 95 95
-0.8215240836143494 -3.1163463592529297 5.708002090454102 89 89 89
-0.8810932040214539 -0.6691238880157471 6.067468643188477 37 37 37
-0.8684192895889282 -1.4482121467590332 5.995259761810303 81 81 81
-0.8304136395454407 -2.501408815383911 5.754156589508057 35 35 35
-0.9508147239685059 1.2888215780258179 6.480057716369629 77 77 77
-0.9508147239685059 1.2888215780258179 6.480057716369629 77 77 77
-0.8254380226135254 -3.3906331062316895 5.679009437561035 5 5 5
-0.8380724787712097 -2.6565771102905273 5.754168510437012 95 95 95
-0.8366401791572571 -1.7606163024902344 5.888044834136963 55 55 55
-0.9312035441398621 1.8393999338150024 6.55895471572876 65 65 65
-0.8960630297660828 1.1349561214447021 6.345042705535889 40 40 40
-0.8018388152122498 -3.0623626708984375 5.6776323318481445 78 78 78
-0.8350501656532288 -1.7099350690841675 5.919039249420166 95 95 95
-0.8089727163314819 -2.95485520362854 5.748152732849121 66 66 66
-0.8137980103492737 -2.235374927520752 5.795639514923096 91 91 91
-0.835306704044342 0.2840694487094879 6.0855512619018555 56 56 56
-0.835306704044342 0.2840694487094879 6.0855512619018555 56 56 56
-0.835306704044342 0.2840694487094879 6.0855512619018555 56 56 56
-0.808609664440155 -2.266662359237671 5.798827171325684 70 70 70
-0.8386021256446838 -0.6195752620697021 6.087317943572998 111 111 111
-0.7780026793479919 -3.2415316104888916 5.649142742156982 118 118 118
-0.8291729688644409 -0.7292405366897583 6.037108898162842 96 96 96
-0.799381673336029 -2.1234474182128906 5.821107387542725 96 96 96
-0.799381673336029 -2.1234474182128906 5.821107387542725 96 96 96
-0.8278106451034546 -0.728177547454834 6.069844722747803 93 93 93
-0.7863745093345642 -2.402484178543091 5.789571285247803 110 110 110
-0.7863745093345642 -2.402484178543091 5.789571285247803 110 110 110
-0.8325351476669312 0.20473885536193848 6.221714496612549 73 73 73
-0.844608724117279 1.0582576990127563 6.344975471496582 54 54 54
-0.8142807483673096 -0.35740765929222107 6.138308048248291 102 102 102
-0.7645847797393799 -2.2970619201660156 5.78778076171875 101 101 101
-0.746429443359375 -3.186774969100952 5.656360626220703 84 84 84
-0.7740918397903442 -1.8626892566680908 5.904176235198975 68 68 68
-0.8092986345291138 -0.028278712183237076 6.185253620147705 82 82 82
-0.8004680871963501 0.34186118841171265 6.2820210456848145 31 31 31
-0.7391634583473206 -2.287808418273926 5.804777145385742 86 86 86
-0.8003236651420593 0.7512514591217041 6.306915283203125 106 106 106
-0.8003236651420593 0.7512514591217041 6.306915283203125 106 106 106
-0.7968535423278809 0.8570225834846497 6.3304572105407715 94 94 94
-0.7211887836456299 -2.7246463298797607 5.742734432220459 99 99 99
-0.7407140731811523 -1.7527462244033813 5.902538776397705 95 95 95
-0.7126041650772095 -2.4764292240142822 5.700055122375488 65 65 65
-0.7374989986419678 -1.6083362102508545 5.886816501617432 71 71 71
-0.8055478930473328 1.8242254257202148 6.457766056060791 57 57 57
-0.7901860475540161 0.9560556411743164 6.343809604644775 99 99 99
-0.7077059149742126 -2.4623122215270996 5.769187927246094 56 56 56
-0.6935173273086548 -3.011880397796631 5.664248943328857 81 81 81
-0.7274642586708069 -1.362705945968628 5.981149196624756 68 68 68
-0.7743256092071533 0.3443845808506012 6.283616542816162 5 5 5
-0.7039211392402649 -2.1695239543914795 5.838585376739502 94 94 94
-0.7601008415222168 1.1645869016647339 6.315281867980957 32 32 32
-0.7659538388252258 1.1997952461242676 6.368947505950928 50 50 50
-0.7754056453704834 1.2916516065597534 6.474388599395752 65 65 65
-0.734477162361145 -0.29836952686309814 6.183141708374023 108 108 108
-0.7264455556869507 -0.7426676750183105 6.17488431930542 104 104 104
-0.7636295557022095 1.4569045305252075 6.4629597663879395 24 24 24
-0.7742859125137329 2.2009365558624268 6.572140216827393 54 54 54
-0.7505631446838379 0.9252738952636719 6.377566337585449 8 8 8
-0.7559933662414551 1.5801154375076294 6.4850897789001465 30 30 30
-0.7408849000930786 1.0126920938491821 6.4292097091674805 74 74 74
-0.6858157515525818 -1.9269068241119385 5.883755683898926 63 63 63
-0.6858157515525818 -1.9269068241119385 5.883755683898926 63 63 63
-0.7077646255493164 -0.6727380156517029 6.118486404418945 39 39 39
-0.6750553846359253 -1.9641544818878174 5.856195449829102 62 62 62
-0.7635104656219482 2.710843801498413 6.650954246520996 55 55 55
-0.6403008699417114 -3.197932481765747 5.6830573081970215 116 116 116
-0.6766557693481445 -2.1445157527923584 5.90995979309082 97 97 97
-0.7174534201622009 0.6996065974235535 6.402482509613037 184 184 184
-0.742802619934082 2.258749008178711 6.576938152313232 53 53 53
-0.6498527526855469 -1.3666850328445435 6.0478105545043945 48 48 48
-0.6343318819999695 -3.1185317039489746 5.751796722412109 38 38 38
-0.650257408618927 -1.9699586629867554 5.895908355712891 59 59 59
-0.7110569477081299 1.493662714958191 6.475980758666992 67 67 67
-0.6216953992843628 -2.907618999481201 5.742774486541748 104 104 104
-0.6968013644218445 1.5466939210891724 6.475584506988525 66 66 66
-0.6463244557380676 -0.40637582540512085 6.094727039337158 105 105 105
-0.6372482180595398 -1.7559783458709717 5.9475932121276855 76 76 76
-0.6933451294898987 2.2203891277313232 6.60709285736084 32 32 32
-0.664863109588623 1.9467313289642334 6.437122821807861 13 13 13
-0.6282301545143127 -1.2230644226074219 6.035125255584717 66 66 66
-0.6400658488273621 -0.38393399119377136 6.178282260894775 108 108 108
-0.6712709069252014 1.2945444583892822 6.487497329711914 51 51 51
-0.6546024680137634 0.16604653000831604 6.270439147949219 62 62 62
-0.5872622728347778 -3.1653332710266113 5.731503009796143 45 45 45
-0.5890519618988037 -2.3741390705108643 5.87133264541626 62 62 62
-0.6426602602005005 1.3879330158233643 6.454036712646484 44 44 44
-0.6426602602005005 1.3879330158233643 6.454036712646484 44 44 44
-0.6237738728523254 0.48711368441581726 6.308701038360596 87 87 87
-0.5627278685569763 -3.0747883319854736 5.730576515197754 83 83 83
-0.5607452392578125 -2.9490935802459717 5.772791862487793 49 49 49
-0.5827530026435852 -0.5795865058898926 6.024984836578369 91 91 91
-0.6054211258888245 -1.376291036605835 6.068710803985596 46 46 46
-0.6346267461776733 2.1002700328826904 6.59973669052124 62 62 62
-0.6257120370864868 0.7611681222915649 6.5189032554626465 165 165 165
-0.6257120370864868 0.7611681222915649 6.5189032554626465 165 165 165
-0.6124182343482971 0.9386959671974182 6.38323450088501 73 73 73
-0.5708052515983582 -3.2298574447631836 5.729713439941406 41 41 41
-0.6022489070892334 0.26827123761177063 6.302998065948486 70 70 70
-0.5768589973449707 0.5566501617431641 6.253971099853516 68 68 68
-0.5754284262657166 -1.0181406736373901 6.112869739532471 71 71 71
-0.5898088812828064 1.6251858472824097 6.447179794311523 9 9 9
-0.5598467588424683 -1.5916516780853271 5.987107753753662 89 89 89
-0.5771980881690979 -0.3305477201938629 6.240270137786865 34 34 34
-0.6205188632011414 1.7507470846176147 6.552858829498291 43 43 43
-0.5449650287628174 -2.132840871810913 5.912200450897217 57 57 57
-0.5394383668899536 -2.0607712268829346 5.865418434143066 74 74 74
-0.520795464515686 -3.2931337356567383 5.689837455749512 73 73 73
-0.5853657722473145 1.0615731477737427 6.453739166259766 62 62 62
-0.5643612146377563 0.08498502522706985 6.292035102844238 74 74 74
-0.5777277946472168 2.000579595565796 6.538241386413574 44 44 44
-0.5765426754951477 0.7401939034461975 6.325248718261719 138 138 138
-0.5888374447822571 2.1353039741516113 6.585659503936768 42 42 42
-0.5244487524032593 -0.6673314571380615 6.068606853485107 50 50 50
-0.5935490727424622 2.780221462249756 6.694488048553467 38 38 38
-0.5288587212562561 -1.587744951248169 5.9909539222717285 50 50 50
-0.5160930156707764 -2.7816812992095947 5.783534049987793 58 58 58
-0.5780177116394043 2.184439182281494 6.6229472160339355 46 46 46
-0.5226149559020996 0.19829857349395752 6.20222806930542 65 65 65
-0.5296531319618225 -2.0073931217193604 5.92204475402832 50 50 50
-0.5061773061752319 -2.7499845027923584 5.836503505706787 60 60 60
-0.5049685835838318 -2.6857266426086426 5.825711250305176 39 39 39
-0.5049685835838318 -2.6857266426086426 5.825711250305176 39 39 39
-0.5444557070732117 0.11727188527584076 6.289605617523193 87 87 87
-0.510254979133606 -0.597896933555603 6.0797295570373535 81 81 81
-0.510254979133606 -0.597896933555603 6.0797295570373535 81 81 81
-0.5229853987693787 -0.6418271064758301 6.1596760749816895 100 100 100
-0.5178236365318298 -0.7301716208457947 6.141658306121826 84 84 84
-0.521817147731781 -0.046084098517894745 6.262925624847412 74 74 74
-0.47563010454177856 -3.133908748626709 5.767673969268799 48 48 48
-0.5335376262664795 1.155205488204956 6.460711479187012 67 67 67
-0.5104765295982361 -0.3308897316455841 6.2162556648254395 31 31 31
-0.4975934326648712 2.019190549850464 6.474236011505127 54 54 54
-0.4829294979572296 -1.609314203262329 6.005224704742432 64 64 64
-0.47473612427711487 -2.0696773529052734 5.9154953956604 78 78 78
-0.5003483295440674 0.05320874974131584 6.2805023193359375 61 61 61
-0.5216892957687378 0.7393711805343628 6.3828816413879395 94 94 94
-0.49922975897789 0.15969423949718475 6.296775817871094 58 58 58
-0.45221418142318726 -3.2792670726776123 5.7426886558532715 30 30 30
-0.47095590829849243 -1.6668893098831177 5.975986003875732 87 87 87
-0.4238518178462982 -2.881643533706665 5.6658501625061035 63 63 63
-0.4390154480934143 -2.0758535861968994 5.857148170471191 65 65 65
-0.48573923110961914 -0.43915998935699463 6.189713478088379 69 69 69
-0.44821596145629883 -3.445303440093994 5.709286212921143 20 20 20
-0.44488629698753357 -3.3610217571258545 5.693607807159424 19 19 19
-0.5035697817802429 1.107007622718811 6.4918622970581055 71 71 71
-0.45637181401252747 -1.9551178216934204 5.980960845947266 52 52 52
-0.4237598776817322 -2.6969923973083496 5.817431449890137 34 34 34
-0.4320017695426941 -3.05907940864563 5.772688865661621 40 40 40
-0.45201602578163147 -1.3603193759918213 6.072146415710449 50 50 50
-0.4895465075969696 2.636568307876587 6.713535308837891 46 46 46
-0.43129098415374756 -2.070558547973633 5.957833766937256 58 58 58
-0.4563259482383728 0.095554880797863 6.307549953460693 93 93 93
-0.44699326157569885 -0.5943679213523865 6.204679489135742 66 66 66
-0.442909300327301 1.1730653047561646 6.48222541809082 23 23 23
-0.4109507203102112 -3.208181142807007 5.689922332763672 49 49 49
-0.4424695074558258 -1.6861845254898071 6.052475929260254 89 89 89
-0.421256959438324 -1.5860947370529175 6.035462856292725 51 51 51
-0.4471569359302521 0.7412053346633911 6.422836780548096 23 23 23
-0.44017085433006287 -0.4983530044555664 6.334068298339844 88 88 88
-0.3962978422641754 -3.098400592803955 5.777220726013184 25 25 25
-0.3925253450870514 -3.164940595626831 5.7544074058532715 46 46 46
-0.3948589861392975 -2.9839651584625244 5.793555736541748 66 66 66
-0.3996421694755554 -2.659054756164551 5.872220516204834 53 53 53
-0.4140545129776001 -0.9900508522987366 6.144392490386963 90 90 90
-0.40860220789909363 -0.9562858939170837 6.131625175476074 75 75 75
-0.3842438757419586 -1.7032618522644043 6.024045944213867 35 35 35
-0.40790221095085144 0.6663349270820618 6.336960792541504 143 143 143
-0.37779244780540466 -1.4124881029129028 6.063624382019043 72 72 72
-0.4129388630390167 -0.7327507138252258 6.248379707336426 76 76 76
-0.38334789872169495 -2.906618118286133 5.814050674438477 64 64 64
-0.3692316710948944 -2.3471627235412598 5.91715669631958 38 38 38
-0.40276506543159485 -0.7239871025085449 6.203466415405273 76 76 76
-0.4189020097255707 0.7501963973045349 6.453941345214844 53 53 53
-0.39268550276756287 -1.584161639213562 6.047782897949219 59 59 59
-0.42680057883262634 0.9200051426887512 6.441202640533447 127 127 127
-0.36517032980918884 -3.3133792877197266 5.74678897857666 81 81 81
-0.37670159339904785 -2.136239767074585 5.951396465301514 94 94 94
-0.3990723788738251 0.4167124629020691 6.35349702835083 47 47 47
-0.3639673590660095 -2.9751996994018555 5.824031352996826 32 32 32
-0.397140234708786 0.2418994903564453 6.430850505828857 82 82 82
-0.36121082305908203 -0.4827651083469391 6.116761684417725 82 82 82
-0.35675257444381714 -3.049560546875 5.79123067855835 99 99 99
-0.3732069432735443 -0.802483320236206 6.166590213775635 70 70 70
-0.3568621575832367 -2.0372838973999023 5.974512577056885 26 26 26
-0.32996949553489685 -1.6553715467453003 5.915156364440918 25 25 25
-0.374663382768631 -0.12174379825592041 6.290222644805908 66 66 66
-0.3432909846305847 -3.154740571975708 5.776017189025879 23 23 23
-0.34581422805786133 -2.659301996231079 5.87096643447876 98 98 98
-0.36114701628685 0.9993191957473755 6.530997276306152 130 130 130
-0.36520689725875854 1.0896899700164795 6.358819961547852 93 93 93
-0.3543126583099365 -0.32292482256889343 6.313624858856201 48 48 48
-0.3543573319911957 -0.9657813906669617 6.244048595428467 52 52 52
-0.35278233885765076 0.10824523121118546 6.34531831741333 38 38 38
-0.32271191477775574 -2.2954671382904053 5.939171314239502 104 104 104
-0.317338228225708 -0.7294289469718933 6.097386837005615 78 78 78
-0.29713043570518494 -2.8534493446350098 5.860106468200684 56 56 56
-0.32779237627983093 0.6106009483337402 6.463174343109131 23 23 23
-0.3162707984447479 -0.20434428751468658 6.2894721031188965 89 89 89
-0.2985323369503021 -0.27235883474349976 6.296009063720703 56 56 56
-0.31078627705574036 0.3553135097026825 6.403670787811279 81 81 81
-0.28412675857543945 -2.7698140144348145 5.870810031890869 46 46 46
-0.29534488916397095 -1.373144507408142 6.137216091156006 24 24 24
-0.2998647391796112 -0.7021585702896118 6.252851486206055 20 20 20
-0.28574007749557495 -2.302034378051758 5.954513072967529 63 63 63
-0.288556843996048 0.9993159770965576 6.543348789215088 93 93 93
-0.26761704683303833 -3.3401589393615723 5.781437873840332 60 60 60
-0.26761704683303833 -3.3401589393615723 5.781437873840332 60 60 60
-0.295698881149292 0.716285765171051 6.455789089202881 49 49 49
-0.25796815752983093 -1.33393394947052 6.084081172943115 100 100 100
-0.2874303460121155 -0.5301640033721924 6.287433624267578 87 87 87
-0.28650784492492676 0.0019704631995409727 6.354740142822266 80 80 80
-0.288769006729126 0.5052788257598877 6.431657314300537 43 43 43
-0.27755701541900635 -0.6704265475273132 6.238012790679932 74 74 74
-0.29032689332962036 0.9673365354537964 6.5252509117126465 50 50 50
-0.275360107421875 -0.11664514243602753 6.334512710571289 47 47 47
-0.27760550379753113 0.21298901736736298 6.387593746185303 43 43 43
-0.27760550379753113 0.21298901736736298 6.387593746185303 43 43 43
-0.26304176449775696 -1.661800742149353 6.054650783538818 48 48 48
-0.24740873277187347 -2.9615046977996826 5.838879108428955 61 61 61
-0.263786643743515 -0.4388452470302582 6.27747917175293 83 83 83
-0.24014832079410553 -0.09598898142576218 6.306245803833008 48 48 48
-0.24583981931209564 0.38644668459892273 6.429844856262207 62 62 62
-0.21895718574523926 -2.822702169418335 5.884060859680176 67 67 67
-0.2137557864189148 -3.5674376487731934 5.736272811889648 30 30 30
-0.20828114449977875 -2.9070379734039307 5.872396469116211 39 39 39
-0.2237693816423416 -0.21764039993286133 6.317124366760254 47 47 47
-0.2250579297542572 0.13830210268497467 6.402547836303711 60 60 60
-0.21041493117809296 -1.9933850765228271 6.0142011642456055 76 76 76
-0.1916399449110031 -2.709869861602783 5.957305431365967 58 58 58
-0.22379258275032043 0.5760102272033691 6.5197062492370605 54 54 54
-0.19987443089485168 -2.671719789505005 5.932763576507568 66 66 66
-0.21334965527057648 0.5689550042152405 6.465027809143066 53 53 53
-0.21058307588100433 0.6098498702049255 6.465154647827148 68 68 68
-0.18307560682296753 -3.4823625087738037 5.770226955413818 30 30 30
-0.20249266922473907 0.5113174915313721 6.465480327606201 47 47 47
-0.1807432472705841 -3.000492572784424 5.880831718444824 53 53 53
-0.18002748489379883 -2.8276009559631348 5.961536407470703 54 54 54
-0.1770145297050476 -1.94208562374115 5.913051605224609 46 46 46
-0.17769871652126312 -2.1269335746765137 5.992123126983643 59 59 59
-0.18923601508140564 -2.325108766555786 5.912562847137451 32 32 32
-0.18514692783355713 -0.08886399865150452 6.368845462799072 60 60 60
-0.17122380435466766 -2.252178907394409 5.987334728240967 79 79 79
-0.15207035839557648 -0.07550966739654541 6.213708400726318 46 46 46
-0.15357157588005066 -2.7583255767822266 5.829158782958984 40 40 40
-0.16215476393699646 0.4854726493358612 6.4796857833862305 51 51 51
-0.13565033674240112 -0.14731453359127045 6.345370769500732 43 43 43
-0.13788938522338867 -3.547382354736328 5.704007625579834 15 15 15
-0.13653071224689484 -3.5416152477264404 5.696742534637451 15 15 15
-0.15627440810203552 0.8738579750061035 6.569754123687744 43 43 43
-0.13796889781951904 -2.8796560764312744 5.9049458503723145 39 39 39
-0.13824179768562317 -2.156087636947632 6.029831409454346 42 42 42
-0.14192940294742584 -1.085918664932251 6.206331729888916 35 35 35
-0.11931587755680084 0.9512167572975159 6.425131797790527 56 56 56
-0.12415088713169098 -1.4033820629119873 6.1509222984313965 48 48 48
-0.12461481988430023 -1.3429617881774902 6.183919906616211 59 59 59
-0.11734848469495773 -2.349468469619751 6.110898971557617 63 63 63
-0.12241934984922409 0.9759567975997925 6.592101573944092 50 50 50
-0.09143122285604477 0.5937718749046326 6.40535831451416 38 38 38
-0.02929595112800598 1.097111463546753 6.032616138458252 82 82 82
-0.02149929292500019 1.072441816329956 6.334327220916748 67 67 67
-0.010291632264852524 1.1367394924163818 6.10042142868042 69 69 69
0.057649821043014526 1.267846941947937 5.609249591827393 91 91 91
0.08453596383333206 1.3679224252700806 5.042839050292969 121 121 121
0.21654489636421204 1.2150770425796509 5.642522811889648 70 70 70
0.24802282452583313 1.2911018133163452 5.397757530212402 50 50 50
0.2503385543823242 1.4754990339279175 4.574728012084961 76 76 76
0.33919891715049744 1.42034113407135 4.818406581878662 111 111 111
0.39364543557167053 1.3851147890090942 5.008887767791748 26 26 26
0.41875913739204407 1.2942328453063965 5.168203830718994 40 40 40
0.37496331334114075 1.5092533826828003 4.392045497894287 65 65 65
0.4568771719932556 1.4635733366012573 4.6095051765441895 106 106 106
0.41451528668403625 1.6064759492874146 3.9498043060302734 98 98 98
0.5041270852088928 1.635658860206604 3.8078360557556152 167 167 167
0.5938339233398438 1.6817636489868164 3.576975107192993 115 115 115
0.730158805847168 1.561498761177063 4.103587627410889 91 91 91
0.7495572566986084 0.7534943222999573 4.081580638885498 10 10 10
0.7360307574272156 0.5957728624343872 4.070018768310547 42 42 42
0.7534392476081848 1.1242386102676392 4.169005393981934 6 6 6
0.7408117651939392 0.458202064037323 4.041775703430176 37 37 37
0.7209975123405457 0.29631561040878296 3.9475975036621094 40 40 40
0.7209975123405457 0.29631561040878296 3.9475975036621094 40 40 40
0.7557171583175659 0.9919451475143433 4.109964370727539 17 17 17
0.7280280590057373 0.07221642136573792 3.9680097103118896 34 34 34
0.7495623826980591 0.7535013556480408 4.081620216369629 10 10 10
0.7138132452964783 -0.3732154965400696 3.880976438522339 45 45 45
0.7621291875839233 0.9659059047698975 4.128692150115967 38 38 38
0.7692956328392029 1.1051594018936157 4.165042400360107 70 70 70
0.7694457173347473 1.1039143800735474 4.162068843841553 71 71 71
0.7524596452713013 0.39203768968582153 4.0335235595703125 32 32 32
0.779532790184021 1.3751922845840454 4.231351375579834 101 101 101
0.7455247044563293 0.27408480644226074 4.008194923400879 15 15 15
0.7044896483421326 -1.1000245809555054 3.744978666305542 67 67 67
0.7507114410400391 1.5919312238693237 3.9589948654174805 105 105 105
0.7364652156829834 -0.4546380639076233 3.8693857192993164 23 23 23
0.7685995697975159 0.39671075344085693 4.033686637878418 52 52 52
0.7288916110992432 -0.5733646154403687 3.847646951675415 24 24 24
0.7432281970977783 -0.34015199542045593 3.907719612121582 28 28 28
0.6460250020027161 1.7307711839675903 3.370854139328003 87 87 87
0.7306919693946838 -0.6955837607383728 3.8166637420654297 72 72 72
0.7306919693946838 -0.6955837607383728 3.8166637420654297 72 72 72
0.7597950100898743 0.14909324049949646 3.98207950592041 51 51 51
0.7865503430366516 0.6862769722938538 4.082090377807617 34 34 34
0.796147882938385 0.7256028652191162 4.0923614501953125 35 35 35
0.7758915424346924 0.23009730875492096 4.019723415374756 29 29 29
0.793333113193512 0.746260404586792 4.100331783294678 49 49 49
0.793333113193512 0.746260404586792 4.100331783294678 49 49 49
0.7283834218978882 -1.0663671493530273 3.7526774406433105 163 163 163
0.7831778526306152 0.34362590312957764 4.046281337738037 52 52 52
0.7279223203659058 -1.0676695108413696 3.7587976455688477 92 92 92
0.7405819296836853 -0.9753094911575317 3.7873733043670654 230 230 230
0.810367226600647 0.7825776934623718 4.127429485321045 29 29 29
0.7961443066596985 0.7256381511688232 4.092466354370117 35 35 35
0.8099400997161865 1.3678861856460571 4.090252876281738 65 65 65
0.788854718208313 0.02010452374815941 3.978811502456665 25 25 25
0.7999213337898254 0.3128215968608856 4.030247211456299 33 33 33
0.7128798961639404 -2.0924594402313232 3.557248592376709 24 24 24
0.8068203330039978 0.4942493438720703 4.078755855560303 39 39 39
0.7620995044708252 -0.8014692664146423 3.8085386753082275 253 253 253
0.8428905010223389 1.280442476272583 4.208293914794922 29 29 29
0.8322370648384094 0.6622263789176941 4.090927600860596 53 53 53
0.8322370648384094 0.6622263789176941 4.090927600860596 53 53 53
0.756625771522522 -1.0908221006393433 3.7627460956573486 222 222 222
0.7915081977844238 -0.4120686948299408 3.8975048065185547 32 32 32
0.8188217282295227 0.053301673382520676 3.9920427799224854 30 30 30
0.8464646339416504 0.4973292648792267 4.093591213226318 31 31 31
0.8530167937278748 0.5675367712974548 4.094357967376709 51 51 51
0.864080548286438 0.8787429928779602 4.1427435874938965 41 41 41
0.8710446357727051 1.3595227003097534 4.161284446716309 65 65 65
0.7018322348594666 1.7428221702575684 3.3103549480438232 99 99 99
0.8474693298339844 0.009389554150402546 3.997117280960083 52 52 52
0.8544677495956421 0.010882229544222355 4.009278774261475 44 44 44
0.8654788136482239 0.05096117779612541 4.013338565826416 33 33 33
0.863010585308075 -0.11057703197002411 3.987291097640991 31 31 31
0.9177563786506653 0.9428765773773193 4.226905822753906 48 48 48
0.9298349618911743 1.3720242977142334 4.2118144035339355 70 70 70
0.8758007884025574 -0.2717551589012146 3.935184955596924 43 43 43
0.9392718076705933 1.3587725162506104 4.248977184295654 165 165 165
0.9496623873710632 1.1758854389190674 4.290370941162109 17 17 17
0.9110457897186279 1.375937581062317 4.087195873260498 57 57 57
0.8680047988891602 1.4266148805618286 3.8916642665863037 71 71 71
0.8653836250305176 -0.6699582934379578 3.8684544563293457 53 53 53
0.7249751687049866 1.7513079643249512 3.217961311340332 78 78 78
0.8452132940292358 1.6540377140045166 3.707500457763672 121 121 121
0.9491003751754761 1.3740679025650024 4.160221099853516 67 67 67
0.7603739500045776 1.7440158128738403 3.3003416061401367 108 108 108
0.7294312119483948 1.7773348093032837 3.1255810260772705 87 87 87
0.9771600961685181 1.3618197441101074 4.239907741546631 146 146 146
0.9932487607002258 1.0675380229949951 4.282444477081299 49 49 49
0.9939999580383301 0.9946383237838745 4.280217170715332 30 30 30
1.0174872875213623 1.2585539817810059 4.333287715911865 144 144 144
0.861735463142395 1.6626052856445312 3.6312084197998047 119 119 119
0.9849544763565063 1.383409857749939 4.146528720855713 71 71 71
1.001988410949707 1.3599271774291992 4.207834720611572 135 135 135
1.0341477394104004 1.3043509721755981 4.331063270568848 42 42 42
0.9501124024391174 1.4493699073791504 4.002163410186768 10 10 10
0.7919446229934692 1.779174566268921 3.257972478866577 79 79 79
1.0565886497497559 1.3425002098083496 4.3334856033325195 109 109 109
0.9651102423667908 -0.7522795796394348 3.954568862915039 59 59 59
0.9706394076347351 1.4263466596603394 3.95849871635437 29 29 29
0.99396812915802 -0.6793960332870483 3.963984966278076 24 24 24
1.0638468265533447 0.8025142550468445 4.218240261077881 73 73 73
1.0183422565460205 1.4140146970748901 4.024734973907471 58 58 58
0.8294669389724731 1.7486826181411743 3.2379202842712402 76 76 76
0.8407863974571228 1.753340721130371 3.2696824073791504 68 68 68
0.8060606122016907 1.7854905128479004 3.1059556007385254 57 57 57
0.9000751376152039 1.7105746269226074 3.4530460834503174 97 97 97
0.9000751376152039 1.7105746269226074 3.4530460834503174 97 97 97
1.1191987991333008 1.3392852544784546 4.2873735427856445 140 140 140
0.9959800839424133 1.4505916833877563 3.7904794216156006 20 20 20
0.8339622616767883 1.7670096158981323 3.1799323558807373 92 92 92
1.0574291944503784 -0.5589306354522705 3.9838004112243652 88 88 88
1.0547609329223633 -0.8148157596588135 3.942950487136841 81 81 81
0.9160348176956177 1.7204501628875732 3.4097094535827637 64 64 64
1.1586467027664185 1.2710450887680054 4.296671390533447 255 255 255
1.1586467027664185 1.2710450887680054 4.296671390533447 255 255 255
0.8469637036323547 1.7798906564712524 3.130376100540161 88 88 88
0.9001546502113342 1.765959620475769 3.2111334800720215 67 67 67
1.182686448097229 0.6633039116859436 4.207952976226807 25 25 25
1.1737935543060303 0.18728040158748627 4.138145446777344 47 47 47
1.1575238704681396 0.13588781654834747 4.1078290939331055 57 57 57
1.1366978883743286 -0.5785171389579773 4.013859748840332 51 51 51
1.0092641115188599 1.4721150398254395 3.5634498596191406 42 42 42
1.1427186727523804 -0.5644834637641907 4.007694721221924 45 45 45
1.152888298034668 -0.2976498603820801 4.032060623168945 131 131 131
1.1551474332809448 -0.32390376925468445 4.026926040649414 128 128 128
1.1717991828918457 -0.12155169993638992 4.070651531219482 38 38 38
1.1464256048202515 -0.769705057144165 3.9608840942382812 128 128 128
1.1476250886917114 1.409372329711914 3.974590539932251 63 63 63
1.1709123849868774 -0.40160301327705383 4.020360946655273 12 12 12
1.1709123849868774 -0.40160301327705383 4.020360946655273 12 12 12
1.1537411212921143 -0.789845883846283 3.947446584701538 102 102 102
1.179490327835083 -0.43523651361465454 4.002289772033691 87 87 87
1.181026816368103 -0.25684475898742676 4.03681755065918 72 72 72
1.153566837310791 -0.9565264582633972 3.908848762512207 95 95 95
1.1843675374984741 -0.48784521222114563 3.996013641357422 141 141 141
1.1829314231872559 -0.5358574986457825 3.9902608394622803 144 144 144
1.1829314231872559 -0.5358574986457825 3.9902608394622803 144 144 144
1.0504311323165894 1.5129750967025757 3.530466079711914 70 70 70
1.1648155450820923 -0.9892510771751404 3.8978371620178223 42 42 42
1.1902168989181519 -0.7968364357948303 3.944115400314331 59 59 59
1.0881917476654053 1.50752854347229 3.5822842121124268 51 51 51
1.06169593334198 1.5156285762786865 3.4913837909698486 62 62 62
1.0432653427124023 1.525801181793213 3.414933919906616 76 76 76
0.9326193332672119 1.8098474740982056 3.02690052986145 88 88 88
1.2495323419570923 1.2080527544021606 4.026233196258545 148 148 148
1.0758378505706787 1.5094629526138306 3.4557323455810547 78 78 78
1.0327774286270142 1.7161931991577148 3.2708942890167236 63 63 63
1.0962212085723877 1.5081652402877808 3.489739418029785 79 79 79
0.9853788614273071 1.7800745964050293 3.101088285446167 84 84 84
1.06846022605896 1.522678256034851 3.383091688156128 76 76 76
1.1566216945648193 1.4930756092071533 3.634744167327881 122 122 122
1.1110060214996338 1.511387586593628 3.4441897869110107 30 30 30
1.0953186750411987 1.793346881866455 3.204772710800171 77 77 77
1.4659055471420288 0.39997589588165283 4.241050720214844 28 28 28
1.1277153491973877 1.5592503547668457 3.276278257369995 146 146 146
1.4626836776733398 1.0662577152252197 4.224819183349609 132 132 132
1.1510846614837646 1.5514872074127197 3.3319191932678223 41 41 41
1.2077264785766602 1.5346750020980835 3.466313600540161 108 108 108
1.154391884803772 1.559269905090332 3.2646684646606445 85 85 85
1.4625027179718018 -0.182892844080925 4.121419906616211 20 20 20
1.2446166276931763 1.5235137939453125 3.4427666664123535 117 117 117
1.1011656522750854 1.7871865034103394 3.0691990852355957 66 66 66
1.1961934566497803 1.5765092372894287 3.20644211769104 23 23 23
1.131428837776184 1.6029467582702637 3.0449702739715576 59 59 59
1.1563594341278076 1.597212553024292 3.0786192417144775 100 100 100
1.3512338399887085 1.5030040740966797 3.5297069549560547 31 31 31
1.1624207496643066 1.6316765546798706 3.0511136054992676 62 62 62
1.1877297163009644 1.5895546674728394 3.0264744758605957 78 78 78
1.1877297163009644 1.5895546674728394 3.0264744758605957 78 78 78
1.423875093460083 1.2107317447662354 3.6167941093444824 58 58 58
1.423875093460083 1.2107317447662354 3.6167941093444824 58 58 58
1.6651051044464111 -0.13446469604969025 4.1910552978515625 95 95 95
1.6651051044464111 -0.13446469604969025 4.1910552978515625 95 95 95
1.1855524778366089 1.6077148914337158 2.9799349308013916 118 118 118
1.244614839553833 1.6124444007873535 3.0337600708007812 96 96 96
1.354305386543274 -1.0811463594436646 3.261580228805542 141 141 141
1.7304737567901611 -0.38216695189476013 4.176948547363281 95 95 95
1.2253856658935547 1.6198474168777466 2.955328941345215 103 103 103
1.1953436136245728 1.6406543254852295 2.8786191940307617 81 81 81
1.3783400058746338 1.5756877660751343 3.252275228500366 109 109 109
1.4785338640213013 1.2405091524124146 3.4713258743286133 40 40 40
1.279854655265808 1.6172631978988647 2.9901678562164307 69 69 69
1.2489994764328003 1.6357409954071045 2.9044055938720703 101 101 101
1.2341398000717163 1.6426340341567993 2.8681623935699463 49 49 49
1.3492931127548218 1.602089285850525 3.1250808238983154 82 82 82
1.3461750745773315 1.6010304689407349 3.11133074760437 69 69 69
1.8308273553848267 -0.3916774392127991 4.225064754486084 66 66 66
1.4796251058578491 1.3392057418823242 3.3766891956329346 50 50 50
1.3004796504974365 1.621739387512207 2.974010705947876 72 72 72
1.3990662097930908 -1.0833420753479004 3.1121978759765625 204 204 204
1.3839430809020996 1.6208847761154175 3.0659382343292236 78 78 78
1.298509120941162 1.6370514631271362 2.860043525695801 59 59 59
1.3602654933929443 1.6524934768676758 2.9924027919769287 53 53 53
1.6860812902450562 1.2040736675262451 3.6353466510772705 60 60 60
1.4171359539031982 -1.0422979593276978 3.0631775856018066 144 144 144
1.414753794670105 1.6307344436645508 3.0029385089874268 75 75 75
1.4197273254394531 1.642457127571106 2.9492199420928955 134 134 134
1.4070783853530884 1.6631250381469727 2.884904623031616 86 86 86
1.415439248085022 1.6329656839370728 2.8801097869873047 99 99 99
-2.5487334728240967 1.7829442024230957 6.0159831047058105 6 6 6
-0.7490043640136719 0.9729809165000916 6.375222682952881 46 46 46
1.1862305402755737 -0.20673787593841553 4.076858997344971 136 136 136
-0.7743000388145447 0.3443794846534729 6.283545970916748 5 5 5
-0.8652865290641785 -1.6932469606399536 5.948024749755859 89 89 89
-0.6017408967018127 0.6824949979782104 6.408680438995361 172 172 172
1.0866211652755737 1.2891615629196167 4.300349712371826 139 139 139
-1.5750455856323242 2.0700223445892334 6.3314528465271 66 66 66
-0.7742508053779602 0.34438198804855347 6.283377647399902 5 5 5
-0.782699465751648 -1.6826677322387695 5.9277238845825195 143 143 143
0.024315470829606056 -1.253200888633728 5.840567111968994 118 118 118
-0.7072100639343262 0.6939039826393127 6.365165710449219 192 192 192
-0.34817618131637573 0.33903366327285767 6.415551662445068 171 171 171
1.1847741603851318 -0.41599953174591064 4.012155532836914 162 162 162
-1.1760913133621216 1.0485142469406128 6.276922225952148 105 105 105
1.4710761308670044 0.38105735182762146 4.2470550537109375 119 119 119
-2.158992052078247 -1.2819387912750244 5.550247669219971 51 51 51
1.165633201599121 1.4958664178848267 3.6035404205322266 138 138 138
-0.7885029315948486 0.31803393363952637 6.268901824951172 119 119 119
-2.5291571617126465 0.7978737950325012 5.808952808380127 50 50 50
0.9929547309875488 1.492771863937378 3.5953526496887207 119 119 119
-0.576545000076294 0.7402028441429138 6.325320243835449 138 138 138
-0.8786610960960388 -0.6368144154548645 6.079494476318359 34 34 34
-0.758274495601654 0.6991432905197144 6.363678932189941 80 80 80
0.722746729850769 -1.1040289402008057 3.7375595569610596 124 124 124
-0.7582923769950867 0.6991598606109619 6.363803386688232 80 80 80
-1.1760176420211792 1.0484378337860107 6.276717185974121 105 105 105
-1.0195887088775635 1.3683022260665894 6.350086212158203 154 154 154
0.773550808429718 -1.1241499185562134 3.782578706741333 143 143 143
0.7735499739646912 -1.1241555213928223 3.782595157623291 143 143 143
-1.6117042303085327 1.3823864459991455 6.046353340148926 87 87 87
0.7735503911972046 -1.1241556406021118 3.7825894355773926 143 143 143
-1.663377285003662 -0.5880810618400574 5.855873107910156 21 21 21
-0.4376769959926605 0.9306740164756775 6.489213466644287 133 133 133
0.7039329409599304 -0.7968113422393799 3.7690236568450928 142 142 142
0.7937905192375183 -0.8822713494300842 3.8200244903564453 198 198 198
-0.8011361956596375 -1.3287302255630493 5.983242034912109 161 161 161
-1.692679524421692 -0.572303056716919 5.79964542388916 149 149 149
-1.2442165613174438 0.689079225063324 6.172877311706543 180 180 180
-1.6307889223098755 -2.0252649784088135 5.560608863830566 195 195 195
-0.5855759978294373 0.7422096133232117 6.361155033111572 157 157 157
-0.6231451034545898 0.7519356608390808 6.38105583190918 173 173 173
0.9232159852981567 1.3652591705322266 4.25594425201416 124 124 124
-2.14324951171875 0.7640136480331421 5.960837364196777 56 56 56
-0.7703930139541626 0.9680886268615723 6.321177959442139 47 47 47
-0.7553166151046753 0.9808689951896667 6.429056644439697 104 104 104
0.9382697343826294 1.3537869453430176 4.2434773445129395 186 186 186
-0.4429256319999695 1.1730694770812988 6.48229455947876 23 23 23
-0.9577086567878723 1.2227376699447632 6.3508453369140625 121 121 121
-0.3611500561237335 0.9993218183517456 6.531041145324707 130 130 130
1.3769688606262207 1.1832202672958374 3.790099859237671 53 53 53
-0.28857308626174927 0.9993254542350769 6.543427467346191 93 93 93
-0.5850398540496826 0.7422241568565369 6.358935832977295 157 157 157
-2.572772979736328 -1.2315877676010132 5.457498550415039 15 15 15
-1.1305203437805176 2.013471841812134 6.4869384765625 79 79 79
0.5479584336280823 1.4583324193954468 4.574351787567139 65 65 65
-0.5242668390274048 0.7383838891983032 6.393640995025635 106 106 106
-1.63097083568573 -2.0255091190338135 5.561244010925293 195 195 195
0.8421550989151001 -0.800262987613678 3.842665433883667 131 131 131
-2.572813034057617 -1.2315913438796997 5.457555294036865 15 15 15
-0.7425909042358398 0.7314481735229492 6.336845397949219 144 144 144
0.02805696614086628 -1.2322864532470703 5.912478446960449 134 134 134
-1.264037847518921 -1.3337571620941162 5.8326897621154785 26 26 26
-0.7582799792289734 0.6991444230079651 6.363696098327637 80 80 80
-2.143305778503418 0.76402348279953 5.960941314697266 56 56 56
0.9963855147361755 1.2335301637649536 4.30838680267334 76 76 76
1.0719975233078003 1.4213982820510864 3.984518051147461 167 167 167
-0.3481762111186981 0.3390411138534546 6.415536403656006 171 171 171
-1.1448408365249634 1.382644534111023 6.316470623016357 158 158 158
-1.03080415725708 1.0305293798446655 6.282986164093018 177 177 177
-1.1936986446380615 0.44019925594329834 6.1363606452941895 208 208 208
1.1959055662155151 1.0688259601593018 4.240478038787842 104 104 104
-2.5409321784973145 2.1346068382263184 6.077187538146973 19 19 19
-2.564192056655884 -0.20637007057666779 5.685431957244873 33 33 33
-2.540987491607666 2.1346352100372314 6.077281475067139 19 19 19
1.0528427362442017 1.4125524759292603 4.0142340660095215 152 152 152
-2.530259847640991 2.4423630237579346 6.1346635818481445 44 44 44
-1.6415554285049438 1.0520957708358765 6.1358642578125 12 12 12
-0.865257203578949 -1.693206548690796 5.947873115539551 89 89 89
-0.949633002281189 1.036699652671814 6.371339797973633 166 166 166
1.052842617034912 1.4125521183013916 4.014233589172363 152 152 152
-0.7397236824035645 1.660457968711853 6.525195598602295 20 20 20
-2.5246517658233643 1.1211434602737427 5.893341541290283 23 23 23
-2.19905948638916 -0.22558212280273438 5.767346382141113 79 79 79
-2.613574981689453 0.1265747994184494 5.634289264678955 59 59 59
1.197745442390442 1.0812218189239502 4.270481586456299 39 39 39
-2.1507210731506348 -0.2166801542043686 5.738764762878418 16 16 16
-2.1657254695892334 0.0849037766456604 5.835482120513916 90 90 90
-1.818937063217163 0.4125179052352905 5.9719085693359375 31 31 31
1.041113257408142 1.2469813823699951 4.340991497039795 170 170 170
-0.8306065201759338 1.019437551498413 6.315209865570068 89 89 89
-2.1087021827697754 1.1912305355072021 6.060091972351074 16 16 16
-2.12318754196167 0.46106401085853577 5.882359504699707 203 203 203
1.2837828397750854 1.6113245487213135 2.8961269855499268 67 67 67
-0.3733505308628082 0.8709339499473572 6.453152179718018 85 85 85
1.0062865018844604 1.3716951608657837 4.056900501251221 109 109 109
-1.2338056564331055 0.04836698994040489 6.093876838684082 80 80 80
1.2270663976669312 1.1093342304229736 4.166242599487305 22 22 22
-2.5961475372314453 0.452155739068985 5.752557277679443 17 17 17
-0.9666070342063904 1.2476956844329834 6.312533855438232 142 142 142
0.7289410829544067 -0.942864179611206 3.7908313274383545 102 102 102
-1.1364493370056152 1.4098849296569824 6.352264404296875 159 159 159
1.0221229791641235 1.3914265632629395 4.121226787567139 186 186 186
-1.233842134475708 0.048376649618148804 6.093935012817383 80 80 80
-1.2701197862625122 0.026994146406650543 6.052703380584717 64 64 64
-2.087453603744507 1.1956946849822998 6.072598934173584 15 15 15
1.0174870491027832 1.258550763130188 4.333271026611328 144 144 144
-1.2202491760253906 0.5044721961021423 6.202287197113037 71 71 71
-2.095855951309204 0.4923766851425171 5.8701653480529785 234 234 234
-1.1717926263809204 1.3624558448791504 6.364777088165283 53 53 53
-0.34817856550216675 0.3390398621559143 6.415539264678955 171 171 171
-1.1717915534973145 1.362474799156189 6.364795207977295 53 53 53
-1.1717995405197144 1.3624767065048218 6.364832878112793 53 53 53
-1.0454531908035278 1.4078145027160645 6.531260013580322 91 91 91
0.7296381592750549 -0.8208067417144775 3.809406042098999 98 98 98
-1.6767128705978394 -0.295773446559906 5.914112567901611 6 6 6
-2.0937659740448 0.7731981873512268 5.929251670837402 40 40 40
-0.5269021987915039 0.8268123269081116 6.4051899909973145 152 152 152
-0.342873215675354 -0.02138892374932766 6.3314690589904785 21 21 21
-1.2218505144119263 -0.6140434145927429 5.9698686599731445 21 21 21
-1.092198133468628 1.5668277740478516 6.403207778930664 157 157 157
-1.0922679901123047 1.5668740272521973 6.403421878814697 157 157 157
-0.9577125310897827 1.2230020761489868 6.353243350982666 121 121 121
0.9431139826774597 1.3702704906463623 4.235666751861572 149 149 149
-0.4391579031944275 0.7824570536613464 6.430930137634277 40 40 40
-0.738481342792511 0.6785710453987122 6.197655200958252 100 100 100
-1.0197267532348633 1.3683909177780151 6.3505096435546875 154 154 154
-2.1638383865356445 0.27986598014831543 5.814284324645996 177 177 177
1.283782958984375 1.6113249063491821 2.896127700805664 67 67 67
-0.8000686764717102 -1.7133362293243408 5.889440059661865 65 65 65
-0.3447824716567993 -0.01851026341319084 6.334875583648682 13 13 13
0.7652411460876465 1.2714381217956543 4.1972575187683105 76 76 76
-0.8001028895378113 -1.7133655548095703 5.8895487785339355 65 65 65
-1.2081351280212402 -0.304994136095047 6.031660556793213 17 17 17
-1.2603024244308472 0.05704266577959061 6.087502956390381 29 29 29
-2.524643659591675 1.1211365461349487 5.893332481384277 23 23 23
0.7227495908737183 -1.1040273904800415 3.7375171184539795 124 124 124
-1.5915026664733887 2.3704993724823 6.345203399658203 83 83 83
-1.2888853549957275 -1.620215654373169 5.829090118408203 71 71 71
-1.0533452033996582 -1.2732959985733032 5.8964691162109375 7 7 7
0.7577583193778992 1.249692440032959 4.169196128845215 98 98 98
-0.12247388064861298 0.9767160415649414 6.59483528137207 50 50 50
-0.26328882575035095 0.8535221815109253 6.502432346343994 28 28 28
-1.1635984182357788 1.4489175081253052 6.3302226066589355 21 21 21
-2.1432383060455322 0.7640008926391602 5.960817813873291 56 56 56
1.3425664901733398 1.1617114543914795 3.8531417846679688 196 196 196
-0.7972673177719116 -0.6273714303970337 6.100414276123047 49 49 49
-0.9583740830421448 1.1001511812210083 6.336334228515625 141 141 141
-2.0650036334991455 0.5710843205451965 5.783767223358154 33 33 33
-1.2203004360198975 0.5042234063148499 6.202584266662598 71 71 71
1.0569825172424316 1.4210267066955566 3.991170644760132 189 189 189
-0.9442073106765747 -3.3685312271118164 5.6144866943359375 128 128 128
-0.8286222219467163 1.021349549293518 6.317774295806885 89 89 89
-1.683194637298584 -0.965478241443634 5.757684230804443 71 71 71
-1.708196997642517 -1.5020701885223389 5.6490912437438965 143 143 143
-2.4915409088134766 2.7315425872802734 6.005892276763916 67 67 67
-0.3352901041507721 -2.0449044704437256 6.025706768035889 23 23 23
-0.6957523226737976 -1.6761329174041748 5.908646583557129 186 186 186
-0.7998798489570618 -2.001680612564087 5.8855977058410645 150 150 150
-1.1607595682144165 1.4469000101089478 6.322142124176025 21 21 21
-2.5302107334136963 2.4423296451568604 6.134581089019775 44 44 44
-0.8987593054771423 1.073447585105896 6.3485918045043945 97 97 97
-0.6329707503318787 0.7420224547386169 6.379586219787598 162 162 162
0.7488486170768738 -0.6506850123405457 3.860135555267334 119 119 119
-1.8189030885696411 0.412513792514801 5.97183895111084 31 31 31
-0.5033730864524841 1.6543749570846558 6.586871147155762 52 52 52
-2.391186237335205 -0.9252523183822632 5.518855571746826 69 69 69
-0.6258185505867004 1.6371351480484009 6.512234687805176 109 109 109
-1.3388313055038452 0.713570773601532 6.2145514488220215 7 7 7
-2.39229679107666 0.11500459164381027 5.782503128051758 38 38 38
-2.319767475128174 1.0960333347320557 5.930245876312256 14 14 14
-1.2819647789001465 -1.3153096437454224 5.881887912750244 21 21 21
-0.2916412651538849 0.9038671851158142 6.518742084503174 76 76 76
-0.3409633934497833 -1.397019624710083 6.1355509757995605 89 89 89
-0.506500780582428 -1.0017117261886597 6.17266845703125 168 168 168
-1.062922477722168 0.70315021276474 6.2217936515808105 14 14 14
-1.714664340019226 0.0917971059679985 5.948013782501221 197 197 197
-2.2059452533721924 -0.9104050993919373 5.650014877319336 23 23 23
-1.5136792659759521 0.3986544609069824 6.193276882171631 59 59 59
-1.2640447616577148 -1.333763837814331 5.83270788192749 26 26 26
-1.1650006771087646 1.240472674369812 6.2391252517700195 97 97 97
-1.234129548072815 -0.6630872488021851 6.007269382476807 113 113 113
-2.5337655544281006 2.8092494010925293 6.16729211807251 20 20 20
1.1257503032684326 1.4797980785369873 3.777225971221924 78 78 78
-0.7743042707443237 0.34437626600265503 6.283545017242432 5 5 5
-1.28229558467865 -0.957266092300415 5.842276096343994 61 61 61
1.1855530738830566 1.6077157258987427 2.9799375534057617 118 118 118
-1.6443771123886108 -0.2545379400253296 5.8626298904418945 134 134 134
-2.7162063121795654 1.4383561611175537 5.814603328704834 132 132 132
-0.7397818565368652 1.6606067419052124 6.525691509246826 20 20 20
-1.0166313648223877 1.412862777709961 6.378537178039551 145 145 145
1.02365243434906 1.7628787755966187 3.1772148609161377 137 137 137
-2.199073553085327 -0.2255818098783493 5.767370223999023 79 79 79
-0.8475735187530518 -1.7137330770492554 6.032038688659668 168 168 168
-1.6606591939926147 -0.25667569041252136 5.8976311683654785 133 133 133
0.7306927442550659 -0.6955927014350891 3.8166704177856445 72 72 72
-2.5672247409820557 -0.23126158118247986 5.631596565246582 31 31 31
-1.23383367061615 0.04836955666542053 6.093907833099365 80 80 80
0.6868501901626587 -1.0004640817642212 3.758962392807007 119 119 119
0.7247406840324402 -1.0877331495285034 3.7592318058013916 101 101 101
-1.1418834924697876 1.9776867628097534 6.467330455780029 116 116 116
-0.34817466139793396 0.3390355408191681 6.415523052215576 171 171 171
0.7735503315925598 -1.1241538524627686 3.782588005065918 143 143 143
0.7227481603622437 -1.1040325164794922 3.737536668777466 124 124 124
