ply
format ascii 1.0
element vertex 725
property float x
property float y
property float z
property uchar red
property uchar green
property uchar blue
end_header
-0.227627232670784 2.5144569873809814 5.3647541999816895 131 131 131
-0.24155795574188232 0.12819629907608032 5.943485260009766 94 94 94
-0.24591977894306183 0.46389204263687134 6.117733478546143 60 60 60
-0.23474375903606415 -1.6273173093795776 5.909271240234375 102 102 102
-0.24133001267910004 0.5631645917892456 6.133830547332764 58 58 58
-0.23981323838233948 0.3158465027809143 6.080520153045654 75 75 75
-0.22642101347446442 -1.8991594314575195 5.947871208190918 73 73 73
-0.22187982499599457 -1.9397920370101929 5.935863494873047 71 71 71
-0.2268790751695633 -0.3111688196659088 6.141610145568848 98 98 98
-0.222027987241745 -1.3049662113189697 6.191720485687256 55 55 55
-0.21512548625469208 1.5024350881576538 6.084865093231201 48 48 48
-0.2242639660835266 0.654228925704956 6.355710506439209 68 68 68
-0.18026435375213623 2.606877326965332 4.880943775177002 54 54 54
-0.21748852729797363 1.3158397674560547 6.226150035858154 55 55 55
-0.21598370373249054 0.9656375050544739 6.21427583694458 68 68 68
-0.20830285549163818 -0.4251314699649811 6.048538684844971 106 106 106
-0.20066823065280914 -1.5286366939544678 5.944515705108643 99 99 99
-0.2072088122367859 0.5890751481056213 6.103625297546387 55 55 55
-0.2038620263338089 -0.3467651605606079 6.076993465423584 120 120 120
-0.20780926942825317 -1.5209258794784546 6.054754257202148 97 97 97
-0.17929278314113617 -1.5333168506622314 6.072854518890381 90 90 90
-0.18962249159812927 -0.19031943380832672 6.170079708099365 48 48 48
-0.1770998239517212 1.3325730562210083 6.364811897277832 53 53 53
-0.1770998239517212 1.3325730562210083 6.364811897277832 53 53 53
-0.16664376854896545 -2.001288414001465 5.962287902832031 40 40 40
-0.16982974112033844 1.0552537441253662 6.342091083526611 27 27 27
-0.15827462077140808 -1.8442320823669434 5.996743679046631 62 62 62
-0.16011272370815277 1.797369122505188 6.378694534301758 50 50 50
-0.15679389238357544 0.393842488527298 6.281513214111328 74 74 74
-0.15166224539279938 -1.0565733909606934 6.11995792388916 78 78 78
-0.1466173231601715 -0.1999272108078003 6.47452974319458 44 44 44
-0.14070016145706177 -0.22028867900371552 6.220834732055664 112 112 112
-0.13433343172073364 0.23265479505062103 6.106370449066162 85 85 85
-0.13311241567134857 -1.561760663986206 6.061515808105469 116 116 116
-0.1382870078086853 0.5914059281349182 6.351351737976074 60 60 60
-0.13264594972133636 -1.499822974205017 6.140425205230713 106 106 106
-0.13527131080627441 0.5887582898139954 6.3260016441345215 62 62 62
-0.11816922575235367 -2.1096322536468506 5.924069881439209 146 146 146
-0.11961958557367325 1.3073681592941284 6.3931779861450195 49 49 49
-0.11641889065504074 -1.5873373746871948 6.127728462219238 61 61 61
-0.11493096500635147 -2.019824981689453 6.091701030731201 35 35 35
-0.11481759697198868 -1.6573221683502197 6.11422061920166 92 92 92
-0.10542627424001694 0.38389894366264343 6.351867198944092 147 147 147
-0.10966084897518158 -0.7851261496543884 6.14042329788208 100 100 100
-0.10870093107223511 -1.7170335054397583 6.096541881561279 77 77 77
-0.11160103231668472 -0.34182503819465637 6.3570966720581055 111 111 111
-0.10255162417888641 -0.15299123525619507 6.301549911499023 121 121 121
-0.1021457388997078 -0.43118512630462646 6.319348335266113 101 101 101
-0.09934688359498978 0.4200247526168823 6.379464149475098 121 121 121
-0.09213114529848099 -1.6610373258590698 6.208077430725098 86 86 86
-0.09213114529848099 -1.6610373258590698 6.208077430725098 86 86 86
-0.08319833129644394 -2.2745213508605957 6.024435997009277 51 51 51
-0.0836072713136673 -0.34181514382362366 6.320178985595703 81 81 81
-0.07675360888242722 -2.25791597366333 5.978203773498535 49 49 49
-0.07361072301864624 0.3801799416542053 6.426878452301025 59 59 59
-0.06857048720121384 -2.0487217903137207 5.961959362030029 24 24 24
-0.06948082894086838 -1.6724516153335571 6.197177886962891 41 41 41
-0.06948082894086838 -1.6724516153335571 6.197177886962891 41 41 41
-0.06658223271369934 -1.7165064811706543 6.211197853088379 62 62 62
-0.06620632112026215 0.9886224865913391 6.325957298278809 47 47 47
-0.06620632112026215 0.9886224865913391 6.325957298278809 47 47 47
-0.06620632112026215 0.9886224865913391 6.325957298278809 47 47 47
-0.06552847474813461 2.5636472702026367 5.832277774810791 112 112 112
-0.06552847474813461 2.5636472702026367 5.832277774810791 112 112 112
-0.06105212867259979 0.031114913523197174 6.345460414886475 72 72 72
-0.0477500781416893 -1.7857494354248047 6.016294002532959 60 60 60
-0.05025973916053772 0.035616882145404816 6.41116189956665 63 63 63
-0.052745621651411057 -1.2703626155853271 6.262086391448975 85 85 85
-0.052738215774297714 -1.2703276872634888 6.261988162994385 85 85 85
-0.023310160264372826 -0.31415584683418274 6.446210861206055 92 92 92
-0.03637893125414848 -0.10729331523180008 6.428656578063965 65 65 65
-0.032130997627973557 -1.172609567642212 6.304532527923584 98 98 98
-0.023477019742131233 0.4195713400840759 6.489141464233398 93 93 93
-0.009196144528687 0.05719796568155289 6.540038108825684 64 64 64
-0.018522463738918304 -1.437628984451294 6.275588512420654 96 96 96
-0.016346680000424385 -0.1885414868593216 6.460228443145752 90 90 90
-0.015028574503958225 -1.7854596376419067 6.286594867706299 29 29 29
-0.0121719716116786 -1.7026033401489258 6.307775497436523 62 62 62
-0.005493069067597389 0.9614740610122681 6.3848466873168945 71 71 71
-0.003165025729686022 0.8664290904998779 6.371289253234863 94 94 94
0.0012758583761751652 -1.1484209299087524 6.364870548248291 63 63 63
0.003844981314614415 -0.07875263690948486 6.527487754821777 49 49 49
0.005479532293975353 0.6933000683784485 6.342328071594238 121 121 121
0.005101097282022238 -0.00891153234988451 6.5141706466674805 48 48 48
-0.00827999971807003 1.1184895038604736 6.344291687011719 164 164 164
0.010950084775686264 1.271466851234436 6.375626087188721 51 51 51
0.01381758414208889 -1.5058352947235107 6.379490852355957 63 63 63
0.01648765243589878 -1.6176090240478516 6.233246803283691 35 35 35
0.0026131351478397846 -1.1244652271270752 6.44602108001709 22 22 22
0.02688675746321678 0.035088758915662766 6.530804634094238 57 57 57
0.06387002766132355 0.10108449310064316 6.518914699554443 34 34 34
0.06745662540197372 0.9316737055778503 6.343572616577148 53 53 53
0.07112302631139755 2.4579055309295654 5.983046531677246 19 19 19
0.10055039077997208 -1.9255319833755493 6.299086093902588 28 28 28
0.0996246412396431 -1.5662569999694824 6.276163101196289 29 29 29
0.0996246412396431 -1.5662569999694824 6.276163101196289 29 29 29
0.10454545170068741 -1.6808189153671265 6.265244960784912 45 45 45
0.11143307387828827 -1.3269587755203247 6.3258280754089355 47 47 47
0.11433278769254684 0.9764232039451599 6.312246799468994 56 56 56
0.12654608488082886 -1.516105055809021 5.985946178436279 37 37 37
0.12909185886383057 1.4056804180145264 6.359404563903809 7 7 7
0.12909185886383057 1.4056804180145264 6.359404563903809 7 7 7
0.1125771701335907 1.5574294328689575 6.293590545654297 1 1 1
0.13218113780021667 -1.5962625741958618 6.322983264923096 32 32 32
0.14545679092407227 -1.9892892837524414 5.921435832977295 58 58 58
0.14197595417499542 1.2530884742736816 6.279078483581543 66 66 66
0.15039949119091034 0.7567406892776489 6.248784065246582 67 67 67
0.15772269666194916 -1.650592565536499 6.262715816497803 37 37 37
0.16760538518428802 0.16503316164016724 6.458132743835449 37 37 37
0.1719718873500824 0.729521632194519 6.304186820983887 99 99 99
0.15814654529094696 -2.2019546031951904 5.682139873504639 65 65 65
0.18419569730758667 0.49136191606521606 6.470348358154297 33 33 33
0.18018220365047455 1.4489985704421997 6.254124641418457 53 53 53
0.1802433878183365 2.4420711994171143 6.25656795501709 18 18 18
0.18442745506763458 -2.5594582557678223 5.940597057342529 58 58 58
0.18416361510753632 1.218900203704834 6.255742073059082 5 5 5
0.18166719377040863 -2.45290470123291 5.889140605926514 69 69 69
0.18866503238677979 -1.8941559791564941 6.561105251312256 49 49 49
0.19419273734092712 0.7904267907142639 6.2426557540893555 50 50 50
0.19795839488506317 0.7980245351791382 6.207089900970459 47 47 47
0.19795839488506317 0.7980245351791382 6.207089900970459 47 47 47
0.19838400185108185 -2.055375099182129 5.890396595001221 63 63 63
0.21791405975818634 0.7105484008789062 6.208083629608154 123 123 123
0.22479549050331116 0.8528389930725098 6.279185771942139 52 52 52
0.22926411032676697 0.6454660296440125 6.389044761657715 101 101 101
0.25757816433906555 0.7612177133560181 6.132285118103027 70 70 70
0.2760491967201233 0.709258496761322 6.235540390014648 135 135 135
0.2741422951221466 0.9993581175804138 6.131704330444336 75 75 75
0.2716563045978546 -2.1817729473114014 5.864717960357666 82 82 82
0.28033247590065 -2.477360963821411 5.980532646179199 71 71 71
0.30830007791519165 1.659281849861145 6.281203269958496 68 68 68
0.30830007791519165 1.659281849861145 6.281203269958496 68 68 68
0.3090745806694031 0.8591939210891724 6.1418585777282715 95 95 95
0.3116747736930847 -1.8088185787200928 6.195981979370117 74 74 74
0.2925073802471161 -2.8976128101348877 5.779688358306885 53 53 53
0.29499611258506775 -2.4189460277557373 5.7963972091674805 55 55 55
0.29517194628715515 -2.2182984352111816 5.765220642089844 45 45 45
0.28262314200401306 -2.4004242420196533 5.831310272216797 64 64 64
0.35441863536834717 1.400068759918213 6.184038162231445 119 119 119
0.3431921899318695 1.170741319656372 6.131460189819336 61 61 61
0.3193552494049072 2.436699867248535 5.612054824829102 96 96 96
0.3295360803604126 -2.422572612762451 5.720682144165039 65 65 65
0.3262297809123993 -2.45705246925354 5.711964130401611 38 38 38
0.3357762396335602 -2.2592668533325195 5.7632012367248535 77 77 77
0.3810614049434662 0.5008189082145691 6.347059726715088 37 37 37
0.3733164370059967 0.7596593499183655 6.099048614501953 105 105 105
0.37652844190597534 1.6670663356781006 6.1785173416137695 48 48 48
0.37377458810806274 0.8345103859901428 6.045521259307861 32 32 32
0.37377458810806274 0.8345103859901428 6.045521259307861 32 32 32
0.31836646795272827 2.5352017879486084 5.111639976501465 64 64 64
0.31128010153770447 2.552495241165161 4.98402738571167 125 125 125
0.3999194800853729 2.5030736923217773 6.205323219299316 62 62 62
0.4133559763431549 1.295331597328186 6.110020637512207 59 59 59
0.419737309217453 1.9649193286895752 6.205867290496826 22 22 22
0.41973915696144104 1.9648977518081665 6.205782890319824 22 22 22
0.3928420841693878 2.5078587532043457 5.501265048980713 41 41 41
0.4415709674358368 1.0052794218063354 6.15107536315918 100 100 100
0.42116108536720276 -2.314695119857788 5.458340167999268 72 72 72
0.38103193044662476 2.585636854171753 4.8630547523498535 118 118 118
0.4887112081050873 0.9317145943641663 6.052806854248047 56 56 56
0.5024896264076233 0.7461628913879395 6.013707637786865 92 92 92
0.5254349112510681 1.962265968322754 6.119825839996338 15 15 15
0.5020202994346619 -1.9793447256088257 5.8646745681762695 52 52 52
0.5220009088516235 1.4315896034240723 6.036867141723633 93 93 93
0.5251160860061646 0.7083203792572021 5.983880043029785 119 119 119
0.5337079763412476 2.480790853500366 5.926709175109863 37 37 37
0.5353220701217651 0.5828799605369568 5.906613349914551 145 145 145
0.5476473569869995 1.3950656652450562 5.9538960456848145 28 28 28
0.5633501410484314 1.6466022729873657 6.002737045288086 52 52 52
0.5738639235496521 1.9856188297271729 6.142544269561768 20 20 20
0.5928992033004761 1.043974757194519 5.9342827796936035 42 42 42
0.5835264921188354 2.3447272777557373 5.809637069702148 86 86 86
0.5963857769966125 1.0499083995819092 5.9569783210754395 48 48 48
0.5988436341285706 0.9917110204696655 5.971611022949219 64 64 64
0.6004904508590698 0.9317717552185059 5.980230808258057 58 58 58
0.5264265537261963 2.5419740676879883 5.104923248291016 77 77 77
0.5009205937385559 2.559868812561035 4.847621440887451 62 62 62
0.6221848130226135 1.1504228115081787 5.96314811706543 116 116 116
0.5123498439788818 2.4880056381225586 4.91405725479126 72 72 72
0.5686237215995789 2.518756866455078 5.372039794921875 61 61 61
0.6463434100151062 1.168641448020935 6.030081272125244 102 102 102
0.6463434100151062 1.168641448020935 6.030081272125244 102 102 102
0.6759313941001892 0.5126581192016602 6.1956257820129395 60 60 60
0.6433239579200745 0.8298656344413757 5.731605052947998 68 68 68
0.6209161281585693 -2.370952606201172 5.579706192016602 71 71 71
0.616827666759491 -2.0400421619415283 5.631725311279297 79 79 79
0.6495269536972046 1.093420147895813 5.853242874145508 100 100 100
0.7041612267494202 2.5416548252105713 6.22182035446167 63 63 63
0.7023873329162598 0.5471665263175964 6.167623996734619 43 43 43
0.6923977732658386 2.42444109916687 5.986526012420654 81 81 81
0.6537112593650818 2.4168550968170166 5.298277378082275 82 82 82
0.7202456593513489 1.967915654182434 5.936323642730713 26 26 26
0.6465612649917603 2.6160881519317627 5.4034247398376465 110 110 110
0.6430141925811768 2.522526264190674 5.281003475189209 52 52 52
0.726382851600647 2.3337113857269287 5.90372896194458 55 55 55
0.6767112016677856 2.5032896995544434 5.4885406494140625 120 120 120
0.6767112016677856 2.5032896995544434 5.4885406494140625 120 120 120
0.7569677233695984 0.5622275471687317 6.035649299621582 56 56 56
0.7444437742233276 0.9063799381256104 5.853343486785889 54 54 54
0.7476493716239929 1.1082004308700562 5.874502658843994 75 75 75
0.703279972076416 -2.643820285797119 5.49621057510376 48 48 48
0.8067304491996765 0.44058144092559814 6.205833911895752 43 43 43
0.7509612441062927 0.6218023300170898 5.767691135406494 114 114 114
0.6669466495513916 2.597113847732544 5.16602897644043 67 67 67
0.8043052554130554 -1.4716699123382568 6.07883358001709 208 208 208
0.725900411605835 -2.3733911514282227 5.432035446166992 84 84 84
0.741492509841919 -2.146538734436035 5.537075042724609 100 100 100
0.7929624319076538 1.8501874208450317 5.916622161865234 70 70 70
0.7537611722946167 -1.952277421951294 5.500214099884033 77 77 77
0.7950748801231384 0.9533116817474365 5.803299903869629 62 62 62
0.7980595231056213 0.6920278072357178 5.781098365783691 96 96 96
0.7679730653762817 2.535282611846924 5.5228190422058105 23 23 23
0.7679730653762817 2.535282611846924 5.5228190422058105 23 23 23
0.7520042061805725 -2.8092551231384277 5.385936260223389 42 42 42
0.7506111860275269 -2.1190903186798096 5.365870952606201 81 81 81
0.772590696811676 -2.255305767059326 5.498297214508057 67 67 67
0.785687267780304 -2.0437026023864746 5.459775447845459 101 101 101
0.8595581650733948 2.3442256450653076 5.982707977294922 61 61 61
0.8379191160202026 1.1881582736968994 5.810672760009766 85 85 85
0.8193575739860535 0.9737210869789124 5.709906101226807 67 67 67
0.8448675274848938 0.8255106210708618 5.820918560028076 82 82 82
0.8455390334129333 1.0144431591033936 5.802358150482178 113 113 113
0.8475214242935181 0.9296590089797974 5.785104751586914 68 68 68
0.8752298355102539 1.7762826681137085 5.927916049957275 54 54 54
0.902592122554779 2.0915932655334473 6.090908050537109 41 41 41
0.8687876462936401 1.0939836502075195 5.779066562652588 38 38 38
0.9396177530288696 0.37725600600242615 6.198413372039795 98 98 98
0.8900278806686401 2.4652907848358154 5.849149227142334 35 35 35
0.8376880288124084 -1.9769213199615479 5.424729347229004 100 100 100
0.901098906993866 1.171122431755066 5.810422897338867 51 51 51
0.901098906993866 1.171122431755066 5.810422897338867 51 51 51
0.9187438488006592 -1.7109172344207764 5.856752872467041 91 91 91
0.8843349814414978 2.5433990955352783 5.555644989013672 49 49 49
0.8310627341270447 -2.7051265239715576 5.196084499359131 61 61 61
0.9122331142425537 0.7386270761489868 5.675317764282227 77 77 77
0.9587693214416504 0.48049551248550415 5.955723762512207 36 36 36
0.9425976276397705 1.2160714864730835 5.712891578674316 97 97 97
0.951217770576477 2.3660643100738525 5.885257720947266 73 73 73
0.951217770576477 2.3660643100738525 5.885257720947266 73 73 73
0.8817455768585205 -2.238039493560791 5.345705986022949 107 107 107
0.9646241068840027 2.3221704959869385 5.814358234405518 66 66 66
0.9733911752700806 1.7847111225128174 5.738308429718018 31 31 31
0.9729333519935608 2.457810163497925 5.848729610443115 59 59 59
0.9716821312904358 -1.9018566608428955 5.833118915557861 58 58 58
0.9734097719192505 1.7846685647964478 5.738199234008789 31 31 31
0.9846717119216919 -1.6866278648376465 5.731906890869141 96 96 96
0.9518285393714905 1.4668549299240112 5.59231424331665 69 69 69
0.9963407516479492 2.597099542617798 5.897111415863037 63 63 63
1.02415132522583 0.5384252667427063 5.954798698425293 55 55 55
0.993028998374939 1.2971935272216797 5.742315292358398 65 65 65
1.0050450563430786 1.6742974519729614 5.759787082672119 65 65 65
1.0050450563430786 1.6742974519729614 5.759787082672119 65 65 65
0.978668749332428 0.6117039918899536 5.558317184448242 80 80 80
0.9410558342933655 -2.2329025268554688 5.3374481201171875 109 109 109
0.9969605803489685 1.2683037519454956 5.736279010772705 60 60 60
1.0101900100708008 1.864357352256775 5.7362542152404785 62 62 62
0.9808627367019653 1.0940866470336914 5.537679195404053 37 37 37
1.0247803926467896 2.139697551727295 5.785995006561279 32 32 32
1.014553427696228 2.116605758666992 5.785168170928955 51 51 51
1.0268194675445557 2.467217206954956 5.764081954956055 41 41 41
1.0372949838638306 1.6190541982650757 5.713586807250977 62 62 62
1.0372949838638306 1.6190541982650757 5.713586807250977 62 62 62
0.9399044513702393 -2.3082053661346436 5.275120735168457 89 89 89
1.0237805843353271 0.5785946249961853 5.716884613037109 112 112 112
1.0850846767425537 0.48265448212623596 6.039668083190918 42 42 42
1.0328978300094604 1.8025842905044556 5.7486772537231445 14 14 14
1.0217804908752441 0.91773921251297 5.706048965454102 112 112 112
0.9136943221092224 2.5261666774749756 5.04464864730835 60 60 60
1.0330400466918945 1.8028485774993896 5.7494330406188965 14 14 14
0.9478003978729248 -2.592923641204834 5.235355854034424 57 57 57
1.0513391494750977 2.1346144676208496 5.788551330566406 63 63 63
1.0535000562667847 -0.6275876760482788 5.784548282623291 98 98 98
1.0602926015853882 -0.7321338057518005 5.806119918823242 93 93 93
1.1239564418792725 -0.182321235537529 6.265011787414551 49 49 49
0.9703196883201599 2.5158894062042236 5.284585952758789 121 121 121
1.049606204032898 1.1370701789855957 5.6823296546936035 40 40 40
0.9172928333282471 2.5521624088287354 4.929716110229492 86 86 86
0.9172928333282471 2.5521624088287354 4.929716110229492 86 86 86
0.9992920160293579 -1.999718427658081 5.357849597930908 106 106 106
1.097861647605896 0.520643413066864 5.885215759277344 60 60 60
1.061868667602539 1.5593788623809814 5.6785478591918945 117 117 117
1.033887505531311 2.5195980072021484 5.5716328620910645 51 51 51
1.011689305305481 2.5150084495544434 5.34624719619751 65 65 65
1.0195636749267578 -2.267177104949951 5.391213893890381 103 103 103
1.0879206657409668 -1.8120477199554443 5.6162190437316895 61 61 61
1.1141881942749023 0.056511156260967255 5.813175678253174 35 35 35
1.1099833250045776 2.0780787467956543 5.778499603271484 49 49 49
1.106544017791748 2.306530237197876 5.737447738647461 43 43 43
1.0838346481323242 0.7734605073928833 5.6202073097229 61 61 61
1.1178828477859497 -0.3135193884372711 5.79022216796875 48 48 48
0.9853029251098633 2.581845760345459 5.09175968170166 100 100 100
1.1095067262649536 1.3697270154953003 5.725862503051758 120 120 120
1.1111149787902832 1.9426518678665161 5.722269058227539 81 81 81
1.0279600620269775 -2.21419620513916 5.257308006286621 105 105 105
1.1124048233032227 0.549230694770813 5.64463472366333 51 51 51
1.1183061599731445 -1.7873187065124512 5.660898208618164 51 51 51
1.1206464767456055 2.1009819507598877 5.620696067810059 43 43 43
1.1145445108413696 0.9714231491088867 5.620019435882568 48 48 48
1.1402571201324463 1.7778676748275757 5.732504844665527 85 85 85
1.1036176681518555 2.180675506591797 5.456711292266846 61 61 61
1.207586407661438 0.39861875772476196 6.157135963439941 62 62 62
1.1599929332733154 0.12365253269672394 5.773950099945068 40 40 40
1.1599929332733154 0.12365253269672394 5.773950099945068 40 40 40
1.1599048376083374 0.3934832215309143 5.767582416534424 52 52 52
1.2071694135665894 -0.14245297014713287 6.117101669311523 49 49 49
1.1147791147232056 0.6873164772987366 5.537507057189941 67 67 67
1.148213267326355 -0.4124974012374878 5.702038288116455 53 53 53
1.1102895736694336 -0.4321114122867584 5.416666507720947 71 71 71
1.1632745265960693 -0.2200813591480255 5.761288642883301 45 45 45
1.1536204814910889 0.8952581882476807 5.606349468231201 45 45 45
1.0437909364700317 2.518923759460449 5.061361789703369 63 63 63
1.181489109992981 -0.00936831347644329 5.733988285064697 65 65 65
1.1471190452575684 0.03198032081127167 5.535358905792236 68 68 68
1.1471190452575684 0.03198032081127167 5.535358905792236 68 68 68
1.159853219985962 1.3041977882385254 5.5973615646362305 115 115 115
1.0912038087844849 -2.363447666168213 5.248730182647705 85 85 85
1.1804454326629639 2.183560371398926 5.6781229972839355 45 45 45
1.0966925621032715 -1.8931646347045898 5.252280235290527 40 40 40
1.1907294988632202 -0.5704668760299683 5.701894283294678 251 251 251
1.1837992668151855 0.5062118172645569 5.73203182220459 14 14 14
1.163346290588379 -0.10067198425531387 5.470912933349609 49 49 49
1.0991476774215698 -2.2206151485443115 5.246835231781006 84 84 84
1.1736541986465454 1.393205165863037 5.583115100860596 115 115 115
1.0971317291259766 -2.381722927093506 5.211557865142822 81 81 81
1.06914484500885 -2.645437002182007 5.070549011230469 57 57 57
1.1881564855575562 -1.01653254032135 5.641383647918701 55 55 55
1.197330117225647 2.2794642448425293 5.680783748626709 70 70 70
1.2086122035980225 -0.7276596426963806 5.717621803283691 247 247 247
1.229526400566101 0.5506373643875122 5.802377700805664 91 91 91
1.1836309432983398 1.49972665309906 5.579148292541504 72 72 72
1.2179535627365112 0.5154256820678711 5.730359077453613 98 98 98
1.132875680923462 2.4911890029907227 5.324077606201172 71 71 71
1.21553373336792 2.187880039215088 5.698554039001465 69 69 69
1.0685045719146729 2.525390863418579 4.972722053527832 85 85 85
1.158813714981079 -1.7765979766845703 5.3836140632629395 56 56 56
1.138257384300232 -1.8429909944534302 5.284939289093018 79 79 79
1.138257384300232 -1.8429909944534302 5.284939289093018 79 79 79
1.2550148963928223 1.9783111810684204 5.755309581756592 80 80 80
1.193461537361145 -1.0194510221481323 5.466833114624023 126 126 126
1.1932311058044434 1.3389371633529663 5.49228048324585 124 124 124
1.1932311058044434 1.3389371633529663 5.49228048324585 124 124 124
1.1486560106277466 -2.196322202682495 5.290410995483398 61 61 61
0.9463757872581482 -1.700675129890442 4.352075099945068 59 59 59
1.3254189491271973 0.4624275267124176 6.062568664550781 254 254 254
1.2680960893630981 -0.9732527136802673 5.788190841674805 58 58 58
1.2454249858856201 -1.2183881998062134 5.679859161376953 53 53 53
1.2327083349227905 -1.3693301677703857 5.61273717880249 61 61 61
1.2352615594863892 -1.5271443128585815 5.621435642242432 61 61 61
1.3186129331588745 -0.3518216609954834 6.000820636749268 106 106 106
1.2340633869171143 1.9491584300994873 5.607247352600098 88 88 88
1.2236467599868774 1.3606200218200684 5.525259017944336 97 97 97
1.1322468519210815 -2.5383787155151367 5.09971284866333 69 69 69
1.2117809057235718 -1.6030458211898804 5.4715752601623535 44 44 44
1.2133358716964722 0.682485818862915 5.465202331542969 68 68 68
1.2661821842193604 -0.849585235118866 5.697194576263428 39 39 39
1.3128368854522705 -0.4955176115036011 5.926250457763672 136 136 136
1.2519245147705078 2.1534311771392822 5.6056809425354 51 51 51
1.303835153579712 1.58173668384552 5.816035747528076 99 99 99
1.2790513038635254 1.4301153421401978 5.700869560241699 138 138 138
1.268974781036377 1.2750606536865234 5.628459930419922 42 42 42
1.2816332578659058 -1.2068133354187012 5.61267614364624 66 66 66
1.3840272426605225 -0.7076702117919922 6.041533946990967 85 85 85
1.3840272426605225 -0.7076702117919922 6.041533946990967 85 85 85
1.2622179985046387 1.0381630659103394 5.5059733390808105 54 54 54
1.2729300260543823 1.7263418436050415 5.546629905700684 121 121 121
1.2814809083938599 -0.973030686378479 5.574955463409424 26 26 26
1.2691954374313354 1.1083794832229614 5.509628772735596 65 65 65
1.1974279880523682 -1.9219175577163696 5.1895246505737305 90 90 90
1.1485708951950073 2.5388667583465576 4.9737348556518555 107 107 107
1.326894760131836 0.5766328573226929 5.7266106605529785 25 25 25
1.1575874090194702 2.5381252765655518 5.044291973114014 52 52 52
1.2901864051818848 2.111302375793457 5.558449745178223 88 88 88
1.2986576557159424 -0.8639658689498901 5.603102207183838 76 76 76
1.2951292991638184 2.0357513427734375 5.57855224609375 91 91 91
1.314026951789856 1.3931292295455933 5.614686489105225 82 82 82
1.2546947002410889 1.239551305770874 5.382946491241455 72 72 72
1.3522108793258667 -0.8650487661361694 5.805115699768066 33 33 33
1.3080195188522339 0.8672558665275574 5.57761812210083 97 97 97
1.2344313859939575 -1.9325189590454102 5.232495307922363 48 48 48
1.3551949262619019 1.9454270601272583 5.747222423553467 111 111 111
1.201540470123291 -2.3844993114471436 5.086305618286133 41 41 41
1.3229396343231201 2.2057437896728516 5.566895961761475 45 45 45
1.2924561500549316 0.8103001713752747 5.443002223968506 112 112 112
1.3392964601516724 -1.0824024677276611 5.6161627769470215 52 52 52
1.2768241167068481 -2.0937564373016357 5.4006876945495605 120 120 120
1.3115142583847046 1.5519734621047974 5.4950737953186035 121 121 121
1.2927979230880737 1.031211018562317 5.468367576599121 104 104 104
1.3246651887893677 -1.2633436918258667 5.537765979766846 25 25 25
1.2972949743270874 -1.8090811967849731 5.411149978637695 137 137 137
1.2291096448898315 -2.3332855701446533 5.090977668762207 105 105 105
1.3316948413848877 1.2400717735290527 5.514982223510742 72 72 72
1.3292436599731445 1.4197382926940918 5.492615699768066 151 151 151
1.2483054399490356 -2.228034734725952 5.152266979217529 128 128 128
1.4669350385665894 0.4277545213699341 6.0354132652282715 136 136 136
1.4669350385665894 0.4277545213699341 6.0354132652282715 136 136 136
1.3495913743972778 -1.6502851247787476 5.551592826843262 53 53 53
1.251568078994751 -2.1118600368499756 5.132584095001221 137 137 137
1.342618465423584 2.03070068359375 5.498586654663086 67 67 67
1.34100341796875 1.182090163230896 5.491000175476074 39 39 39
1.3705933094024658 -0.8435862064361572 5.557131290435791 33 33 33
1.3746830224990845 -1.082797646522522 5.617109775543213 28 28 28
1.359370470046997 1.9829444885253906 5.545046329498291 55 55 55
1.5812273025512695 -0.1878143548965454 6.442114353179932 105 105 105
1.3586466312408447 2.4346024990081787 5.537029266357422 27 27 27
1.3519295454025269 1.2271443605422974 5.480495452880859 37 37 37
1.3602861166000366 0.9011825323104858 5.495569229125977 43 43 43
1.3475581407546997 2.4849777221679688 5.451661586761475 40 40 40
1.346872091293335 0.9335901737213135 5.42005729675293 59 59 59
1.3835396766662598 -1.0754601955413818 5.575183391571045 61 61 61
1.647391438484192 -0.5975098013877869 6.566648960113525 119 119 119
1.3209218978881836 1.318831443786621 5.309943199157715 56 56 56
1.454037070274353 0.3617669343948364 5.906788349151611 181 181 181
1.3724534511566162 1.2710092067718506 5.505188941955566 45 45 45
1.6119053363800049 -0.5386263132095337 6.452160358428955 166 166 166
1.3637794256210327 1.1709717512130737 5.439713001251221 80 80 80
1.3637794256210327 1.1709717512130737 5.439713001251221 80 80 80
1.3611371517181396 0.6955328583717346 5.4208269119262695 58 58 58
1.3937289714813232 2.1409504413604736 5.549194812774658 54 54 54
1.4073415994644165 -1.2068499326705933 5.603002071380615 59 59 59
1.7243494987487793 0.12469705939292908 6.85908317565918 168 168 168
1.7243494987487793 0.12469705939292908 6.85908317565918 168 168 168
1.3994076251983643 -1.8903990983963013 5.598197937011719 46 46 46
1.2962591648101807 -2.0431642532348633 5.138314247131348 102 102 102
1.3314013481140137 1.286233901977539 5.252118110656738 122 122 122
1.3856178522109985 1.6526069641113281 5.461236000061035 88 88 88
1.4069831371307373 2.127237558364868 5.52955436706543 59 59 59
1.381930947303772 1.39987313747406 5.425055027008057 79 79 79
1.3894559144973755 0.9010079503059387 5.446308612823486 18 18 18
1.3853962421417236 1.44629967212677 5.421173095703125 33 33 33
1.5922963619232178 0.3695482313632965 6.217939376831055 84 84 84
1.305047869682312 2.5223467350006104 5.053738594055176 62 62 62
1.3229835033416748 2.5152742862701416 5.154327869415283 51 51 51
1.4044837951660156 1.8722879886627197 5.455682277679443 95 95 95
1.3865094184875488 1.0706676244735718 5.3968024253845215 87 87 87
1.6984003782272339 -0.578048586845398 6.607219696044922 81 81 81
1.3792548179626465 2.420443534851074 5.378872394561768 102 102 102
1.7684617042541504 -0.5499597191810608 6.860963821411133 142 142 142
1.40525484085083 1.3439254760742188 5.407114028930664 87 87 87
1.4356662034988403 2.2532849311828613 5.501030445098877 51 51 51
1.3189035654067993 -2.081622362136841 5.03976583480835 136 136 136
1.4532442092895508 -0.8606069087982178 5.560326099395752 52 52 52
1.4097106456756592 2.0535285472869873 5.390129089355469 68 68 68
1.431248426437378 2.0999808311462402 5.481600761413574 67 67 67
1.3576505184173584 -2.252631664276123 5.172023296356201 94 94 94
1.4385923147201538 1.995316505432129 5.468834400177002 23 23 23
1.4385923147201538 1.995316505432129 5.468834400177002 23 23 23
1.4788634777069092 -1.3612316846847534 5.612526893615723 72 72 72
1.6954293251037598 0.11256403475999832 6.361980438232422 68 68 68
1.4756606817245483 2.186735153198242 5.534147262573242 53 53 53
1.6895626783370972 -0.2435765266418457 6.325002193450928 87 87 87
1.6895626783370972 -0.2435765266418457 6.325002193450928 87 87 87
1.4568313360214233 -1.3674918413162231 5.521366596221924 68 68 68
1.6991143226623535 -0.19612370431423187 6.348825931549072 88 88 88
1.336124062538147 -2.3678829669952393 5.025242328643799 87 87 87
1.4907262325286865 0.5460415482521057 5.61283540725708 56 56 56
1.4382952451705933 1.2221981287002563 5.413200378417969 73 73 73
1.7731667757034302 -0.0174232330173254 6.679548263549805 40 40 40
1.8017008304595947 -0.6030053496360779 6.761040687561035 32 32 32
1.4344764947891235 0.8568229675292969 5.399103164672852 79 79 79
1.8080112934112549 -0.7973340153694153 6.778416633605957 26 26 26
1.4585715532302856 1.994681477546692 5.451534271240234 23 23 23
1.4716593027114868 2.3005614280700684 5.476222515106201 43 43 43
1.4283316135406494 0.80035400390625 5.329921245574951 78 78 78
1.4383082389831543 2.4860074520111084 5.353736400604248 44 44 44
1.4232510328292847 1.3131526708602905 5.246840000152588 110 110 110
1.3625528812408447 -2.3660171031951904 5.040281772613525 51 51 51
1.3625528812408447 -2.3660171031951904 5.040281772613525 51 51 51
1.4748997688293457 1.88092041015625 5.431550025939941 96 96 96
1.4767451286315918 1.6199679374694824 5.440048694610596 109 109 109
1.600263237953186 0.3413867652416229 5.8815598487854 140 140 140
1.4782729148864746 1.738219141960144 5.411587238311768 104 104 104
1.8439090251922607 -0.7441193461418152 6.732283592224121 29 29 29
1.388389229774475 -2.03867506980896 5.0524139404296875 125 125 125
1.4940286874771118 2.145228624343872 5.436435222625732 53 53 53
1.469751238822937 1.241599440574646 5.357338905334473 73 73 73
1.5005427598953247 0.7506710886955261 5.466297149658203 57 57 57
1.511623501777649 2.124483823776245 5.486112594604492 57 57 57
1.449627161026001 1.246576189994812 5.244185447692871 60 60 60
1.4798085689544678 1.207448124885559 5.357161998748779 50 50 50
1.524585485458374 1.6311287879943848 5.564252853393555 78 78 78
1.5293523073196411 -0.8059555888175964 5.510267734527588 77 77 77
1.480570673942566 0.6976381540298462 5.313742637634277 72 72 72
1.4997295141220093 1.343025803565979 5.361417770385742 121 121 121
1.6030163764953613 0.4130019247531891 5.726480960845947 65 65 65
1.4892773628234863 0.9032692313194275 5.31241512298584 55 55 55
1.51852285861969 -1.5236202478408813 5.388852596282959 136 136 136
1.4885249137878418 0.902912974357605 5.30999231338501 55 55 55
1.5017154216766357 0.9953501224517822 5.321364879608154 38 38 38
1.8366361856460571 -0.45764023065567017 6.483009338378906 221 221 221
1.5414888858795166 -1.2477295398712158 5.41377592086792 23 23 23
1.5632905960083008 -0.8581671714782715 5.481778621673584 71 71 71
1.5303367376327515 1.5178481340408325 5.359988212585449 79 79 79
1.9366966485977173 -0.5734479427337646 6.772929668426514 45 45 45
1.4585027694702148 -2.255147933959961 5.146323204040527 102 102 102
1.5527313947677612 2.206371784210205 5.419456958770752 42 42 42
1.5446813106536865 1.2664858102798462 5.365886688232422 65 65 65
1.584384799003601 -0.7446746826171875 5.495293617248535 69 69 69
1.5445679426193237 1.160510778427124 5.322883129119873 37 37 37
1.5756566524505615 1.7747827768325806 5.422957897186279 71 71 71
1.54880952835083 1.3189855813980103 5.325007438659668 136 136 136
1.5417346954345703 0.6407912969589233 5.290489196777344 109 109 109
1.5597679615020752 2.2377076148986816 5.367124080657959 65 65 65
1.5465093851089478 1.0195417404174805 5.298590660095215 44 44 44
1.7968817949295044 -0.634211003780365 6.017273902893066 60 60 60
1.899492859840393 0.25675004720687866 6.442026138305664 78 78 78
1.5696792602539062 0.9555584192276001 5.267772197723389 80 80 80
1.9857724905014038 -0.797239363193512 6.722579479217529 31 31 31
1.6430962085723877 0.5746365785598755 5.549197673797607 58 58 58
1.5828238725662231 -1.233213186264038 5.336302280426025 24 24 24
1.5828238725662231 -1.233213186264038 5.336302280426025 24 24 24
1.5599091053009033 0.8084812760353088 5.263425827026367 76 76 76
1.5645724534988403 0.9046323299407959 5.269005298614502 31 31 31
1.5647914409637451 1.0845751762390137 5.270375728607178 64 64 64
1.5784597396850586 1.3401174545288086 5.3015851974487305 64 64 64
1.5896763801574707 -1.3049453496932983 5.339245796203613 87 87 87
1.716784954071045 -0.759549081325531 5.743657112121582 67 67 67
1.6013963222503662 2.0483920574188232 5.34798002243042 59 59 59
1.5874375104904175 1.28533935546875 5.243044376373291 118 118 118
1.597718358039856 1.448196530342102 5.311971664428711 105 105 105
1.597718358039856 1.448196530342102 5.311971664428711 105 105 105
1.6234281063079834 1.1416538953781128 5.39667272567749 109 109 109
1.672976016998291 0.5999721884727478 5.527837753295898 27 27 27
1.6390507221221924 2.4833106994628906 5.37177038192749 100 100 100
1.6370007991790771 -1.340604543685913 5.369946479797363 27 27 27
1.5592985153198242 0.8502131700515747 5.108911037445068 94 94 94
1.612985372543335 0.7022821307182312 5.279352188110352 101 101 101
1.5566331148147583 1.1897406578063965 5.052140712738037 33 33 33
2.013951539993286 -0.8067573308944702 6.565378665924072 82 82 82
2.013951539993286 -0.8067573308944702 6.565378665924072 82 82 82
1.6344201564788818 0.7665966749191284 5.326987266540527 91 91 91
1.6295311450958252 1.4666279554367065 5.324282646179199 140 140 140
1.5226548910140991 -2.3602747917175293 4.896035671234131 79 79 79
1.6840025186538696 -1.0574928522109985 5.41842794418335 59 59 59
1.6657756567001343 2.4457736015319824 5.355286598205566 47 47 47
1.653196096420288 2.0267717838287354 5.358684062957764 23 23 23
2.075666666030884 -0.7669113278388977 6.605679035186768 191 191 191
1.6391925811767578 1.3179233074188232 5.255026340484619 122 122 122
1.618467926979065 0.8906059861183167 5.174262523651123 11 11 11
1.696993112564087 -0.8767834305763245 5.400271415710449 32 32 32
1.7920348644256592 -1.468949556350708 5.681751728057861 25 25 25
1.5817619562149048 1.159761905670166 4.9476399421691895 92 92 92
1.6811323165893555 1.8096609115600586 5.304664611816406 97 97 97
1.6831858158111572 1.8124957084655762 5.310814380645752 105 105 105
2.0604493618011475 -0.7630319595336914 6.442131996154785 124 124 124
1.6718745231628418 0.7921340465545654 5.239757537841797 75 75 75
1.6140363216400146 -2.445767402648926 5.01549768447876 69 69 69
1.7066845893859863 1.8078563213348389 5.309534549713135 18 18 18
2.174781322479248 0.0962388664484024 6.7414326667785645 139 139 139
1.7112252712249756 2.1485812664031982 5.279293537139893 55 55 55
1.6881977319717407 1.3010838031768799 5.201719284057617 94 94 94
1.7228929996490479 -1.389237642288208 5.259141445159912 128 128 128
1.7056454420089722 0.8757287263870239 5.231250286102295 92 92 92
1.6843005418777466 1.1639877557754517 5.1946892738342285 123 123 123
1.7195889949798584 1.7988063097000122 5.252598285675049 116 116 116
1.7112468481063843 2.086557388305664 5.190412521362305 85 85 85
1.7470027208328247 -1.4367122650146484 5.317291259765625 31 31 31
1.7181450128555298 -1.4942042827606201 5.207374572753906 106 106 106
1.7215471267700195 1.2159860134124756 5.1845808029174805 135 135 135
1.761616826057434 2.2343664169311523 5.304657459259033 94 94 94
1.8773359060287476 0.42827221751213074 5.641353607177734 71 71 71
1.6247267723083496 0.8418611884117126 4.879047870635986 42 42 42
1.75324547290802 -1.3048655986785889 5.246989727020264 63 63 63
1.7411727905273438 1.43539559841156 5.205763339996338 127 127 127
1.7650108337402344 2.4541025161743164 5.271940231323242 35 35 35
1.7479785680770874 1.801176905632019 5.201662540435791 103 103 103
1.747597336769104 1.8241102695465088 5.192716121673584 15 15 15
1.8806058168411255 -0.8656930327415466 5.604060173034668 25 25 25
1.7603586912155151 1.341443419456482 5.221563816070557 105 105 105
1.8639971017837524 -0.7663781642913818 5.512050151824951 123 123 123
1.754318356513977 0.7388116121292114 5.168383598327637 58 58 58
1.7899290323257446 2.007024049758911 5.246081829071045 47 47 47
1.7899290323257446 2.007024049758911 5.246081829071045 47 47 47
1.8266222476959229 2.0838043689727783 5.34401798248291 25 25 25
1.7845706939697266 1.9961529970169067 5.217576026916504 51 51 51
2.2711217403411865 0.16554927825927734 6.635679244995117 255 255 255
1.7725610733032227 1.1747941970825195 5.170151710510254 44 44 44
1.627718210220337 -1.7570538520812988 4.719217777252197 38 38 38
1.6730774641036987 -2.3543779850006104 4.880113124847412 48 48 48
1.8183388710021973 0.6216009259223938 5.301074028015137 105 105 105
1.7833281755447388 1.0437812805175781 5.18678092956543 66 66 66
2.2671210765838623 -0.4638660252094269 6.56170654296875 112 112 112
1.7843888998031616 2.028409004211426 5.198874473571777 51 51 51
1.800268530845642 1.9643274545669556 5.208400249481201 16 16 16
1.8011125326156616 -1.2700003385543823 5.213406562805176 87 87 87
1.7923954725265503 1.7303016185760498 5.184208393096924 79 79 79
1.7713202238082886 1.2297946214675903 5.117177963256836 107 107 107
1.942926287651062 0.4276060163974762 5.599548816680908 70 70 70
1.816474199295044 2.013343334197998 5.244539737701416 36 36 36
1.821514368057251 2.171154260635376 5.241114139556885 73 73 73
1.8633859157562256 2.289682626724243 5.382536888122559 62 62 62
1.834084391593933 -1.042474389076233 5.281477451324463 73 73 73
1.834084391593933 -1.042474389076233 5.281477451324463 73 73 73
2.2895472049713135 -0.448771208524704 6.580331325531006 212 212 212
1.675711989402771 -2.2497284412384033 4.794780254364014 89 89 89
1.8500573635101318 2.3930439949035645 5.2939772605896 64 64 64
1.6814404726028442 -1.9549312591552734 4.807483196258545 116 116 116
1.8040097951889038 1.3001775741577148 5.155396461486816 160 160 160
1.8247559070587158 1.9147450923919678 5.195557117462158 60 60 60
1.4824579954147339 -1.0242637395858765 4.2242302894592285 72 72 72
1.81393301486969 1.6563644409179688 5.189304351806641 72 72 72
1.81393301486969 1.6563644409179688 5.189304351806641 72 72 72
1.8087049722671509 0.7493703961372375 5.1343231201171875 55 55 55
1.773307204246521 2.5180017948150635 5.021544933319092 52 52 52
1.8082818984985352 1.1371371746063232 5.130097389221191 57 57 57
1.8007161617279053 1.4187570810317993 5.098579406738281 142 142 142
1.858544945716858 1.8843414783477783 5.2747344970703125 82 82 82
1.829336404800415 0.5675225853919983 5.184471607208252 80 80 80
1.8102422952651978 1.13832426071167 5.134057521820068 57 57 57
1.8223531246185303 1.3449310064315796 5.119382381439209 119 119 119
1.7551149129867554 0.8083401918411255 4.870474338531494 96 96 96
1.8048079013824463 1.877979040145874 4.980081558227539 67 67 67
1.870307445526123 1.7413074970245361 5.138014793395996 78 78 78
1.8731099367141724 1.5957870483398438 5.190235614776611 101 101 101
2.2317922115325928 -0.7963733673095703 6.101287364959717 25 25 25
1.945862054824829 -1.054901123046875 5.296441078186035 69 69 69
1.8860180377960205 -1.222974181175232 5.116412162780762 28 28 28
1.8860180377960205 -1.222974181175232 5.116412162780762 28 28 28
1.9004850387573242 1.6435149908065796 5.147645473480225 131 131 131
1.9450249671936035 2.511176347732544 5.22344446182251 62 62 62
1.8601737022399902 2.161982774734497 4.976903915405273 88 88 88
1.9674057960510254 0.5737718343734741 5.298426628112793 61 61 61
1.8923015594482422 2.1376149654388428 5.035920143127441 43 43 43
1.9282515048980713 2.02811861038208 5.109484672546387 22 22 22
2.0429744720458984 -1.36892831325531 5.394651889801025 33 33 33
1.9218392372131348 2.207991600036621 5.07544469833374 84 84 84
1.9392564296722412 2.0781147480010986 5.098916530609131 72 72 72
2.389056444168091 -0.644047737121582 6.26167631149292 61 61 61
1.9593918323516846 2.026815176010132 5.108958721160889 14 14 14
1.9521191120147705 1.2963018417358398 5.09633731842041 58 58 58
2.1045305728912354 0.46653303503990173 5.4912428855896 74 74 74
2.1155223846435547 0.44264671206474304 5.519980430603027 73 73 73
2.015317916870117 -1.1870907545089722 5.2438483238220215 74 74 74
1.9834620952606201 -1.2509698867797852 5.146906852722168 30 30 30
1.8569906949996948 -1.1795721054077148 4.78023624420166 111 111 111
1.9250980615615845 1.3398361206054688 4.991137504577637 139 139 139
1.9702143669128418 1.1412063837051392 5.102638244628906 12 12 12
1.8661340475082397 0.7694976329803467 4.781906604766846 59 59 59
2.0084192752838135 2.304211378097534 5.133798122406006 59 59 59
2.060210704803467 -0.8794485330581665 5.293704509735107 43 43 43
2.1995487213134766 -0.7687395811080933 5.641354084014893 50 50 50
1.9447040557861328 0.6850212216377258 4.969662666320801 64 64 64
2.0021302700042725 -1.4315840005874634 5.0982747077941895 32 32 32
1.9845213890075684 1.265937089920044 5.037519931793213 47 47 47
2.061826467514038 -0.9489679336547852 5.222011089324951 34 34 34
2.1227619647979736 -0.966732382774353 5.37509822845459 30 30 30
1.9848731756210327 1.4768239259719849 5.020511150360107 49 49 49
1.9848731756210327 1.4768239259719849 5.020511150360107 49 49 49
2.0355682373046875 2.5542030334472656 5.1491875648498535 65 65 65
2.0839574337005615 0.3665369749069214 5.233837127685547 130 130 130
1.9526842832565308 -1.784246563911438 4.934942722320557 39 39 39
1.8845456838607788 1.7814478874206543 4.749731063842773 102 102 102
1.9997516870498657 0.6960654854774475 4.996885776519775 80 80 80
2.348719835281372 -0.9306623339653015 5.903145790100098 31 31 31
2.019284963607788 1.3750616312026978 5.013121128082275 97 97 97
2.003793954849243 1.5404924154281616 4.999135494232178 102 102 102
2.635145664215088 -0.6343162059783936 6.549094200134277 128 128 128
2.022306203842163 1.7695460319519043 4.965564250946045 106 106 106
2.015916109085083 1.2559524774551392 4.974066734313965 54 54 54
2.0969793796539307 -0.8529330492019653 5.176969528198242 74 74 74
2.024109363555908 0.7951290607452393 4.96837043762207 70 70 70
2.167853593826294 -0.8653351664543152 5.3091020584106445 70 70 70
2.039842128753662 1.3642646074295044 4.991599082946777 45 45 45
2.0786993503570557 2.501483678817749 5.062039852142334 99 99 99
2.031942844390869 1.3105206489562988 4.925790786743164 21 21 21
1.9390664100646973 -1.3215445280075073 4.721242904663086 70 70 70
2.0178260803222656 1.106711983680725 4.91256856918335 43 43 43
2.2825570106506348 -0.29025018215179443 5.567110061645508 172 172 172
1.9562591314315796 1.631959080696106 4.7301530838012695 79 79 79
2.025770902633667 0.7845160365104675 4.888345241546631 84 84 84
2.020312547683716 2.4042365550994873 4.836984157562256 82 82 82
2.3065319061279297 0.03511849418282509 5.515808582305908 129 129 129
2.0285630226135254 1.6600676774978638 4.841470241546631 98 98 98
2.187340021133423 -0.9332838654518127 5.206794738769531 75 75 75
2.1801364421844482 -0.9991967678070068 5.189377784729004 69 69 69
2.100146532058716 1.9692131280899048 4.97833776473999 53 53 53
2.100137233734131 1.9691894054412842 4.978285312652588 53 53 53
2.1370296478271484 1.7637279033660889 5.054586410522461 85 85 85
2.14926815032959 1.2882120609283447 5.08939266204834 43 43 43
2.2256550788879395 -1.4713624715805054 5.272747993469238 117 117 117
2.2967724800109863 -1.1482397317886353 5.436056137084961 35 35 35
2.199380397796631 -0.40421682596206665 5.176512241363525 124 124 124
2.1386990547180176 2.4673213958740234 5.037275314331055 37 37 37
2.2046658992767334 0.5289393663406372 5.100498676300049 80 80 80
2.2016005516052246 0.3524148166179657 5.094815731048584 80 80 80
2.132241725921631 1.6882778406143188 4.932529926300049 114 114 114
2.1896250247955322 2.26310658454895 5.049648284912109 49 49 49
2.1869120597839355 1.8231801986694336 5.011867046356201 96 96 96
2.129310369491577 2.424959421157837 4.81790018081665 52 52 52
2.074045181274414 1.5381351709365845 5.173004150390625 56 56 56
-0.7535437345504761 1.3250178098678589 5.3292951583862305 13 13 13
1.8251909017562866 -0.2530406713485718 6.823566913604736 140 140 140
1.1943684816360474 -0.5522096753120422 5.70440149307251 81 81 81
-0.7330504655838013 1.338813066482544 5.3907904624938965 180 180 180
-0.5568112730979919 0.5830908417701721 5.611891746520996 7 7 7
1.2001118659973145 1.1057506799697876 5.662850856781006 116 116 116
1.8872084617614746 -0.46004220843315125 6.347418308258057 231 231 231
2.168184280395508 0.4957057237625122 5.765820026397705 193 193 193
-0.5870740413665771 0.04373684152960777 5.456684589385986 53 53 53
-0.7544798254966736 0.9746015071868896 5.304419040679932 20 20 20
-0.8660856485366821 -0.8115019798278809 4.8992085456848145 30 30 30
-0.5853298902511597 -0.11342647671699524 5.426665782928467 11 11 11
1.7149263620376587 -0.3363898992538452 6.694580554962158 80 80 80
-1.064322590827942 0.281453937292099 5.126955032348633 47 47 47
-1.0643271207809448 0.28147852420806885 5.1269965171813965 47 47 47
1.936705470085144 -0.10613010823726654 6.846982479095459 3 3 3
2.2050251960754395 0.5160347819328308 5.341427803039551 142 142 142
-0.748403787612915 0.6216322779655457 5.249599456787109 44 44 44
2.212867498397827 -0.05188753828406334 6.3470139503479 239 239 239
1.8743371963500977 -0.5743702054023743 6.703871250152588 83 83 83
2.5311119556427 -0.3300112187862396 6.409727096557617 178 178 178
1.7148799896240234 -0.3363848924636841 6.694371223449707 80 80 80
-0.44716233015060425 0.5617285966873169 5.855559825897217 29 29 29
-0.6046046018600464 0.041893523186445236 5.614678859710693 133 133 133
-0.5813023447990417 0.5874563455581665 5.603579044342041 40 40 40
-0.5667625069618225 0.7529582977294922 5.563057899475098 59 59 59
-0.755463182926178 -0.44871121644973755 5.120009422302246 19 19 19
-1.0688062906265259 -0.6572414636611938 5.018208026885986 156 156 156
-0.19983422756195068 -2.0265839099884033 5.932401180267334 127 127 127
-0.20012341439723969 -2.027287483215332 5.934374809265137 127 127 127
1.2693226337432861 -0.7713609337806702 5.741150379180908 184 184 184
1.600570797920227 -0.7866073846817017 5.802768707275391 40 40 40
1.3109625577926636 -1.7863351106643677 5.417164325714111 12 12 12
0.31512361764907837 0.3144629895687103 6.741465091705322 218 218 218
1.310970664024353 -1.7863521575927734 5.417208194732666 12 12 12
1.4873082637786865 -0.791458249092102 5.672200679779053 147 147 147
