ply
format ascii 1.0
element vertex 725
property float x
property float y
property float z
property uchar red
property uchar green
property uchar blue
end_header
0.37302711606025696 0.21373172104358673 6.603489398956299 40 40 40
0.3856048285961151 0.4019436240196228 6.666532516479492 45 45 45
0.4440730810165405 0.07446679472923279 6.970350742340088 59 59 59
0.4432779848575592 -1.3204292058944702 6.643969535827637 39 39 39
0.4661084711551666 2.49839448928833 6.947605609893799 39 39 39
0.4661842882633209 2.486067295074463 6.921563148498535 39 39 39
0.5212458968162537 1.348521113395691 6.920343399047852 40 40 40
0.5277858972549438 3.051175832748413 7.011065483093262 36 36 36
0.5160750150680542 -0.17904110252857208 6.7896199226379395 37 37 37
0.519005537033081 -0.8079583048820496 6.808661460876465 47 47 47
0.5623040199279785 2.7032649517059326 7.154401779174805 38 38 38
0.5250481367111206 3.109922170639038 6.671188831329346 83 83 83
0.4581355154514313 3.2113614082336426 5.747140884399414 63 63 63
0.5644299983978271 -0.3548877537250519 6.881295204162598 38 38 38
0.6599748134613037 1.0199486017227173 7.079211711883545 58 58 58
0.6681004166603088 1.7557693719863892 7.12732458114624 42 42 42
0.6839252710342407 3.189809560775757 7.288170337677002 88 88 88
0.6673845052719116 1.352286458015442 7.0926032066345215 39 39 39
0.5387772917747498 3.2214913368225098 5.69339656829834 51 51 51
0.6918405890464783 0.023566339164972305 7.087936878204346 37 37 37
0.6935112476348877 0.2215765416622162 7.0643720626831055 39 39 39
0.7157673835754395 3.0005173683166504 7.167877674102783 34 34 34
0.7909833788871765 -1.1721217632293701 7.069474220275879 55 55 55
0.8063041567802429 1.30419921875 7.1780476570129395 39 39 39
0.814728319644928 -1.1871339082717896 7.385809421539307 44 44 44
0.814728319644928 -1.1871339082717896 7.385809421539307 44 44 44
0.7400271892547607 3.135155200958252 6.484685897827148 104 104 104
0.8189123272895813 1.3509758710861206 7.131009578704834 39 39 39
0.873842179775238 3.0983660221099854 7.34664249420166 83 83 83
0.8794876337051392 0.278665155172348 7.427005290985107 36 36 36
0.6526927351951599 3.263244867324829 5.471419811248779 84 84 84
0.9155333042144775 2.549637794494629 7.393228054046631 22 22 22
0.9155333042144775 2.549637794494629 7.393228054046631 22 22 22
0.7019099593162537 3.2211220264434814 5.669897556304932 98 98 98
0.696167528629303 3.2030038833618164 5.58002233505249 108 108 108
0.9208189249038696 0.7360283136367798 7.367617130279541 69 69 69
0.9283307194709778 0.31472325325012207 7.353456974029541 3 3 3
0.9596627354621887 0.7433735132217407 7.395393371582031 40 40 40
0.9672867655754089 2.2953577041625977 7.426805019378662 37 37 37
0.9759470820426941 1.1100893020629883 7.439742565155029 62 62 62
0.9026814699172974 3.089078187942505 6.652714729309082 108 108 108
1.0624797344207764 -3.541715145111084 7.731273174285889 50 50 50
1.091402530670166 3.120722532272339 7.851364612579346 47 47 47
1.0271490812301636 1.1061584949493408 7.422215461730957 42 42 42
1.0795981884002686 1.316483974456787 7.578549385070801 41 41 41
1.0956875085830688 2.650008201599121 7.654831409454346 32 32 32
1.0750633478164673 1.920782446861267 7.500904083251953 53 53 53
0.7902422547340393 3.2460107803344727 5.499556064605713 64 64 64
0.7902422547340393 3.2460107803344727 5.499556064605713 64 64 64
1.0794519186019897 1.1612951755523682 7.393226623535156 37 37 37
1.0113248825073242 3.137327194213867 6.792413711547852 74 74 74
1.1732263565063477 2.8517675399780273 7.756844997406006 56 56 56
1.2209382057189941 2.496880292892456 7.830379009246826 46 46 46
1.0649209022521973 3.026137113571167 6.751030921936035 110 110 110
1.2348954677581787 -0.061236631125211716 7.702520370483398 20 20 20
1.0374330282211304 3.196678400039673 6.3059892654418945 98 98 98
1.3034684658050537 -0.19668592512607574 7.8890838623046875 46 46 46
1.2930721044540405 2.234865188598633 7.779586315155029 70 70 70
1.3187686204910278 2.4141576290130615 7.766454696655273 38 38 38
1.3774183988571167 2.264392375946045 8.029559135437012 71 71 71
1.141652226448059 3.164625644683838 6.623259544372559 61 61 61
1.0186753273010254 3.213015556335449 5.8683013916015625 77 77 77
1.4067851305007935 3.0183403491973877 8.116910934448242 28 28 28
1.3959934711456299 1.242475152015686 8.019253730773926 15 15 15
1.478411078453064 2.5682520866394043 8.21611213684082 11 11 11
1.1426689624786377 3.1975133419036865 6.463273525238037 90 90 90
1.1586239337921143 3.1845219135284424 6.534777641296387 66 66 66
1.4314988851547241 -0.8001143336296082 7.938521385192871 46 46 46
1.5587559938430786 -0.48259344696998596 8.669876098632812 17 17 17
1.516218900680542 0.37425869703292847 8.2264404296875 34 34 34
1.354400873184204 3.092869758605957 7.330119609832764 81 81 81
1.4794737100601196 2.604422092437744 7.783318519592285 52 52 52
1.55012845993042 2.4592537879943848 8.24998950958252 44 44 44
1.518500566482544 -0.5935805439949036 7.925228595733643 49 49 49
1.5732477903366089 1.2857110500335693 8.167817115783691 45 45 45
1.5840548276901245 -2.5433521270751953 7.9925408363342285 23 23 23
1.4649569988250732 3.0801336765289307 7.4007415771484375 104 104 104
1.6590962409973145 2.9463717937469482 8.34045124053955 35 35 35
1.6553583145141602 1.8284772634506226 8.31283187866211 52 52 52
1.6731370687484741 2.475531578063965 8.264758110046387 29 29 29
1.859443187713623 -0.49198266863822937 9.177663803100586 19 19 19
1.6797215938568115 3.0484955310821533 8.168663024902344 54 54 54
1.4062060117721558 3.115593671798706 6.818444728851318 65 65 65
1.6790664196014404 -0.36653921008110046 7.980102062225342 54 54 54
1.799484133720398 1.6536954641342163 8.488493919372559 65 65 65
1.799484133720398 1.6536954641342163 8.488493919372559 65 65 65
1.8827104568481445 0.8249845504760742 8.849875450134277 54 54 54
1.914904236793518 -1.5531058311462402 9.094085693359375 23 23 23
1.781890869140625 1.674396276473999 8.340009689331055 61 61 61
1.9407459497451782 2.81742787361145 9.172019958496094 42 42 42
1.8329193592071533 2.4060211181640625 8.498003005981445 52 52 52
1.7276577949523926 3.1361608505249023 7.97309684753418 61 61 61
1.871623158454895 -1.143744707107544 8.542474746704102 52 52 52
1.8917804956436157 2.872697114944458 8.530250549316406 36 36 36
1.89961838722229 1.122581124305725 8.555740356445312 41 41 41
1.89961838722229 1.122581124305725 8.555740356445312 41 41 41
1.3945167064666748 3.1971285343170166 6.277159690856934 64 64 64
1.3945167064666748 3.1971285343170166 6.277159690856934 64 64 64
1.9313021898269653 3.0074219703674316 8.686014175415039 69 69 69
1.943377137184143 1.8189826011657715 8.60440444946289 63 63 63
1.9444760084152222 -0.6675810813903809 8.519363403320312 60 60 60
2.0357112884521484 -2.672849655151367 8.96236801147461 21 21 21
1.9867310523986816 -0.22191403806209564 8.625933647155762 59 59 59
1.9712772369384766 -0.011978134512901306 8.45628833770752 64 64 64
2.028762102127075 -1.032927393913269 8.692935943603516 21 21 21
2.0629072189331055 2.8851301670074463 8.833344459533691 36 36 36
1.9505709409713745 0.1602313071489334 8.246034622192383 51 51 51
2.133509874343872 1.8692396879196167 8.811660766601562 62 62 62
1.9901636838912964 3.0491416454315186 8.189194679260254 61 61 61
2.1320345401763916 -1.2174566984176636 8.759359359741211 16 16 16
2.1318206787109375 -1.2173151969909668 8.758337020874023 16 16 16
2.1318206787109375 -1.2173151969909668 8.758337020874023 16 16 16
2.1680331230163574 2.4063167572021484 8.804469108581543 18 18 18
1.8558928966522217 3.0796852111816406 7.512260437011719 78 78 78
2.223961591720581 1.618686556816101 8.838147163391113 64 64 64
2.2658002376556396 -1.6207693815231323 8.970016479492188 25 25 25
2.302189350128174 2.154348373413086 9.008679389953613 47 47 47
2.33376145362854 2.309598207473755 9.06789779663086 35 35 35
1.5112454891204834 3.1729493141174316 5.782205104827881 74 74 74
1.5112454891204834 3.1729493141174316 5.782205104827881 74 74 74
2.3878700733184814 -2.168370246887207 9.181352615356445 18 18 18
2.3716509342193604 2.3915462493896484 9.150439262390137 54 54 54
1.5218324661254883 3.2143537998199463 5.806064128875732 89 89 89
1.6568682193756104 3.2019898891448975 6.317586898803711 69 69 69
2.418200969696045 2.9877843856811523 9.168124198913574 52 52 52
2.344444751739502 -1.484593391418457 8.9134521484375 59 59 59
2.493730306625366 2.603457450866699 9.3677339553833 42 42 42
1.7370394468307495 3.1898179054260254 6.493564128875732 74 74 74
2.505786895751953 2.4305810928344727 9.332493782043457 21 21 21
1.685562252998352 3.208087921142578 6.250393390655518 70 70 70
2.5145437717437744 -1.1888507604599 9.331165313720703 48 48 48
2.489352226257324 -0.9339439868927002 9.224522590637207 91 91 91
2.5032265186309814 -1.3181648254394531 9.248269081115723 88 88 88
2.5327539443969727 -1.5514335632324219 9.291424751281738 55 55 55
2.5113799571990967 -0.5632109642028809 9.149642944335938 57 57 57
2.5009989738464355 -1.793364405632019 8.978643417358398 38 38 38
2.6115119457244873 2.922579765319824 9.445707321166992 55 55 55
2.365142345428467 2.967726469039917 8.465045928955078 96 96 96
2.5813825130462646 1.419649600982666 9.287412643432617 60 60 60
2.6745359897613525 2.624769926071167 9.57133960723877 61 61 61
1.789489984512329 3.2125084400177 6.406028747558594 112 112 112
2.4994282722473145 -0.8828026056289673 8.798945426940918 24 24 24
1.8731324672698975 3.058500051498413 6.653531551361084 67 67 67
1.8301453590393066 3.3396401405334473 6.5516438484191895 74 74 74
2.7759203910827637 -1.657017707824707 9.649620056152344 63 63 63
2.6237075328826904 -1.7000874280929565 8.972941398620605 44 44 44
1.6707545518875122 3.2289316654205322 5.7026543617248535 85 85 85
2.8474056720733643 -2.121553421020508 9.66096019744873 21 21 21
2.9138219356536865 -1.6237165927886963 9.773236274719238 35 35 35
2.8846325874328613 0.34888899326324463 9.759744644165039 67 67 67
2.8604559898376465 -2.0611319541931152 9.62876033782959 45 45 45
1.7588145732879639 3.2677392959594727 5.901204586029053 71 71 71
2.8700153827667236 1.3072606325149536 9.537419319152832 39 39 39
2.9665346145629883 0.8646952509880066 9.822661399841309 68 68 68
2.9608685970306396 -0.751821756362915 9.793693542480469 104 104 104
2.898789644241333 -2.152810573577881 9.555129051208496 65 65 65
2.898789644241333 -2.152810573577881 9.555129051208496 65 65 65
2.9745895862579346 0.16784138977527618 9.767868995666504 79 79 79
2.8747787475585938 -0.16772916913032532 9.413195610046387 82 82 82
2.99733567237854 1.4277366399765015 9.799334526062012 74 74 74
2.9960310459136963 0.3623726963996887 9.783977508544922 47 47 47
2.9457240104675293 2.8889567852020264 9.367852210998535 80 80 80
2.3041200637817383 3.394418478012085 7.351815223693848 81 81 81
2.513293743133545 3.0317609310150146 7.6173529624938965 87 87 87
2.957803249359131 2.9607326984405518 8.952193260192871 85 85 85
0.053675539791584015 3.2206969261169434 5.420660018920898 138 138 138
-0.5682733058929443 0.9289058446884155 5.568500518798828 12 12 12
-1.1281638145446777 1.965435266494751 5.054969787597656 131 131 131
-0.28852149844169617 2.477576732635498 5.9921135902404785 17 17 17
-0.5683901906013489 0.9300861358642578 5.558315753936768 18 18 18
-1.664223551750183 2.596177816390991 4.351815700531006 16 16 16
-0.2291647344827652 3.198044776916504 6.023051738739014 33 33 33
-0.7650231719017029 2.0902466773986816 5.407634735107422 106 106 106
2.438265085220337 -0.07867992669343948 9.20368480682373 36 36 36
-0.9070305228233337 1.329573392868042 5.1235551834106445 7 7 7
0.03324660658836365 2.4619598388671875 6.3846116065979 18 18 18
-1.3817514181137085 -0.2648318111896515 4.4608306884765625 77 77 77
-0.47480860352516174 -0.8552309274673462 5.474773406982422 90 90 90
-0.6947697997093201 3.2471957206726074 5.338954925537109 109 109 109
0.5555437207221985 3.2142536640167236 5.680706977844238 112 112 112
-1.4438652992248535 1.741228699684143 4.554336071014404 79 79 79
0.32280483841896057 3.1590347290039062 6.093605995178223 54 54 54
-0.8733127117156982 -0.009461215697228909 5.027771949768066 71 71 71
-0.0992528572678566 3.183908224105835 6.195572376251221 137 137 137
0.7973334789276123 3.1691997051239014 5.516543865203857 109 109 109
-1.3934663534164429 0.9390062093734741 4.444258213043213 59 59 59
-0.05610281974077225 3.152169704437256 6.174249649047852 100 100 100
0.4314638674259186 3.16778826713562 5.884732723236084 25 25 25
0.5432313680648804 3.07350754737854 6.124325752258301 58 58 58
-1.1092228889465332 1.9338078498840332 4.95981502532959 36 36 36
-0.47170424461364746 -0.42603394389152527 5.395975112915039 23 23 23
-0.3579199016094208 0.1332659125328064 5.597414970397949 70 70 70
-1.0229460000991821 -0.4023782014846802 4.88452672958374 22 22 22
0.16820316016674042 3.233215570449829 5.876209259033203 106 106 106
-0.7938225269317627 1.6966437101364136 5.277766704559326 2 2 2
-0.974744439125061 2.546875476837158 5.1928277015686035 21 21 21
2.9527034759521484 0.6329071521759033 9.706183433532715 2 2 2
-0.9356086254119873 1.9301373958587646 5.2225422859191895 9 9 9
2.4958982467651367 -0.8265276551246643 9.164422988891602 29 29 29
-0.902256965637207 1.1346803903579712 5.17763090133667 21 21 21
-0.04697892814874649 0.32474228739738464 6.161745548248291 5 5 5
0.08839652687311172 3.2144737243652344 5.692423343658447 49 49 49
-0.912118673324585 0.5596990585327148 5.2127814292907715 100 100 100
-1.0541799068450928 0.3503621816635132 4.944471836090088 20 20 20
0.4872850477695465 0.49705278873443604 6.730325698852539 3 3 3
-1.4560872316360474 2.1531224250793457 4.570645332336426 91 91 91
-1.5124937295913696 -0.42674094438552856 4.218379497528076 42 42 42
-0.8492913842201233 -0.8646891713142395 5.15730094909668 41 41 41
-1.0516778230667114 0.35025495290756226 4.932626724243164 20 20 20
-0.3677874207496643 0.14176882803440094 5.750333786010742 26 26 26
-1.5561631917953491 1.1345938444137573 4.235220909118652 154 154 154
-0.6933399438858032 0.14588074386119843 5.308610439300537 4 4 4
-0.20041169226169586 0.15227070450782776 5.909037113189697 55 55 55
-0.20040501654148102 0.15227261185646057 5.908998012542725 55 55 55
-1.0113561153411865 1.7494056224822998 5.035373210906982 120 120 120
-0.7469989657402039 1.3347700834274292 5.428725242614746 142 142 142
-0.8236237168312073 -0.8384381532669067 5.151656627655029 129 129 129
-0.5059909820556641 -0.6046803593635559 5.534475803375244 5 5 5
-1.292881965637207 2.154205083847046 4.764432907104492 23 23 23
3.0005686283111572 0.2806996703147888 9.811259269714355 1 1 1
-1.2108582258224487 -0.2154727429151535 4.696357250213623 40 40 40
-0.4803345501422882 -0.6190798878669739 5.427317142486572 44 44 44
-0.910654604434967 1.5178263187408447 5.163356781005859 17 17 17
-0.8796398043632507 -0.24304132163524628 5.041550159454346 26 26 26
-1.2913234233856201 0.14151613414287567 4.604125022888184 121 121 121
-0.9493144154548645 2.324042797088623 5.222400665283203 107 107 107
-1.5871803760528564 0.3997229039669037 4.248280048370361 38 38 38
-0.9106612205505371 1.517826795578003 5.163360595703125 17 17 17
-0.5619597434997559 1.9120813608169556 5.690001010894775 10 10 10
-1.5140076875686646 -1.23329496383667 4.181517124176025 76 76 76
-1.2202321290969849 0.15619336068630219 4.6830878257751465 23 23 23
-1.3979532718658447 0.35634705424308777 4.499390125274658 15 15 15
-1.2202554941177368 0.15619252622127533 4.68314266204834 23 23 23
-0.39963585138320923 1.108438491821289 5.718865871429443 20 20 20
1.2683348655700684 2.357720136642456 7.869422912597656 8 8 8
2.4668023586273193 0.8013996481895447 9.006376266479492 59 59 59
-0.9295804500579834 1.8990063667297363 5.195098876953125 99 99 99
-0.594065248966217 1.7121740579605103 5.598820209503174 4 4 4
-1.5439702272415161 -0.6223352551460266 4.229068756103516 117 117 117
-1.1497455835342407 0.3850060999393463 4.762973308563232 30 30 30
-1.1271594762802124 1.1393561363220215 4.900380611419678 22 22 22
-1.3430328369140625 0.40353280305862427 4.615407943725586 129 129 129
-1.4505301713943481 1.953572392463684 4.543788909912109 14 14 14
-1.3430265188217163 0.40352529287338257 4.615386009216309 129 129 129
-0.7782841324806213 2.313992977142334 5.395686149597168 25 25 25
0.24219126999378204 2.0115842819213867 6.498200416564941 61 61 61
1.899187445640564 1.9379501342773438 8.572921752929688 27 27 27
0.7444700002670288 3.1430447101593018 6.475910186767578 41 41 41
1.2654250860214233 3.0535030364990234 7.195688247680664 107 107 107
0.3360708951950073 3.111469268798828 6.2982707023620605 49 49 49
-0.5682727694511414 0.9289053082466125 5.568497657775879 12 12 12
-0.849926769733429 -1.2555983066558838 5.140744686126709 53 53 53
0.20226304233074188 3.170008897781372 5.812216758728027 113 113 113
-0.7307723760604858 2.4107680320739746 5.757172584533691 47 47 47
0.4361995458602905 3.133669376373291 5.707887172698975 65 65 65
-0.8658353686332703 -0.051791608333587646 5.1498799324035645 61 61 61
-1.2092252969741821 -0.04807688295841217 4.690748691558838 67 67 67
-0.3975640833377838 0.9152615666389465 5.759960174560547 30 30 30
-0.39747312664985657 0.9151768684387207 5.759481430053711 30 30 30
-1.0106163024902344 -1.2624701261520386 5.268435955047607 45 45 45
0.4866936504840851 3.2136828899383545 5.770754814147949 48 48 48
-0.004576769657433033 3.1988871097564697 5.474819183349609 41 41 41
-1.0655691623687744 0.752083957195282 4.914300918579102 38 38 38
3.0638701915740967 -0.2452557384967804 9.613168716430664 131 131 131
-0.19770345091819763 3.1407926082611084 5.940776348114014 80 80 80
-1.6167412996292114 1.7683937549591064 4.308365821838379 22 22 22
0.5832118391990662 3.2213551998138428 5.690534591674805 82 82 82
-0.024470074102282524 0.13206766545772552 6.0751471519470215 13 13 13
2.0544650554656982 1.7191362380981445 8.673774719238281 25 25 25
-1.6112231016159058 1.750632882118225 4.3275041580200195 64 64 64
-0.030836382880806923 3.1493046283721924 5.46161413192749 98 98 98
-1.0821841955184937 1.1133280992507935 4.7959747314453125 13 13 13
-0.10217256098985672 3.2424681186676025 5.536810398101807 63 63 63
0.22708278894424438 3.3058083057403564 5.830178260803223 101 101 101
-0.09404125809669495 3.213940382003784 5.491528511047363 72 72 72
-1.5092339515686035 -0.9991264939308167 4.699572563171387 78 78 78
-0.9106563329696655 -0.22829711437225342 5.045899868011475 32 32 32
-0.07372117042541504 3.242460250854492 5.561512470245361 106 106 106
-0.4380306303501129 2.2818901538848877 5.783721923828125 22 22 22
-1.4245938062667847 0.9555756449699402 4.541631698608398 104 104 104
-1.3852276802062988 -0.6312471628189087 4.445201873779297 98 98 98
-1.5890612602233887 1.1626979112625122 4.324182510375977 155 155 155
-1.6441267728805542 -0.4486538767814636 4.094568252563477 30 30 30
-0.5427778363227844 0.5461695790290833 5.56234073638916 49 49 49
-0.43655651807785034 3.2328948974609375 5.356845855712891 118 118 118
2.8029825687408447 0.8197505474090576 9.634052276611328 4 4 4
-0.17191433906555176 3.1688342094421387 5.924697399139404 64 64 64
-0.5683572888374329 0.9300093650817871 5.5579609870910645 18 18 18
-0.09422213584184647 1.5005604028701782 6.209120273590088 12 12 12
-0.08280287683010101 1.3110594749450684 6.219971656799316 138 138 138
2.785493850708008 1.5153048038482666 8.999293327331543 30 30 30
-0.5795417428016663 3.1907706260681152 5.281712532043457 94 94 94
0.13295385241508484 0.3225352168083191 6.336374759674072 40 40 40
-1.2202517986297607 0.15619607269763947 4.683129787445068 23 23 23
-1.551568627357483 -0.44814690947532654 4.207990646362305 101 101 101
0.20015032589435577 3.2239410877227783 5.674516201019287 43 43 43
1.268596887588501 3.1304781436920166 7.238563537597656 69 69 69
-1.118381381034851 0.38357171416282654 4.709129333496094 67 67 67
2.9565305709838867 0.8093054294586182 9.768839836120605 69 69 69
-0.8608725666999817 -1.4680753946304321 5.184646129608154 74 74 74
-0.2834588885307312 2.669049024581909 6.029466152191162 70 70 70
-1.3126897811889648 -0.01741326041519642 4.578254222869873 25 25 25
-1.3144428730010986 -0.009232492186129093 4.547077178955078 25 25 25
0.5278324484825134 3.2020654678344727 5.710209846496582 76 76 76
-1.3880802392959595 0.13970176875591278 4.464173316955566 119 119 119
-0.23197993636131287 3.1898691654205322 5.780330181121826 147 147 147
0.19116126000881195 3.237823724746704 5.925076007843018 70 70 70
0.6677107810974121 3.082831382751465 6.31226110458374 75 75 75
0.7472079396247864 3.170900344848633 6.520129203796387 37 37 37
2.7779393196105957 1.5321158170700073 9.629470825195312 20 20 20
0.28435221314430237 3.1957640647888184 5.898073196411133 124 124 124
2.054582118988037 1.7192058563232422 8.674168586730957 25 25 25
-0.01663334295153618 3.223546028137207 5.605978965759277 129 129 129
2.5768163204193115 0.9569216966629028 9.043863296508789 46 46 46
-0.0017141386633738875 3.272487163543701 6.056679725646973 116 116 116
0.46888044476509094 3.1493444442749023 6.663487911224365 86 86 86
-0.4313119649887085 3.139587163925171 5.461987018585205 43 43 43
0.8662045001983643 1.4540224075317383 7.365200996398926 23 23 23
-0.33177685737609863 -0.4371352791786194 5.80377721786499 17 17 17
0.2618752121925354 0.7054877877235413 6.513981819152832 34 34 34
-0.8201462626457214 -0.8670719861984253 5.148934841156006 18 18 18
-0.2311396300792694 1.305260419845581 5.967634201049805 2 2 2
-0.49730101227760315 -0.4577161967754364 5.486146926879883 87 87 87
1.004056692123413 3.1747779846191406 6.47108793258667 56 56 56
-0.08982698619365692 1.104703664779663 6.135817050933838 69 69 69
2.952583074569702 1.7333377599716187 9.427938461303711 30 30 30
0.9874314069747925 3.106902599334717 7.000180244445801 130 130 130
0.33699578046798706 -0.6390988230705261 6.587062358856201 19 19 19
2.5620081424713135 -1.414061188697815 9.338541984558105 18 18 18
0.03515961393713951 3.2171032428741455 5.729081153869629 133 133 133
-0.9109912514686584 2.076619863510132 5.063211441040039 84 84 84
-0.8235955238342285 -0.8384115695953369 5.151453971862793 129 129 129
-0.3513968288898468 0.5167785286903381 5.6686015129089355 2 2 2
-1.5664690732955933 0.5600578188896179 4.227898597717285 76 76 76
-1.3978153467178345 0.9417061805725098 4.458044052124023 57 57 57
-1.261924386024475 1.3477153778076172 4.745964527130127 17 17 17
3.073124647140503 -1.4753059148788452 9.704292297363281 80 80 80
-1.0655570030212402 0.7520769834518433 4.9142537117004395 38 38 38
-1.0349147319793701 0.12776608765125275 4.8771467208862305 128 128 128
-1.523963451385498 -1.266876459121704 4.197197437286377 76 76 76
-1.2458981275558472 1.8910764455795288 4.651554584503174 127 127 127
-1.5140738487243652 -1.2333236932754517 4.181614875793457 76 76 76
-0.5949655175209045 2.0908353328704834 5.569842338562012 4 4 4
-1.5796539783477783 0.36016610264778137 4.281373500823975 14 14 14
-0.5682717561721802 0.928905725479126 5.568489074707031 12 12 12
-0.9070239663124084 1.3295701742172241 5.123534679412842 7 7 7
-1.4087846279144287 0.7654325366020203 4.49371862411499 7 7 7
-1.596792459487915 0.766321063041687 4.314507007598877 145 145 145
-0.9336327314376831 1.7279448509216309 5.160160541534424 40 40 40
2.6154274940490723 -0.44728583097457886 9.304673194885254 26 26 26
-1.2059335708618164 -0.23560363054275513 4.6799492835998535 87 87 87
-1.220239520072937 0.15619409084320068 4.683103084564209 23 23 23
0.03325222060084343 2.4621455669403076 6.385001182556152 18 18 18
-1.5918292999267578 0.970809817314148 4.288375377655029 8 8 8
-0.09404140710830688 3.213941812515259 5.491529941558838 72 72 72
-0.8492860794067383 -0.8646837472915649 5.157284259796143 41 41 41
-0.07353152334690094 3.2417805194854736 5.560421943664551 106 106 106
-1.3700129985809326 -0.44292181730270386 4.477891445159912 43 43 43
-0.5717460513114929 1.121725082397461 5.570572853088379 136 136 136
-0.7475519776344299 1.5245550870895386 5.352902412414551 68 68 68
-0.7046772241592407 0.348152756690979 5.349307060241699 16 16 16
-0.6315792202949524 2.521836996078491 5.629980087280273 19 19 19
-1.0516886711120605 0.3502601087093353 4.932651519775391 20 20 20
-1.4245901107788086 0.955574095249176 4.541628360748291 104 104 104
2.4962594509124756 -0.8266567587852478 9.165778160095215 29 29 29
-1.1995686292648315 -0.4484861493110657 4.678096771240234 48 48 48
-0.7937196493148804 1.6964006423950195 5.2770676612854 2 2 2
-1.633057951927185 2.3769426345825195 4.367478847503662 107 107 107
-0.5682809352874756 0.9289253950119019 5.568478107452393 12 12 12
-0.7514689564704895 1.1326366662979126 5.3365654945373535 32 32 32
-1.3829214572906494 -0.41603386402130127 4.464845180511475 66 66 66
-1.2384456396102905 1.3790785074234009 4.745434761047363 139 139 139
-1.5366597175598145 -1.6503483057022095 4.084660530090332 78 78 78
-1.423149585723877 -1.6691612005233765 4.299803256988525 51 51 51
0.2240392118692398 2.623692035675049 6.598540306091309 24 24 24
0.7500947713851929 3.136672258377075 6.469215393066406 61 61 61
1.668016791343689 -0.2598157823085785 8.103610038757324 24 24 24
-0.8035649061203003 -1.657343864440918 5.09390115737915 28 28 28
-1.3836605548858643 -0.6307911276817322 4.442373275756836 98 98 98
-0.5365267395973206 0.5694724321365356 5.540072917938232 13 13 13
0.2618851661682129 0.7054358124732971 6.51361608505249 34 34 34
-1.4438271522521973 1.7412054538726807 4.5542707443237305 79 79 79
-0.27160781621932983 2.0882010459899902 6.012633800506592 10 10 10
-1.4809660911560059 0.7544744610786438 4.387255668640137 13 13 13
-0.817692756652832 -1.4752787351608276 5.176512241363525 31 31 31
-0.1733415722846985 -0.22883248329162598 5.871805667877197 40 40 40
-0.5079883337020874 0.14827854931354523 5.440320014953613 48 48 48
-0.6947697997093201 3.2471957206726074 5.338954925537109 109 109 109
-0.8531879782676697 -0.20958402752876282 5.103122234344482 20 20 20
0.3296269476413727 3.160130739212036 5.996675491333008 39 39 39
-1.5554720163345337 -0.9691181778907776 4.430428504943848 23 23 23
-0.27324792742729187 3.1890311241149902 5.786693572998047 141 141 141
-0.22533470392227173 3.2187564373016357 5.632107734680176 45 45 45
-1.5089926719665527 -0.9989690184593201 4.699132919311523 98 98 98
-1.0437628030776978 0.400399386882782 4.9182281494140625 65 65 65
-0.7783198356628418 2.3140082359313965 5.395709991455078 3 3 3
-1.6642305850982666 2.596182107925415 4.35182523727417 16 16 16
-1.4505248069763184 1.953568458557129 4.543780326843262 14 14 14
-1.573127269744873 -0.8335748314857483 4.171340465545654 127 127 127
-0.5945976376533508 1.8657641410827637 5.544162273406982 63 63 63
-1.0842883586883545 1.1480200290679932 4.940629005432129 73 73 73
0.4872749447822571 0.4970836043357849 6.73071813583374 3 3 3
-0.7783479690551758 2.31410813331604 5.395931720733643 3 3 3
2.7854130268096924 1.515249490737915 8.998983383178711 30 30 30
-1.430594563484192 1.2128252983093262 4.509490013122559 34 34 34
2.7003300189971924 0.6386690139770508 9.446722984313965 36 36 36
-0.2885149419307709 2.477555513381958 5.992072105407715 17 17 17
0.6157270669937134 3.2058281898498535 5.72905158996582 92 92 92
-0.1944267302751541 3.263502597808838 5.774289131164551 115 115 115
0.03323529288172722 2.462001085281372 6.3847150802612305 18 18 18
0.42415156960487366 3.216033935546875 5.915757179260254 114 114 114
-0.1472429633140564 3.174229621887207 5.892404079437256 133 133 133
-0.36642777919769287 0.36732739210128784 5.720585823059082 10 10 10
-0.49210914969444275 -0.6401659250259399 5.612490177154541 82 82 82
0.32126373052597046 3.2350375652313232 6.040426731109619 43 43 43
-0.4803304374217987 -0.6190711259841919 5.427276134490967 44 44 44
0.4157426059246063 3.278412103652954 5.753822326660156 97 97 97
-1.5995408296585083 1.3941974639892578 4.321960926055908 71 71 71
1.2685954570770264 3.1304757595062256 7.238558292388916 69 69 69
-0.22910186648368835 3.1984126567840576 6.023812294006348 33 33 33
-0.0929233506321907 3.2222237586975098 5.627844333648682 135 135 135
-0.40805503726005554 3.250708818435669 5.540805339813232 127 127 127
0.5442237257957458 3.080491304397583 6.139422416687012 58 58 58
-0.3518766760826111 -0.427403062582016 5.7403035163879395 5 5 5
0.22906558215618134 3.189861536026001 5.880420684814453 86 86 86
0.20202533900737762 3.1718266010284424 5.815098285675049 113 113 113
1.2675135135650635 3.061140298843384 7.207767963409424 90 90 90
-0.03859136253595352 3.2230517864227295 5.527297019958496 63 63 63
-0.39959716796875 1.1084002256393433 5.718661308288574 20 20 20
-0.2004055380821228 0.1522727608680725 5.909008026123047 55 55 55
2.5951974391937256 -0.6275774240493774 9.242345809936523 1 1 1
-0.5115137100219727 -0.4650079011917114 5.545670032501221 48 48 48
-0.47368454933166504 -0.8549069166183472 5.470437049865723 90 90 90
-0.7494965195655823 0.7452695965766907 5.3949079513549805 11 11 11
-1.6642307043075562 2.5961849689483643 4.351828575134277 16 16 16
-0.7583780884742737 1.3035515546798706 5.345154285430908 63 63 63
2.913790464401245 -1.623692512512207 9.77313232421875 35 35 35
0.9057781100273132 3.099004030227661 6.672743320465088 117 117 117
-0.8062337636947632 -0.8611139059066772 5.1085920333862305 24 24 24
-0.9070168733596802 1.3295552730560303 5.123483180999756 7 7 7
2.9525465965270996 0.6328748464584351 9.705649375915527 2 2 2
0.16820211708545685 3.2332215309143066 5.876219749450684 106 106 106
0.3228507936000824 3.159132719039917 6.093616485595703 54 54 54
-1.0351637601852417 -0.23736459016799927 4.851712226867676 148 148 148
0.4144982099533081 1.277164340019226 6.787600994110107 1 1 1
0.363391637802124 3.2725377082824707 5.887052059173584 115 115 115
-1.3983958959579468 -0.028845589607954025 4.456089973449707 75 75 75
-0.16868095099925995 3.2168850898742676 5.535387992858887 116 116 116
-1.053581714630127 0.8739755153656006 4.878856182098389 97 97 97
0.003857039613649249 3.1624772548675537 5.720889091491699 109 109 109
0.6910882592201233 2.0323173999786377 7.160786151885986 27 27 27
0.15126614272594452 3.1813206672668457 5.883419036865234 99 99 99
-0.09434348344802856 3.2237915992736816 5.458218574523926 47 47 47
0.4059467017650604 1.633273959159851 6.701600074768066 75 75 75
0.4637776017189026 3.141695022583008 6.676777362823486 46 46 46
-0.1936001032590866 0.1463342010974884 5.708688735961914 109 109 109
-0.7475687861442566 1.5245753526687622 5.352945327758789 68 68 68
-0.24297501146793365 1.6841679811477661 5.9709086418151855 5 5 5
-1.3011195659637451 0.4218912422657013 4.617637634277344 118 118 118
0.21487770974636078 2.271639585494995 6.655679702758789 40 40 40
-1.5418941974639893 -1.276846170425415 4.225306510925293 70 70 70
0.23744647204875946 1.4705942869186401 6.541250705718994 14 14 14
-1.5140228271484375 -1.2333041429519653 4.181541919708252 76 76 76
-0.8177148103713989 -1.4753155708312988 5.17664098739624 31 31 31
-1.4784051179885864 2.3805739879608154 4.567226886749268 23 23 23
-1.5955219268798828 0.3579074442386627 4.278840065002441 27 27 27
-1.5092302560806274 -0.9991245865821838 4.699567794799805 78 78 78
-1.5089921951293945 -0.998967707157135 4.699130535125732 98 98 98
-0.8738002181053162 2.7440080642700195 5.3421454429626465 39 39 39
-1.573423981666565 -0.8337627053260803 4.170266151428223 103 103 103
-1.424555778503418 0.9555649757385254 4.541517734527588 104 104 104
-0.5940660238265991 1.7121087312698364 5.598598480224609 4 4 4
-1.0833754539489746 1.5286898612976074 4.9305195808410645 57 57 57
-1.0541998147964478 0.35036519169807434 4.944552421569824 20 20 20
-0.7448409795761108 1.683524489402771 5.293498992919922 1 1 1
-1.0542843341827393 0.3503928780555725 4.944765090942383 20 20 20
-0.8072282671928406 -0.8620044589042664 5.112884998321533 45 45 45
2.913670063018799 -1.6236623525619507 9.772570610046387 35 35 35
-0.8175882697105408 -0.8372842669487 5.13490629196167 53 53 53
-0.7937301397323608 1.696411371231079 5.277100086212158 2 2 2
-0.7321439981460571 2.712071180343628 5.47053337097168 20 20 20
1.4915143251419067 -0.6557134389877319 4.389402389526367 83 83 83
-1.5439733266830444 -0.6223329901695251 4.229076385498047 117 117 117
-1.4940415620803833 -0.5398503541946411 4.202669620513916 127 127 127
-1.1314879655838013 2.3498787879943848 4.980081558227539 12 12 12
-1.4670740365982056 2.1729462146759033 4.607703685760498 57 57 57
-1.599153995513916 1.3601809740066528 4.295104503631592 83 83 83
-0.8471447229385376 -0.6254435777664185 5.088141918182373 10 10 10
-1.0313079357147217 -0.02313271537423134 4.916641712188721 65 65 65
-0.48032471537590027 -0.6190575957298279 5.427247524261475 44 44 44
-0.6471458077430725 -1.0511680841445923 5.208715915679932 56 56 56
-1.5668340921401978 -0.4540306627750397 4.22770357131958 98 98 98
-0.7613969445228577 2.0794265270233154 5.387150287628174 97 97 97
-0.6315889358520508 2.5218505859375 5.630031108856201 19 19 19
-1.3837488889694214 -0.4158772826194763 4.464455604553223 61 61 61
0.3153398931026459 3.1637792587280273 5.849466800689697 148 148 148
-1.0196373462677002 -0.43845826387405396 4.913766860961914 159 159 159
-0.5706716179847717 0.9318444132804871 5.578395843505859 18 18 18
-1.2305173873901367 -0.23507893085479736 4.685839653015137 120 120 120
-0.5682729482650757 0.9289050102233887 5.568499565124512 12 12 12
-1.1271833181381226 1.1393661499023438 4.900425434112549 22 22 22
-1.468421220779419 1.955110788345337 4.541200637817383 97 97 97
-0.12703710794448853 3.245488166809082 5.520033359527588 57 57 57
-0.09589586406946182 3.2248339653015137 5.50636625289917 97 97 97
-0.07355555891990662 3.241800546646118 5.560454368591309 106 106 106
-0.27957528829574585 2.4065778255462646 5.817376136779785 73 73 73
-1.205780029296875 -0.2355985939502716 4.679630279541016 87 87 87
-0.6069183349609375 2.3113584518432617 5.6569085121154785 112 112 112
-0.09872208535671234 3.1961512565612793 5.715351581573486 84 84 84
-1.633072853088379 2.3769688606262207 4.367506980895996 107 107 107
-0.8600401282310486 -0.21251358091831207 5.1143012046813965 65 65 65
-1.065561056137085 0.7520787715911865 4.914263725280762 38 38 38
-1.206229329109192 0.7177125215530396 4.653712749481201 59 59 59
-0.20494303107261658 0.6906983256340027 5.983278751373291 93 93 93
-1.2725991010665894 1.7504044771194458 4.759799957275391 15 15 15
-0.925341784954071 1.893445372581482 5.188547611236572 76 76 76
-0.8660265803337097 0.541883647441864 5.080557346343994 89 89 89
-1.25875723361969 0.955393373966217 4.728703498840332 16 16 16
-1.5967848300933838 0.7663185596466064 4.314495086669922 145 145 145
-0.5393540263175964 0.5669751167297363 5.546988010406494 21 21 21
-1.0821419954299927 1.1132811307907104 4.795788764953613 14 14 14
-1.2587981224060059 0.9554014801979065 4.72874641418457 16 16 16
-1.4135671854019165 0.9065147042274475 4.497175216674805 60 60 60
-0.2194279283285141 3.1061313152313232 5.840569972991943 69 69 69
0.1615149974822998 3.232572555541992 5.691173076629639 59 59 59
-0.8380957245826721 -1.6692469120025635 5.160010814666748 73 73 73
0.05451609939336777 3.175811290740967 6.103302001953125 153 153 153
0.5599498152732849 3.2429401874542236 5.691235542297363 82 82 82
0.5335025787353516 3.1659533977508545 6.290572643280029 38 38 38
-1.0132561922073364 -0.9457270503044128 5.271176815032959 73 73 73
0.3523094952106476 3.1949222087860107 5.877060890197754 114 114 114
2.4807000160217285 -0.7680676579475403 9.13368034362793 41 41 41
-1.351069450378418 -0.6762097477912903 4.440486907958984 69 69 69
1.8325488567352295 1.6276558637619019 8.684528350830078 24 24 24
0.16034317016601562 3.233635902404785 5.645130157470703 83 83 83
-1.1136689186096191 2.8993165493011475 5.018400192260742 49 49 49
-0.18341946601867676 -0.462737113237381 5.9380106925964355 28 28 28
-1.1122214794158936 1.5334217548370361 4.930919647216797 117 117 117
1.499367356300354 1.43148672580719 8.18749713897705 18 18 18
1.266660213470459 2.3546228408813477 7.859119415283203 8 8 8
-0.2248712033033371 1.2677135467529297 5.800510883331299 6 6 6
1.6681513786315918 -0.2598516345024109 8.104578018188477 24 24 24
1.4968738555908203 1.427350401878357 8.163471221923828 17 17 17
3.000621795654297 0.28071755170822144 9.811501502990723 1 1 1
0.2866191267967224 0.124209463596344 6.574685096740723 18 18 18
-0.0891106054186821 1.5452677011489868 6.165997505187988 12 12 12
-1.2483431100845337 1.3857035636901855 4.771474361419678 94 94 94
2.4763951301574707 0.10034889727830887 8.821487426757812 24 24 24
1.8992239236831665 1.937996506690979 8.573113441467285 27 27 27
0.26189371943473816 0.7054189443588257 6.513485431671143 34 34 34
0.41449809074401855 1.277160882949829 6.787613868713379 1 1 1
0.46314001083374023 3.1371917724609375 6.667095184326172 46 46 46
-0.5034051537513733 -0.602357804775238 5.4950385093688965 10 10 10
-0.4941410422325134 -0.6430209279060364 5.635996341705322 64 64 64
2.340550661087036 1.086403489112854 8.507953643798828 25 25 25
0.7481929659843445 3.149588108062744 6.486790657043457 61 61 61
-0.02935994789004326 3.233492851257324 5.7770771980285645 66 66 66
-1.5491312742233276 -1.665774941444397 4.165034294128418 43 43 43
-1.1738120317459106 -1.6703625917434692 4.623396873474121 58 58 58
-0.838628888130188 -1.6705631017684937 5.162113189697266 73 73 73
-0.7183983325958252 -1.6997257471084595 5.4000372886657715 45 45 45
-1.258726716041565 0.9553675651550293 4.728598594665527 16 16 16
-1.5418940782546997 -1.2768460512161255 4.225306510925293 70 70 70
-0.5717458724975586 1.1217232942581177 5.57056188583374 136 136 136
-1.5140272378921509 -1.2333086729049683 4.1815690994262695 76 76 76
-0.20481769740581512 0.6860066652297974 5.9897074699401855 91 91 91
-0.556079089641571 1.0797743797302246 5.539046764373779 85 85 85
-0.38357117772102356 1.0931569337844849 5.643157005310059 72 72 72
-1.010605812072754 -1.2624576091766357 5.26840353012085 45 45 45
-1.0685267448425293 0.9145108461380005 4.935037612915039 97 97 97
2.38822340965271 1.635254979133606 8.862088203430176 65 65 65
2.676805257797241 -1.4919852018356323 8.97769546508789 62 62 62
-0.824986457824707 -0.843154788017273 5.157787799835205 67 67 67
-0.511078953742981 -0.8808150887489319 5.625521659851074 58 58 58
-1.3512160778045654 -0.6762353181838989 4.440760135650635 69 69 69
1.4915229082107544 -0.6557207107543945 4.389438152313232 83 83 83
1.491533637046814 -0.6557300090789795 4.3894829750061035 83 83 83
-1.5439764261245728 -0.622338056564331 4.229077339172363 117 117 117
-1.5967838764190674 0.7663139700889587 4.314474582672119 145 145 145
1.5727211236953735 -0.7188323140144348 4.739295959472656 33 33 33
-1.3332146406173706 -0.631162703037262 4.378684043884277 31 31 31
-0.723268985748291 0.8915797472000122 5.339950084686279 90 90 90
-1.5722017288208008 -0.4547176957130432 4.229208469390869 100 100 100
2.495940685272217 -0.8264761567115784 9.164436340332031 29 29 29
0.1296009123325348 3.1560308933258057 5.706521034240723 71 71 71
-0.17718768119812012 -0.45107537508010864 5.849196434020996 21 21 21
-1.381761074066162 -0.2648320198059082 4.460853576660156 77 77 77
-1.548878788948059 -0.22748447954654694 4.27485990524292 139 139 139
-0.9747220277786255 2.5468342304229736 5.1927642822265625 21 21 21
-1.4481769800186157 2.1178276538848877 4.5568671226501465 75 75 75
-1.263160228729248 2.1266567707061768 4.740302562713623 117 117 117
-0.9495921730995178 2.3231635093688965 5.2221784591674805 107 107 107
-1.4744977951049805 1.9539580345153809 4.5446343421936035 71 71 71
-1.450502872467041 1.9535516500473022 4.5437421798706055 14 14 14
-0.5131051540374756 -0.08315864205360413 5.556495666503906 92 92 92
-0.9627581834793091 2.1338603496551514 5.1846537590026855 54 54 54
0.09592912346124649 2.65926194190979 6.494666576385498 2 2 2
-1.6387993097305298 1.7670565843582153 4.314422130584717 93 93 93
2.4382336139678955 -0.07867485284805298 9.20354175567627 36 36 36
0.09926468878984451 2.7847976684570312 6.808326244354248 61 61 61
-1.4438424110412598 1.7412244081497192 4.554317951202393 79 79 79
-0.10486777871847153 2.168598175048828 5.9303059577941895 9 9 9
-0.7707751989364624 1.944535255432129 5.36741304397583 36 36 36
-1.381119728088379 0.12206754088401794 4.4409003257751465 58 58 58
-0.933651864528656 1.7279653549194336 5.160212993621826 40 40 40
-0.9059457182884216 1.7102059125900269 5.1455159187316895 132 132 132
-1.2431247234344482 0.1623428761959076 4.689235210418701 167 167 167
-0.45068591833114624 1.889313817024231 5.7237420082092285 99 99 99
-0.42785343527793884 1.8927234411239624 5.7775959968566895 11 11 11
-0.8160645961761475 1.682723045349121 5.199296474456787 2 2 2
-0.800150990486145 1.669569730758667 5.275413990020752 82 82 82
-1.4133594036102295 1.310523509979248 4.505792140960693 93 93 93
-0.4101024866104126 1.6771138906478882 5.742093086242676 42 42 42
-0.5261934995651245 0.29786062240600586 5.539440631866455 85 85 85
2.9525773525238037 0.6328805088996887 9.705761909484863 2 2 2
-1.5869702100753784 1.1612622737884521 4.320748805999756 155 155 155
-1.0747567415237427 1.3030730485916138 4.934947967529297 94 94 94
-0.9070303440093994 1.3295753002166748 5.1235527992248535 7 7 7
-1.424558162689209 1.1638634204864502 4.511094093322754 66 66 66
-1.2461206912994385 1.13899827003479 4.725308418273926 74 74 74
-0.19935671985149384 0.5218360424041748 5.979775428771973 13 13 13
-1.2986531257629395 0.3980845808982849 4.529422283172607 94 94 94
-0.19934989511966705 0.5218333601951599 5.979730606079102 13 13 13
-1.3276660442352295 0.42541640996932983 4.674922943115234 104 104 104
-0.6960870027542114 0.4879172444343567 5.350924491882324 99 99 99
-1.592512845993042 0.9704203009605408 4.289937496185303 8 8 8
-0.38979801535606384 1.2624292373657227 5.729125499725342 79 79 79
-0.7287436723709106 0.5562574863433838 5.521685600280762 94 94 94
-0.0699317455291748 1.3023571968078613 6.204916954040527 138 138 138
-1.41358482837677 0.9065191149711609 4.497204303741455 60 60 60
2.421308994293213 0.5151419639587402 9.661893844604492 63 63 63
-1.0132540464401245 -0.9457220435142517 5.271169662475586 73 73 73
2.5057852268218994 2.4305992126464844 9.332501411437988 21 21 21
-1.202951192855835 -0.13513848185539246 4.672573566436768 36 36 36
-0.19796684384346008 1.4577531814575195 5.889656066894531 91 91 91
-0.4050171375274658 3.228517532348633 5.507824897766113 122 122 122
-1.3620939254760742 2.7652554512023926 4.718376636505127 12 12 12
-0.2260904461145401 1.1048049926757812 5.983211040496826 18 18 18
2.025286912918091 0.11271439492702484 8.753169059753418 19 19 19
2.462367296218872 -0.7596077919006348 9.050740242004395 41 41 41
1.808625340461731 1.0302737951278687 8.432622909545898 5 5 5
2.582179307937622 0.11731378734111786 9.124642372131348 106 106 106
-0.23758304119110107 3.1927881240844727 5.791814804077148 120 120 120
-0.4246981739997864 1.110489845275879 5.686620712280273 23 23 23
-0.15954270958900452 3.2021870613098145 5.878595352172852 45 45 45
2.9285054206848145 1.9545831680297852 9.556594848632812 53 53 53
0.12512394785881042 0.6717201471328735 6.32452917098999 31 31 31
0.563606858253479 3.1001663208007812 5.472198963165283 89 89 89
-0.7598133683204651 2.7218754291534424 5.485182285308838 44 44 44
0.7438087463378906 3.1209328174591064 6.432175636291504 56 56 56
2.9341299533843994 0.9838636517524719 9.714781761169434 40 40 40
1.2665809392929077 2.3544552326202393 7.85857629776001 8 8 8
-0.7569656372070312 2.254366636276245 5.252527236938477 65 65 65
0.47902098298072815 3.087599754333496 6.766205310821533 103 103 103
-0.026424214243888855 3.218189001083374 5.753702640533447 52 52 52
0.5675663948059082 2.2041256427764893 6.942848205566406 99 99 99
2.055879592895508 0.9920114874839783 8.495121002197266 112 112 112
0.0038315090350806713 3.162423610687256 5.720818996429443 109 109 109
-0.7676723599433899 0.2582915127277374 5.242390155792236 102 102 102
2.4128568172454834 1.3013722896575928 8.950243949890137 27 27 27
-1.37297785282135 -1.3224124908447266 5.251081943511963 32 32 32
0.39288318157196045 3.159801483154297 6.361120700836182 58 58 58
-0.5216088891029358 2.695448875427246 5.732503414154053 99 99 99
-1.3536027669906616 -0.5997341275215149 4.451229095458984 31 31 31
-0.1727060228586197 -0.6205581426620483 5.965041160583496 102 102 102
-1.552230715751648 -1.6685723066329956 4.170022964477539 43 43 43
-1.1736469268798828 -1.6702522039413452 4.62307596206665 58 58 58
-1.0726734399795532 -1.6801576614379883 4.736653804779053 73 73 73
-1.5173367261886597 -1.4115263223648071 4.177593231201172 4 4 4
-0.8422756791114807 -1.672450304031372 5.171245574951172 57 57 57
-0.9947392344474792 -1.473109245300293 5.218149185180664 74 74 74
-1.0106191635131836 -1.262471079826355 5.268442630767822 45 45 45
-1.622756838798523 -1.0964336395263672 5.4272661209106445 103 103 103
-1.0570930242538452 -1.0156669616699219 5.280987739562988 122 122 122
-0.5796918869018555 -0.8403106331825256 5.405529975891113 8 8 8
1.4915231466293335 -0.6557208895683289 4.389438629150391 83 83 83
-1.568855881690979 -0.4545098543167114 4.217492580413818 102 102 102
-1.551652193069458 -0.42684412002563477 4.2288713455200195 172 172 172
2.5747387409210205 -0.920261025428772 9.552270889282227 93 93 93
-1.3828322887420654 -0.4074043035507202 4.454396724700928 79 79 79
-1.381804347038269 -0.2648307681083679 4.46095085144043 52 52 52
-1.3817647695541382 -0.2648324966430664 4.460855007171631 77 77 77
-1.5572915077209473 -0.22321230173110962 4.246479511260986 37 37 37
-0.6804484128952026 -0.27292272448539734 5.342168807983398 101 101 101
-1.5573090314865112 -0.22320155799388885 4.246527671813965 37 37 37
1.6682052612304688 -0.2598668932914734 8.10496711730957 24 24 24
-1.2029527425765991 -0.13513706624507904 4.672580242156982 36 36 36
-0.8657417893409729 -0.051794711500406265 5.149681091308594 61 61 61
-1.5665262937545776 -0.028696589171886444 4.252114772796631 15 15 15
-0.03630173206329346 0.0993686243891716 6.136176586151123 101 101 101
-1.3775227069854736 0.13319924473762512 4.460356712341309 93 93 93
-0.3504481315612793 0.3373204171657562 5.671174049377441 55 55 55
2.66497540473938 0.6234882473945618 9.170977592468262 120 120 120
-1.2444305419921875 0.32917261123657227 4.665614128112793 100 100 100
-0.19931359589099884 0.5218108892440796 5.979507923126221 13 13 13
-0.7257505059242249 0.5537747740745544 5.498802185058594 86 86 86
-0.8730893135070801 0.5494787096977234 5.101138114929199 71 71 71
-1.284616231918335 0.5710992813110352 4.786653995513916 88 88 88
2.6392176151275635 1.4283981323242188 9.788084983825684 33 33 33
-1.122331976890564 0.7611932158470154 4.916354179382324 164 164 164
-1.2249946594238281 0.7511831521987915 4.678412914276123 104 104 104
-1.596765160560608 0.7663076519966125 4.314442157745361 145 145 145
-0.9990371465682983 0.9334627985954285 4.94680118560791 75 75 75
-0.5346868634223938 1.1192072629928589 5.5839738845825195 24 24 24
-1.2299774885177612 0.9332704544067383 4.62035608291626 51 51 51
-0.5717567801475525 1.1217342615127563 5.570605278015137 136 136 136
-1.2507216930389404 1.0032247304916382 4.720102787017822 40 40 40
-0.07684917747974396 1.309706449508667 6.229768753051758 121 121 121
-1.3826231956481934 0.9302863478660583 4.40907096862793 78 78 78
-1.6198698282241821 0.9732698798179626 4.298470497131348 159 159 159
1.8992071151733398 1.9379700422286987 8.573004722595215 27 27 27
2.5057733058929443 2.430586576461792 9.3324556350708 21 21 21
-1.5677053928375244 1.167899489402771 4.347260475158691 132 132 132
-0.08464088290929794 1.6629369258880615 6.159843444824219 19 19 19
-1.4137935638427734 1.3114442825317383 4.506771564483643 93 93 93
1.2684086561203003 2.3578901290893555 7.869970798492432 8 8 8
-1.0834298133850098 1.5287318229675293 4.9306464195251465 57 57 57
0.558673083782196 2.3280251026153564 7.273260593414307 36 36 36
-0.7660630941390991 1.5954735279083252 4.949396133422852 6 6 6
-1.4350546598434448 1.5485154390335083 4.5271172523498535 23 23 23
-1.435470461845398 1.5495597124099731 4.5283942222595215 23 23 23
-0.5949547290802002 2.090789556503296 5.569753646850586 4 4 4
-1.4438426494598389 1.741226077079773 4.554319381713867 79 79 79
-0.31370627880096436 2.473386287689209 5.9275288581848145 95 95 95
-1.4505400657653809 1.953579306602478 4.543806552886963 14 14 14
