ply
format ascii 1.0
element vertex 719
property float x
property float y
property float z
property uchar red
property uchar green
property uchar blue
end_header
-3.493046998977661 -3.290066957473755 14.734219551086426 13 13 13
1.4523537158966064 0.4784850776195526 5.424564838409424 102 102 102
1.4683737754821777 0.6983566284179688 5.472962379455566 62 62 62
1.0864031314849854 0.9283274412155151 5.686093330383301 7 7 7
2.1178488731384277 0.46198588609695435 5.42530632019043 58 58 58
-9.3873872756958 -2.9165446758270264 27.429269790649414 2 2 2
0.28842103481292725 3.3666558265686035 6.376735687255859 28 28 28
-4.9298200607299805 -1.0730851888656616 18.946273803710938 96 96 96
-2.7093727588653564 -1.6892439126968384 13.242888450622559 6 6 6
-2.8288607597351074 -2.911642074584961 13.4229154586792 54 54 54
1.078536033630371 0.466960072517395 5.597073078155518 6 6 6
1.0908267498016357 0.9320371150970459 5.709324359893799 10 10 10
1.0908259153366089 0.9320348501205444 5.709312915802002 10 10 10
-9.464348793029785 -1.635544776916504 27.76434898376465 90 90 90
-3.472968578338623 -2.465219020843506 14.817771911621094 167 167 167
1.0845997333526611 2.522998332977295 5.87364387512207 110 110 110
-1.2812480926513672 -0.015329736284911633 10.418575286865234 73 73 73
0.012777229771018028 3.3712074756622314 5.694608688354492 116 116 116
1.2337130308151245 1.6532368659973145 5.482823848724365 107 107 107
1.4705835580825806 2.0629518032073975 5.6270012855529785 103 103 103
2.1961798667907715 0.0834503322839737 5.523222923278809 74 74 74
0.01368960551917553 3.409606695175171 6.461831092834473 111 111 111
0.9438528418540955 1.8016124963760376 6.090277194976807 130 130 130
0.3498580753803253 2.1675782203674316 7.413673400878906 100 100 100
1.1919963359832764 -0.8443048000335693 5.119772911071777 55 55 55
1.5010311603546143 2.728084087371826 5.724681377410889 106 106 106
-0.5730003118515015 3.2246391773223877 8.17049789428711 115 115 115
1.4490212202072144 1.1737946271896362 5.570898056030273 122 122 122
-3.143313407897949 -2.00453519821167 14.03121566772461 3 3 3
2.2759804725646973 0.4241098463535309 5.215160369873047 50 50 50
0.05553191527724266 1.6381162405014038 7.949350357055664 105 105 105
0.04816052317619324 0.2564997971057892 7.735204696655273 85 85 85
2.1931400299072266 0.8852962255477905 5.6044921875 122 122 122
0.3290272057056427 -0.3566835820674896 7.082178592681885 23 23 23
-0.08395470678806305 3.394076347351074 6.203324794769287 137 137 137
-0.36342987418174744 3.388321876525879 6.5031819343566895 137 137 137
-0.8663182854652405 3.335385322570801 6.668006420135498 174 174 174
1.4017086029052734 -0.41976210474967957 5.288804531097412 161 161 161
0.35152655839920044 1.2354034185409546 7.305866241455078 60 60 60
0.05690443888306618 1.1585482358932495 7.85030460357666 2 2 2
0.34661227464675903 3.3656857013702393 6.27649450302124 24 24 24
-2.7803051471710205 -2.4198596477508545 13.34759521484375 23 23 23
2.212040901184082 0.2920915186405182 5.248440742492676 27 27 27
2.141575813293457 0.22702889144420624 5.467031002044678 166 166 166
1.0705835819244385 -0.4382036030292511 5.466859817504883 22 22 22
0.5850696563720703 3.3952629566192627 6.810063362121582 131 131 131
1.3952751159667969 -0.6493218541145325 5.263050079345703 171 171 171
2.1865649223327637 0.3186209797859192 5.455451488494873 85 85 85
-0.016031578183174133 3.4490792751312256 5.948809623718262 151 151 151
1.4053043127059937 -1.5653581619262695 5.14885139465332 93 93 93
-2.760784387588501 2.5197887420654297 14.07591724395752 110 110 110
0.6296723484992981 -0.5321359634399414 6.394732475280762 57 57 57
0.771618127822876 -0.725952684879303 6.0502848625183105 10 10 10
-2.7803421020507812 -2.4198760986328125 13.347735404968262 23 23 23
2.2379183769226074 0.3174603581428528 5.257526874542236 110 110 110
0.23025834560394287 3.3604376316070557 6.233834743499756 129 129 129
0.5558252334594727 3.3645803928375244 6.241858005523682 137 137 137
1.4714672565460205 0.40240535140037537 5.4374284744262695 32 32 32
-0.520832359790802 3.3912038803100586 6.560503005981445 82 82 82
1.4682801961898804 0.6266873478889465 5.439301490783691 35 35 35
-3.8968217372894287 2.5427448749542236 14.53115463256836 12 12 12
1.0598258972167969 -0.6751189827919006 5.318935394287109 66 66 66
2.1760964393615723 0.39183077216148376 5.487369060516357 75 75 75
1.0496848821640015 -0.8995221853256226 5.31131649017334 100 100 100
-9.447188377380371 -1.8874180316925049 27.689538955688477 151 151 151
-5.216951847076416 -3.652926206588745 18.189876556396484 26 26 26
1.4058704376220703 -0.9053145051002502 5.215543270111084 156 156 156
-3.896120548248291 2.5423481464385986 14.529048919677734 12 12 12
0.07471588999032974 3.319387197494507 6.787908554077148 83 83 83
0.9440954327583313 -0.49879974126815796 5.646825313568115 131 131 131
-3.4249229431152344 2.376600742340088 13.989675521850586 80 80 80
-0.32625898718833923 3.447526693344116 5.891244888305664 102 102 102
0.921471357345581 -0.7182138562202454 5.926178455352783 35 35 35
1.483747959136963 -2.092085599899292 5.0425825119018555 135 135 135
2.141594171524048 0.22703231871128082 5.467090129852295 166 166 166
1.1948832273483276 -1.1142902374267578 5.062443733215332 29 29 29
2.168572425842285 0.2827306091785431 5.4450602531433105 42 42 42
2.278839588165283 0.36511802673339844 5.1402363777160645 106 106 106
0.6691519618034363 3.3590035438537598 6.052404880523682 112 112 112
-0.34818729758262634 3.4764585494995117 6.289849281311035 112 112 112
-0.030521409586071968 3.3437907695770264 7.086890697479248 103 103 103
1.195833444595337 -0.8298571109771729 5.11796236038208 153 153 153
0.59651780128479 3.325889825820923 6.757569313049316 144 144 144
1.4585580825805664 0.5629605650901794 5.408847332000732 87 87 87
1.1830110549926758 -0.8800798058509827 5.098651885986328 154 154 154
1.2296977043151855 1.4022738933563232 5.416982650756836 115 115 115
1.221524953842163 0.04901629313826561 5.2715535163879395 191 191 191
-9.359293937683105 -2.1182968616485596 27.42867088317871 82 82 82
2.192551612854004 0.8847687244415283 5.603208065032959 122 122 122
2.081754684448242 0.7245134115219116 5.4613728523254395 230 230 230
2.0404655933380127 0.7335488200187683 5.4956440925598145 162 162 162
1.1974542140960693 -0.1715642660856247 5.241929054260254 104 104 104
2.1006157398223877 0.732469916343689 5.5322089195251465 138 138 138
1.0590037107467651 0.9009265899658203 5.547647476196289 90 90 90
2.1607048511505127 0.6945725679397583 5.498077392578125 155 155 155
-3.3687305450439453 -2.2658181190490723 14.647547721862793 9 9 9
1.4408091306686401 -0.21395321190357208 5.364748477935791 140 140 140
1.4407892227172852 -0.21395620703697205 5.364627361297607 140 140 140
-9.503731727600098 -4.1940388679504395 27.48141098022461 33 33 33
-3.413088321685791 2.368438720703125 13.951444625854492 80 80 80
2.313030242919922 0.6461086273193359 5.483887672424316 119 119 119
-3.4247326850891113 2.37646484375 13.988898277282715 80 80 80
-2.772369861602783 2.527407169342041 14.119673728942871 110 110 110
2.3632595539093018 0.5892106890678406 5.328917503356934 53 53 53
0.9454988837242126 2.0411574840545654 6.105665683746338 19 19 19
2.363325595855713 0.5892235040664673 5.329068183898926 53 53 53
-3.643042802810669 2.534453868865967 14.16589641571045 51 51 51
2.2006571292877197 0.5609752535820007 5.218089580535889 102 102 102
-3.2169153690338135 -2.037508964538574 14.282458305358887 3 3 3
1.158637523651123 -1.9381417036056519 4.849155426025391 102 102 102
-3.530735731124878 -2.18276047706604 15.355018615722656 89 89 89
-3.188964605331421 -2.0375022888183594 14.238236427307129 18 18 18
-3.643758535385132 2.5349607467651367 14.168597221374512 51 51 51
-1.2812317609786987 -0.015330441296100616 10.418497085571289 73 73 73
-3.78855037689209 2.623744249343872 14.321953773498535 143 143 143
1.4626562595367432 0.2395697981119156 5.414223670959473 138 138 138
0.19587481021881104 1.906760573387146 7.7119059562683105 62 62 62
1.0484925508499146 -2.0252490043640137 5.226635932922363 41 41 41
1.2460874319076538 1.8684306144714355 5.503787994384766 135 135 135
0.6516683101654053 1.276261806488037 6.557950973510742 106 106 106
-5.155584335327148 -1.0422563552856445 18.609718322753906 10 10 10
1.4466930627822876 0.014146407134830952 5.383754253387451 26 26 26
1.187042474746704 -1.7731853723526 5.029712200164795 71 71 71
1.0837961435317993 1.5968317985534668 5.753018856048584 148 148 148
2.1415305137634277 0.22701795399188995 5.466856956481934 166 166 166
1.3680599927902222 -1.7439783811569214 5.021116733551025 153 153 153
-3.712411642074585 -0.9800246953964233 15.579557418823242 18 18 18
-3.7124173641204834 -0.9800255298614502 15.579575538635254 18 18 18
-2.7093617916107178 -1.6892362833023071 13.24284839630127 6 6 6
-1.1968307495117188 2.108492851257324 10.680302619934082 71 71 71
0.6549180746078491 0.6230286955833435 6.558300495147705 4 4 4
0.35834938287734985 1.470739722251892 7.290059566497803 2 2 2
1.0426115989685059 -1.7736492156982422 5.264402866363525 160 160 160
0.03384159132838249 0.03939763456583023 7.721107006072998 115 115 115
0.055517613887786865 1.6380817890167236 7.949506759643555 105 105 105
-5.336455821990967 -1.3211231231689453 19.062047958374023 6 6 6
1.0709298849105835 0.022658364847302437 5.531527996063232 57 57 57
0.8008896708488464 1.3324017524719238 6.37395715713501 11 11 11
1.4646693468093872 1.2016353607177734 5.680459022521973 112 112 112
1.412667989730835 -0.6680891513824463 5.219888210296631 66 66 66
0.9500575661659241 2.513352155685425 6.1814751625061035 23 23 23
0.7734590172767639 -0.488009512424469 6.089656352996826 19 19 19
1.4053184986114502 -1.5653916597366333 5.148952007293701 93 93 93
1.5010484457015991 2.7281150817871094 5.724738121032715 106 106 106
2.166144847869873 0.4917159676551819 5.505483627319336 127 127 127
-9.640563011169434 -3.3538286685943604 27.318500518798828 16 16 16
-4.892940998077393 -2.2616443634033203 18.55174446105957 105 105 105
-5.017505645751953 0.17205031216144562 18.384750366210938 117 117 117
0.3396948575973511 3.3933842182159424 6.281948566436768 36 36 36
1.0518113374710083 0.0632169172167778 5.527457237243652 62 62 62
0.2245706170797348 3.3828086853027344 6.223175048828125 154 154 154
1.4523680210113525 0.478491872549057 5.4246649742126465 102 102 102
2.1646792888641357 0.23904746770858765 5.453138828277588 62 62 62
2.20287823677063 0.46237099170684814 5.512693405151367 138 138 138
0.407663494348526 3.383448362350464 6.171712875366211 145 145 145
1.0785510540008545 0.4669690430164337 5.597160816192627 6 6 6
1.4000756740570068 -0.6522851586341858 5.2808756828308105 171 171 171
0.9515151381492615 1.5789991617202759 6.047341823577881 15 15 15
1.0783298015594482 0.4668421149253845 5.59602165222168 6 6 6
2.163172483444214 0.07191560417413712 5.472164630889893 31 31 31
2.2759835720062256 0.4241108298301697 5.2151689529418945 50 50 50
1.4316481351852417 -1.3518774509429932 5.180504322052002 91 91 91
0.6691247224807739 3.3589563369750977 6.052313804626465 112 112 112
2.159357786178589 0.10032366961240768 5.546739101409912 88 88 88
0.18969568610191345 3.3952083587646484 6.037159442901611 153 153 153
0.09345056861639023 3.4049060344696045 6.0683135986328125 104 104 104
0.32462188601493835 3.410370111465454 5.810527801513672 123 123 123
-0.7283942103385925 3.454052448272705 5.881199836730957 149 149 149
0.4228331744670868 3.494542121887207 5.949754238128662 99 99 99
0.11105253547430038 3.471334218978882 5.921881198883057 86 86 86
0.061992112547159195 3.4326369762420654 5.86793851852417 45 45 45
-0.052419357001781464 3.4234671592712402 5.982076644897461 57 57 57
2.1762001514434814 0.39186495542526245 5.487720966339111 75 75 75
2.27885103225708 0.3651210069656372 5.140262126922607 106 106 106
0.8482790589332581 3.395322561264038 5.828945636749268 35 35 35
-4.25249719619751 0.5444712042808533 14.52255630493164 7 7 7
-4.09754753112793 0.5276523232460022 14.685391426086426 62 62 62
0.39131155610084534 3.313960552215576 6.564917087554932 135 135 135
1.4048632383346558 -1.1154314279556274 5.1924028396606445 134 134 134
-3.83852219581604 0.3883880078792572 14.605962753295898 182 182 182
1.2138563394546509 -1.1270208358764648 5.242921829223633 87 87 87
1.4048655033111572 -1.115422010421753 5.192434787750244 134 134 134
-4.461993217468262 0.4319723844528198 14.755894660949707 93 93 93
-3.8016560077667236 0.3954015374183655 14.621077537536621 184 184 184
-3.482804536819458 -3.0488364696502686 14.744183540344238 16 16 16
-5.096356391906738 -3.6899664402008057 18.124732971191406 122 122 122
2.1671721935272217 0.7311978340148926 5.495900630950928 75 75 75
2.2379331588745117 0.3174649178981781 5.257572174072266 110 110 110
0.7932964563369751 2.01153302192688 6.439678192138672 89 89 89
0.7731151580810547 -1.1921926736831665 6.006031513214111 124 124 124
2.1355807781219482 0.3172944486141205 5.615167617797852 33 33 33
0.6349704265594482 0.3834080100059509 6.532421112060547 124 124 124
-4.931055068969727 -2.561406373977661 18.699792861938477 122 122 122
-3.5333251953125 0.42563584446907043 14.892267227172852 16 16 16
1.0783300399780273 0.4668421447277069 5.596027374267578 6 6 6
0.10589038580656052 3.396268129348755 6.568075656890869 104 104 104
0.3521120250225067 2.6183950901031494 7.4632248878479 47 47 47
-4.109764575958252 0.47211673855781555 14.913597106933594 131 131 131
-5.093510150909424 -3.417442560195923 18.061704635620117 12 12 12
-3.8768298625946045 0.4747393727302551 14.433494567871094 203 203 203
2.1415936946868896 0.22703303396701813 5.467092514038086 166 166 166
-5.146620273590088 -3.446979284286499 18.219261169433594 4 4 4
-5.093449592590332 -3.4174046516418457 18.061491012573242 12 12 12
-4.097614765167236 0.5276607871055603 14.685629844665527 62 62 62
-9.403038024902344 -2.39715838432312 27.53468132019043 52 52 52
2.1637461185455322 0.23886220157146454 5.449952125549316 62 62 62
1.405030608177185 -0.9033725261688232 5.209449768066406 156 156 156
-2.846001386642456 -2.2760813236236572 13.52989387512207 14 14 14
2.1944618225097656 0.31844133138656616 5.475788116455078 107 107 107
1.4023857116699219 -0.8799711465835571 5.247610092163086 129 129 129
1.0752887725830078 0.23851747810840607 5.578704357147217 160 160 160
1.4226515293121338 0.01939232647418976 5.4069929122924805 128 128 128
0.9515159130096436 1.5790008306503296 6.0473527908325195 15 15 15
-4.775753498077393 -2.781294584274292 17.189289093017578 20 20 20
1.1885905265808105 -0.8261061906814575 5.098519325256348 146 146 146
0.49848684668540955 1.0225310325622559 6.903817176818848 4 4 4
-4.557400703430176 0.5689981579780579 15.094549179077148 86 86 86
1.4971728324890137 2.551462173461914 5.770732402801514 52 52 52
0.014781762845814228 3.403958320617676 6.452626705169678 111 111 111
1.4502761363983154 0.5291363000869751 5.3979902267456055 89 89 89
0.43436816334724426 3.293403387069702 5.829919815063477 77 77 77
-4.655436038970947 -4.22270393371582 17.099931716918945 88 88 88
-0.2270733118057251 3.3566949367523193 6.282873630523682 81 81 81
1.19332754611969 0.004201984964311123 5.20844030380249 60 60 60
1.45955228805542 2.111788034439087 5.731937885284424 105 105 105
-2.829739570617676 -2.912780523300171 13.427244186401367 54 54 54
0.06414330750703812 0.7169426083564758 7.766997814178467 47 47 47
0.6108142733573914 3.310668468475342 6.715572357177734 22 22 22
-3.8966164588928223 2.5426321029663086 14.530546188354492 12 12 12
-0.5093064904212952 3.4582362174987793 6.07625150680542 100 100 100
0.07471752166748047 3.31931734085083 6.787753582000732 83 83 83
1.193140983581543 -0.2036561369895935 5.201717853546143 142 142 142
1.2296921014785767 1.40226149559021 5.416927814483643 115 115 115
0.5985270738601685 -2.2125911712646484 6.982341289520264 61 61 61
-4.134769439697266 -3.623720645904541 16.527780532836914 56 56 56
-5.294952869415283 -0.6532008051872253 19.098127365112305 114 114 114
1.4048608541488647 -1.1154191493988037 5.192418575286865 134 134 134
2.1231629848480225 -0.2488531619310379 5.398809432983398 25 25 25
1.0724067687988281 -1.146283745765686 5.365674018859863 113 113 113
0.19851581752300262 3.3820037841796875 6.582830905914307 101 101 101
-5.067136287689209 -3.588233470916748 17.984420776367188 158 158 158
-4.926478862762451 -2.561499834060669 18.68568229675293 122 122 122
2.158461809158325 0.6928023099899292 5.4930291175842285 161 161 161
1.4377793073654175 -0.4152580201625824 5.312671184539795 101 101 101
1.44080650806427 -0.21395406126976013 5.364727973937988 140 140 140
0.941005527973175 0.6790592670440674 5.941714763641357 1 1 1
1.105095624923706 -0.665388286113739 5.2387003898620605 116 116 116
0.35352739691734314 0.7721878886222839 7.151342868804932 100 100 100
1.0837936401367188 1.5968170166015625 5.752965450286865 148 148 148
0.5005046725273132 1.4982186555862427 7.014309406280518 108 108 108
1.0958623886108398 1.39057195186615 5.767362117767334 106 106 106
1.0837979316711426 1.5968250036239624 5.753020286560059 148 148 148
1.221217393875122 -0.17350128293037415 5.23004150390625 183 183 183
-5.288424968719482 -2.8047118186950684 18.829172134399414 82 82 82
2.1678154468536377 0.7319874167442322 5.4977946281433105 75 75 75
1.1874134540557861 -0.8581357598304749 5.1102447509765625 143 143 143
-3.5964221954345703 0.47131264209747314 14.701354026794434 136 136 136
-3.7124152183532715 -0.9800254702568054 15.579568862915039 18 18 18
2.2457022666931152 0.482329398393631 5.272913455963135 79 79 79
1.4523605108261108 0.4784904420375824 5.4246134757995605 102 102 102
-4.8357343673706055 -2.8140952587127686 17.369094848632812 12 12 12
2.2028448581695557 0.46235671639442444 5.512582302093506 138 138 138
1.0783404111862183 0.4668479859828949 5.596078395843506 6 6 6
2.2759721279144287 0.42410919070243835 5.215137481689453 50 50 50
2.3469529151916504 0.7947155833244324 5.370124816894531 96 96 96
2.1914942264556885 0.08312679827213287 5.507318496704102 74 74 74
2.278837203979492 0.36511722207069397 5.140231609344482 106 106 106
0.9454989433288574 2.041158676147461 6.10567045211792 19 19 19
0.6729018688201904 0.8353384137153625 6.532793998718262 31 31 31
2.2773985862731934 0.3235005736351013 5.10847282409668 68 68 68
2.2378249168395996 0.3174242675304413 5.257327556610107 110 110 110
1.2460185289382935 1.8683334589004517 5.503482341766357 135 135 135
2.1215834617614746 0.31698596477508545 5.570390224456787 48 48 48
-3.593273401260376 -2.3795690536499023 15.252054214477539 174 174 174
0.7721407413482666 0.8574023246765137 6.154733657836914 154 154 154
0.8010157942771912 0.8867469429969788 6.3893723487854 92 92 92
-3.799595355987549 2.7615866661071777 14.288848876953125 30 30 30
1.462655782699585 0.2395699918270111 5.414219856262207 138 138 138
2.1644508838653564 0.23905698955059052 5.452345848083496 62 62 62
1.075302004814148 0.2385481595993042 5.578871726989746 160 160 160
2.141568183898926 0.22702746093273163 5.467015743255615 166 166 166
1.0744946002960205 1.1107242107391357 5.5377197265625 91 91 91
0.35558512806892395 3.3705971240997314 6.2615647315979 35 35 35
1.4407395124435425 -0.2139664888381958 5.364315509796143 140 140 140
0.950191080570221 1.1119505167007446 5.9438157081604 12 12 12
-3.7152678966522217 -3.3307344913482666 15.172853469848633 3 3 3
-4.097602844238281 0.5276613831520081 14.685578346252441 62 62 62
1.4048646688461304 -1.1154214143753052 5.192433834075928 134 134 134
1.1980873346328735 -1.0894060134887695 5.080944538116455 157 157 157
0.9515174031257629 1.5790095329284668 6.047370433807373 15 15 15
-5.265316009521484 -1.5524990558624268 18.863746643066406 3 3 3
-2.828843593597412 -2.911633014678955 13.422844886779785 54 54 54
-3.721511125564575 -3.1501541137695312 15.21075439453125 148 148 148
-5.098021984100342 -3.6912429332733154 18.130949020385742 122 122 122
0.9500570297241211 2.5133421421051025 6.181450843811035 23 23 23
1.4971728324890137 2.551469087600708 5.770748138427734 52 52 52
-5.093825817108154 -3.417651414871216 18.062650680541992 12 12 12
1.50104820728302 2.728116035461426 5.724737167358398 106 106 106
2.1468677520751953 0.10086263716220856 5.502664089202881 71 71 71
1.4467285871505737 0.01414510514587164 5.383940696716309 26 26 26
1.4017056226730347 -0.41976433992385864 5.288807392120361 161 161 161
-5.147085666656494 -3.4472875595092773 18.220651626586914 4 4 4
-9.234638214111328 -3.607442617416382 26.898548126220703 29 29 29
-1.2816734313964844 0.43943190574645996 10.47912311553955 52 52 52
2.2155661582946777 0.6774393320083618 5.633180141448975 58 58 58
2.2440481185913086 0.48186948895454407 5.26771879196167 79 79 79
1.070914387702942 0.022655626758933067 5.5314459800720215 57 57 57
1.1183960437774658 -0.6892126202583313 5.416730880737305 59 59 59
0.1379452794790268 3.334481716156006 6.705022811889648 32 32 32
1.441165804862976 -0.9133970737457275 5.243345737457275 95 95 95
2.3633272647857666 0.589224100112915 5.329072952270508 53 53 53
2.2044124603271484 0.3191416561603546 5.5005717277526855 108 108 108
1.0838415622711182 1.5968856811523438 5.753203868865967 148 148 148
2.173907995223999 0.07843951135873795 5.528080463409424 120 120 120
2.094010591506958 0.7117520570755005 5.375023365020752 196 196 196
-0.12377095967531204 3.3245432376861572 7.126754283905029 120 120 120
-3.6430001258850098 2.534432888031006 14.165767669677734 51 51 51
-3.0944931507110596 -2.238729953765869 14.074090957641602 142 142 142
-3.8960137367248535 2.542285919189453 14.52872085571289 12 12 12
-3.4262397289276123 2.3748114109039307 14.003751754760742 80 80 80
1.4720708131790161 0.9164291024208069 5.495174407958984 137 137 137
1.0628423690795898 0.9244888424873352 5.70354700088501 99 99 99
-4.953015327453613 2.558839797973633 16.02496910095215 60 60 60
2.192563772201538 0.8847789168357849 5.603226184844971 122 122 122
0.7823538780212402 -0.27915528416633606 6.169813632965088 23 23 23
-5.276514530181885 -2.79840087890625 18.793521881103516 1 1 1
1.4273145198822021 -0.00901065394282341 5.363417625427246 120 120 120
1.0716164112091064 1.3655126094818115 5.705506324768066 131 131 131
-4.044831275939941 0.44420215487480164 14.355775833129883 4 4 4
1.464706540107727 1.2017052173614502 5.680708408355713 112 112 112
0.5031536817550659 1.7241508960723877 6.985797882080078 20 20 20
2.081556797027588 0.7244311571121216 5.460682392120361 230 230 230
0.1967981904745102 3.3318729400634766 6.227173328399658 112 112 112
1.4585251808166504 0.5629367232322693 5.408748626708984 87 87 87
1.0518136024475098 0.06321565806865692 5.527498245239258 62 62 62
0.5984873175621033 -2.2124412059783936 6.9817914962768555 61 61 61
0.34698042273521423 2.17850399017334 7.453269004821777 100 100 100
-3.779064416885376 -0.5055696368217468 16.038455963134766 37 37 37
2.1592352390289307 0.4902174174785614 5.491439342498779 123 123 123
0.1685597449541092 3.36592698097229 6.4077324867248535 69 69 69
1.2337095737457275 1.6532222032546997 5.482815742492676 107 107 107
-5.927367687225342 -2.266406297683716 20.786699295043945 6 6 6
-4.654331684112549 -4.221855640411377 17.096582412719727 88 88 88
-0.7997617721557617 3.2233240604400635 8.716652870178223 17 17 17
-1.2706904411315918 0.2056918889284134 10.387216567993164 31 31 31
0.49933844804763794 3.3507742881774902 6.479557514190674 81 81 81
0.3407460153102875 0.3172304034233093 7.118666648864746 117 117 117
-2.766482353210449 2.523535966873169 14.097423553466797 110 110 110
1.0811989307403564 -0.4482569396495819 5.634310245513916 40 40 40
1.0709304809570312 0.02265884168446064 5.531531810760498 57 57 57
-3.896636962890625 2.542645215988159 14.53061580657959 12 12 12
-5.268644332885742 -0.22607022523880005 19.158578872680664 41 41 41
-0.23014651238918304 3.4441919326782227 6.4399285316467285 81 81 81
1.2705061435699463 1.4829063415527344 5.608386516571045 82 82 82
0.5217060446739197 3.5100481510162354 6.071722984313965 117 117 117
2.200641393661499 0.5609242916107178 5.218010425567627 102 102 102
0.20994648337364197 3.394221544265747 6.332849025726318 140 140 140
1.1895369291305542 0.24321261048316956 5.246940612792969 90 90 90
0.06198974698781967 3.432628631591797 5.867923259735107 45 45 45
-2.7894036769866943 -2.6606576442718506 13.306253433227539 19 19 19
0.19589023292064667 1.9066790342330933 7.711560249328613 62 62 62
-3.798023223876953 2.651693344116211 14.09564208984375 18 18 18
-5.0417070388793945 -1.7205946445465088 18.113683700561523 136 136 136
0.31124988198280334 3.3305699825286865 5.796229362487793 113 113 113
1.470311164855957 0.5286591053009033 5.5023956298828125 103 103 103
0.9341128468513489 0.8888676762580872 5.941024303436279 87 87 87
2.130570888519287 0.37771955132484436 5.627567291259766 87 87 87
0.49848514795303345 1.0225380659103394 6.903858184814453 4 4 4
0.9034345149993896 3.3876423835754395 6.067546844482422 118 118 118
2.176190137863159 0.39186134934425354 5.487684726715088 75 75 75
1.2148016691207886 -1.1118937730789185 5.079071521759033 105 105 105
-2.8297410011291504 -2.9127824306488037 13.427251815795898 54 54 54
-3.3544373512268066 2.555921792984009 14.105931282043457 15 15 15
-9.504019737243652 -4.194205284118652 27.48223304748535 33 33 33
0.291230171918869 3.410191059112549 6.94439697265625 79 79 79
0.23350340127944946 -0.3671090602874756 6.956483364105225 18 18 18
0.4925149977207184 1.778723955154419 7.209660530090332 56 56 56
0.4901779592037201 2.426539421081543 7.15803337097168 74 74 74
-4.853704929351807 -1.5366005897521973 18.646604537963867 95 95 95
-0.011696381494402885 3.4296815395355225 5.919179916381836 142 142 142
-4.880830764770508 -1.549627423286438 18.7318172454834 61 61 61
-4.296084880828857 2.694620132446289 14.770307540893555 7 7 7
-0.2270762175321579 3.3567161560058594 6.282912254333496 81 81 81
0.06414233148097992 0.7169432640075684 7.767007827758789 47 47 47
1.196463942527771 -0.6589623093605042 5.147064208984375 41 41 41
-4.0976715087890625 0.5276744961738586 14.68581771850586 62 62 62
2.0368618965148926 0.2052011340856552 5.6018385887146 103 103 103
2.0428555011749268 0.6912372708320618 5.4904937744140625 108 108 108
2.158214569091797 0.6926738619804382 5.492180347442627 161 161 161
-3.8129355907440186 2.504427433013916 14.45622444152832 79 79 79
1.4407849311828613 0.697621762752533 5.453535556793213 21 21 21
-5.185732841491699 -1.1303263902664185 18.61420249938965 150 150 150
1.0674808025360107 0.9277443885803223 5.742880344390869 110 110 110
1.1042200326919556 0.2483024001121521 5.727412700653076 100 100 100
1.4780391454696655 -2.084655284881592 5.0207672119140625 119 119 119
2.0624136924743652 0.2404211014509201 5.566490173339844 71 71 71
2.164499044418335 0.23906295001506805 5.452469348907471 62 62 62
1.0864858627319336 0.9291790127754211 5.684046268463135 8 8 8
-3.4250380992889404 2.376660108566284 13.990150451660156 80 80 80
-4.917426586151123 2.674010753631592 15.745718955993652 30 30 30
1.4626288414001465 0.23956947028636932 5.414099216461182 138 138 138
2.2367453575134277 0.7634835243225098 5.739148139953613 160 160 160
2.301551580429077 0.7183902859687805 5.339595794677734 66 66 66
-5.202244281768799 -1.0480798482894897 18.781780242919922 76 76 76
1.0426158905029297 -1.7736703157424927 5.264441013336182 160 160 160
1.1860617399215698 -1.5598686933517456 5.030546188354492 29 29 29
1.4053024053573608 -1.5653640031814575 5.148867130279541 93 93 93
1.1519975662231445 0.037592556327581406 5.223385334014893 11 11 11
2.346956729888916 0.7947176098823547 5.37013578414917 96 96 96
-2.9625051021575928 2.5255401134490967 14.591390609741211 24 24 24
-5.03488302230835 -1.7208682298660278 18.08965492248535 40 40 40
0.9509206414222717 2.5155484676361084 6.185263633728027 23 23 23
1.417862892150879 0.44581711292266846 5.368134498596191 106 106 106
2.2378125190734863 0.3174346685409546 5.257291793823242 110 110 110
-2.7852835655212402 -2.7165558338165283 13.278128623962402 109 109 109
-5.098052978515625 -3.691243886947632 18.13103485107422 122 122 122
0.7500801682472229 -1.1558363437652588 5.8286333084106445 67 67 67
2.130598545074463 0.37772336602211 5.627657413482666 87 87 87
2.1776578426361084 0.7622391581535339 5.548665523529053 34 34 34
-5.093909740447998 -3.4177045822143555 18.06293487548828 12 12 12
-5.146984577178955 -3.44722580909729 18.220348358154297 4 4 4
-3.7408740520477295 -2.8630149364471436 15.3131685256958 6 6 6
-3.5892510414123535 -2.8671395778656006 15.112181663513184 1 1 1
2.199254274368286 0.3111669719219208 5.474040985107422 107 107 107
2.1976354122161865 0.34663036465644836 5.156630516052246 124 124 124
1.0709311962127686 0.02265886403620243 5.5315351486206055 57 57 57
1.0554172992706299 0.4678947925567627 5.638959884643555 200 200 200
0.9295530915260315 1.5733189582824707 6.060883522033691 137 137 137
-4.861713409423828 -2.8308722972869873 17.44709587097168 37 37 37
1.071608066558838 0.6747548580169678 5.643242359161377 28 28 28
2.2759621143341064 0.4241088926792145 5.215118885040283 50 50 50
1.0686568021774292 0.4550280272960663 5.437321662902832 98 98 98
-4.013322830200195 0.44451281428337097 14.266230583190918 4 4 4
-3.322862148284912 -2.232276439666748 14.445948600769043 57 57 57
-4.157750606536865 0.4175702929496765 15.070246696472168 187 187 187
-5.276200294494629 -2.798196792602539 18.79222869873047 1 1 1
-3.2169108390808105 -2.037498950958252 14.282437324523926 3 3 3
-3.180903434753418 -2.093135118484497 14.16146183013916 106 106 106
-5.283976078033447 -2.802600145339966 18.815839767456055 37 37 37
-1.2816708087921143 0.43939587473869324 10.478979110717773 52 52 52
2.1893506050109863 0.4954890310764313 5.429949760437012 135 135 135
-4.871410369873047 -2.246995449066162 18.482006072998047 104 104 104
1.0940505266189575 1.8471723794937134 5.801730632781982 31 31 31
-1.2100939750671387 2.3717265129089355 10.729538917541504 1 1 1
2.1470932960510254 0.10085473209619522 5.5034613609313965 71 71 71
1.196473479270935 -0.6589730978012085 5.147164821624756 41 41 41
1.3616840839385986 -0.6429426074028015 5.0319390296936035 88 88 88
2.1911349296569824 0.5255865454673767 5.434193134307861 67 67 67
1.4687420129776 1.2090569734573364 5.7085137367248535 112 112 112
-5.091358661651611 -2.231951951980591 18.288185119628906 15 15 15
0.34776413440704346 1.2214235067367554 7.235195636749268 1 1 1
1.0858402252197266 1.1504255533218384 5.728212356567383 165 165 165
-1.1966021060943604 2.1079421043395996 10.677661895751953 71 71 71
0.3535187542438507 0.7722045183181763 7.151483058929443 100 100 100
2.161116361618042 0.033065758645534515 5.508060455322266 44 44 44
-3.8004469871520996 2.7624175548553467 14.292160987854004 30 30 30
-3.800442934036255 2.762434720993042 14.292158126831055 30 30 30
0.7937901616096497 -0.5090459585189819 5.962874412536621 99 99 99
1.4467589855194092 0.01414430420845747 5.384064674377441 26 26 26
-3.8896913528442383 2.7184038162231445 14.451452255249023 27 27 27
2.1554954051971436 -0.011341956444084644 5.512697696685791 155 155 155
-3.711599111557007 2.5720949172973633 14.078374862670898 142 142 142
1.0711309909820557 -1.1430989503860474 5.338459491729736 112 112 112
1.401334524154663 -0.20257054269313812 5.2179365158081055 80 80 80
1.397994875907898 -0.4178420305252075 5.261838436126709 202 202 202
1.4394614696502686 -0.40958598256111145 5.315345287322998 104 104 104
-3.882310390472412 2.713505506515503 15.102873802185059 19 19 19
-2.9785044193267822 2.5104660987854004 14.33691692352295 70 70 70
-4.346282958984375 0.5498684644699097 14.542272567749023 58 58 58
1.0929373502731323 -2.563079595565796 5.045804500579834 67 67 67
1.4971723556518555 2.5514750480651855 5.770766258239746 52 52 52
1.0846017599105835 2.5230181217193604 5.873687744140625 110 110 110
1.459519863128662 2.1116738319396973 5.731647491455078 105 105 105
2.237018346786499 0.4028305411338806 5.359405040740967 116 116 116
1.2075014114379883 1.5780986547470093 5.39831018447876 88 88 88
2.081761121749878 0.7245199084281921 5.461385250091553 230 230 230
-0.36088308691978455 3.2485179901123047 7.797433853149414 55 55 55
-0.4062393307685852 3.2690980434417725 7.8420209884643555 107 107 107
-3.8966240882873535 2.542635440826416 14.53056526184082 12 12 12
-2.7620797157287598 2.520627021789551 14.080760955810547 110 110 110
-3.287654399871826 2.4980852603912354 13.814712524414062 10 10 10
1.0602558851242065 -0.21432256698608398 5.484199523925781 69 69 69
1.0886324644088745 -0.210011824965477 5.477212905883789 178 178 178
-3.1375620365142822 -0.4025404751300812 14.02991008758545 45 45 45
0.9421840310096741 -0.49146711826324463 5.598888874053955 116 116 116
0.4949272572994232 2.189774990081787 7.076417922973633 23 23 23
-5.284820079803467 -0.2250131070613861 19.24899673461914 63 63 63
0.20215104520320892 1.4333176612854004 7.624907493591309 137 137 137
0.16293960809707642 3.332266092300415 6.490629196166992 77 77 77
-4.9044060707092285 -1.899612307548523 17.462045669555664 42 42 42
1.4585227966308594 0.5629482865333557 5.408718585968018 87 87 87
1.3978348970413208 -0.38981807231903076 5.265639305114746 68 68 68
0.168657585978508 3.366034984588623 6.407862663269043 69 69 69
-5.42606258392334 -3.018662691116333 18.845067977905273 3 3 3
0.8010148406028748 0.8867229223251343 6.389235496520996 92 92 92
1.2360992431640625 0.972983181476593 5.396453857421875 78 78 78
1.0240815877914429 -1.6083322763442993 5.389977931976318 124 124 124
-3.393903970718384 -1.4022572040557861 14.953384399414062 1 1 1
-4.995011329650879 -3.1036484241485596 17.7364444732666 2 2 2
1.0526186227798462 0.06311088800430298 5.541082859039307 62 62 62
0.6448139548301697 2.2052900791168213 6.748011112213135 84 84 84
-4.31504487991333 -4.101781845092773 16.30634880065918 23 23 23
1.4698542356491089 0.6333813071250916 5.444889068603516 87 87 87
0.048169855028390884 0.2564971446990967 7.735016345977783 85 85 85
2.187838077545166 1.106262445449829 5.720114707946777 104 104 104
-2.8068037033081055 -0.7750769853591919 13.575898170471191 122 122 122
0.5190008282661438 3.3879854679107666 6.194922924041748 46 46 46
0.16855956614017487 3.365938186645508 6.407751560211182 69 69 69
0.49493440985679626 2.189716339111328 7.07624626159668 23 23 23
1.4183650016784668 0.9862651228904724 5.4794087409973145 74 74 74
1.177578091621399 -1.7138957977294922 4.989019393920898 117 117 117
0.7342730164527893 3.3446033000946045 6.289129257202148 109 109 109
0.7922089099884033 2.236828327178955 6.436460971832275 15 15 15
1.0845662355422974 2.5230367183685303 5.8736982345581055 110 110 110
1.4699676036834717 -2.0730018615722656 4.994389057159424 116 116 116
1.3763997554779053 -1.9572135210037231 4.951528549194336 105 105 105
1.224039077758789 2.320526123046875 5.537931442260742 114 114 114
1.0210919380187988 -1.780121088027954 5.32607364654541 134 134 134
1.0560659170150757 -1.5975019931793213 5.279489994049072 142 142 142
1.0349231958389282 -1.595335841178894 5.395672798156738 39 39 39
1.4025185108184814 -1.345876693725586 5.170552730560303 24 24 24
1.088133454322815 1.811790108680725 5.6954121589660645 15 15 15
1.0940483808517456 1.8471529483795166 5.801647663116455 31 31 31
-2.8297572135925293 -2.9127721786499023 13.427288055419922 54 54 54
1.3621594905853271 -1.0831180810928345 5.033106803894043 83 83 83
1.073567271232605 -1.1535263061523438 5.370209693908691 114 114 114
1.1771401166915894 -1.0891542434692383 5.088279724121094 85 85 85
1.044486403465271 -1.1426517963409424 5.446136474609375 31 31 31
-2.799330711364746 -2.726999282836914 13.328073501586914 130 130 130
-2.7553086280822754 -2.7584304809570312 13.542051315307617 33 33 33
-5.093545913696289 -3.4174652099609375 18.061824798583984 12 12 12
-5.147019863128662 -3.4472508430480957 18.220455169677734 4 4 4
-2.780254602432251 -2.4198269844055176 13.347419738769531 23 23 23
1.4105457067489624 -0.9273701310157776 5.233870506286621 107 107 107
1.1840707063674927 -0.894795835018158 5.098644256591797 101 101 101
1.1768150329589844 -0.8539148569107056 5.103206634521484 133 133 133
1.3768526315689087 -0.8644264936447144 5.162051200866699 168 168 168
-3.0350887775421143 -2.162578821182251 13.424449920654297 17 17 17
-5.459887981414795 -3.0298209190368652 18.929821014404297 17 17 17
-3.3922219276428223 -2.267091989517212 14.679593086242676 99 99 99
-4.946420192718506 -2.5476739406585693 17.682598114013672 155 155 155
-4.930793762207031 -2.561330556869507 18.69896125793457 122 122 122
1.4761027097702026 1.3815817832946777 5.570215702056885 48 48 48
1.0957810878753662 1.3903813362121582 5.766750812530518 106 106 106
-5.091563701629639 -2.2320351600646973 18.28864097595215 15 15 15
0.9466814398765564 1.332694172859192 5.987590312957764 126 126 126
0.7713523507118225 -0.7025579214096069 5.854177474975586 25 25 25
1.4687633514404297 1.2090961933135986 5.708659648895264 112 112 112
-4.933112621307373 -1.9036558866500854 17.562808990478516 6 6 6
1.4687453508377075 1.209063172340393 5.7085371017456055 112 112 112
-5.278072834014893 -1.6580243110656738 18.871278762817383 138 138 138
0.1903826743364334 -0.6034407019615173 7.22038459777832 2 2 2
1.1064891815185547 1.1469247341156006 5.6731109619140625 22 22 22
-1.1966321468353271 2.1080188751220703 10.678027153015137 71 71 71
1.4468982219696045 -0.40659746527671814 5.368167877197266 102 102 102
1.4356529712677002 -0.3974777162075043 5.425137996673584 75 75 75
-3.800410032272339 2.762404203414917 14.292031288146973 30 30 30
-5.285254001617432 -1.1578842401504517 18.898582458496094 164 164 164
-3.964768409729004 2.7021071910858154 15.147339820861816 44 44 44
-3.8965811729431152 2.5426127910614014 14.530439376831055 12 12 12
-2.978480100631714 2.5104551315307617 14.336810111999512 70 70 70
-3.845228433609009 2.5494699478149414 14.678788185119629 77 77 77
1.0427886247634888 -0.2269730418920517 5.532049179077148 7 7 7
1.0886284112930298 -0.21000292897224426 5.477148056030273 178 178 178
1.4215151071548462 -0.1992483139038086 5.371591567993164 34 34 34
-4.917445182800293 2.674015522003174 15.745768547058105 30 30 30
0.3477962613105774 1.2214806079864502 7.235401153564453 1 1 1
1.426123023033142 0.8874310851097107 5.324024200439453 79 79 79
1.090802550315857 0.9320123791694641 5.70918607711792 10 10 10
-4.362435340881348 2.4060487747192383 14.609844207763672 91 91 91
-4.952671051025391 2.5586676597595215 16.023866653442383 60 60 60
2.1931631565093994 0.885303258895874 5.604588508605957 122 122 122
1.9945094585418701 0.8132801055908203 5.478278636932373 135 135 135
1.4309853315353394 -0.011438527144491673 5.407230377197266 81 81 81
2.2889974117279053 0.7775980830192566 5.436285495758057 91 91 91
-3.424765110015869 2.376488208770752 13.989044189453125 80 80 80
2.1655025482177734 0.7278193831443787 5.492064952850342 84 84 84
1.183825135231018 0.047582197934389114 5.243788719177246 115 115 115
2.015378713607788 0.7166112065315247 5.544253826141357 48 48 48
0.20147861540317535 0.9531814455986023 7.489056587219238 1 1 1
0.06719562411308289 0.9587998390197754 7.93163537979126 17 17 17
1.0633631944656372 0.6676288843154907 5.5927534103393555 26 26 26
0.06719224154949188 0.9588037133216858 7.93166971206665 17 17 17
-4.557633876800537 0.5690177083015442 15.095328330993652 86 86 86
2.0368897914886475 0.2052030712366104 5.6019511222839355 103 103 103
2.1628901958465576 0.23851515352725983 5.4470672607421875 62 62 62
1.4331308603286743 0.2390541285276413 5.383052349090576 30 30 30
2.2089290618896484 0.5844327211380005 5.5131940841674805 117 117 117
2.230062484741211 0.5735167264938354 5.475542068481445 30 30 30
2.191420793533325 0.5748912692070007 5.605976581573486 115 115 115
0.7652530670166016 0.6203913688659668 6.0726094245910645 102 102 102
2.141831398010254 0.30678555369377136 5.641627311706543 127 127 127
0.6349655389785767 0.38342177867889404 6.5326762199401855 124 124 124
2.1848785877227783 0.30875009298324585 5.451568603515625 108 108 108
2.209533929824829 0.5038499236106873 5.491720676422119 134 134 134
2.1305770874023438 0.3777211308479309 5.627578258514404 87 87 87
2.220686197280884 0.4148932099342346 5.678023338317871 65 65 65
1.0785198211669922 0.4669509828090668 5.596991062164307 6 6 6
1.5010465383529663 2.728114128112793 5.724734306335449 106 106 106
0.14355076849460602 3.3578288555145264 6.700274467468262 30 30 30
2.1951215267181396 0.18059960007667542 5.492021083831787 139 139 139
-2.648536443710327 -2.171206474304199 13.115008354187012 29 29 29
0.7755753993988037 0.8580048680305481 6.187477111816406 168 168 168
0.34696921706199646 2.178546667098999 7.45341157913208 100 100 100
-4.314969539642334 -4.101725101470947 16.306116104125977 23 23 23
1.4626092910766602 1.659946084022522 5.5565667152404785 65 65 65
0.5259680151939392 1.0295500755310059 6.853466987609863 12 12 12
1.057661533355713 -0.16134074330329895 5.4708781242370605 169 169 169
0.24591220915317535 0.30425336956977844 7.346472263336182 53 53 53
-3.7841734886169434 2.462219715118408 14.723963737487793 42 42 42
0.06421485543251038 0.7168798446655273 7.766302108764648 47 47 47
-3.4434359073638916 -1.4233951568603516 15.171704292297363 1 1 1
-0.7114592790603638 3.389815092086792 6.282569408416748 128 128 128
0.800865888595581 1.3323525190353394 6.373787879943848 11 11 11
-0.17368648946285248 3.3573076725006104 6.348502159118652 98 98 98
1.0359731912612915 1.3476957082748413 5.796241283416748 19 19 19
0.4658163785934448 0.5686623454093933 6.955366134643555 51 51 51
-0.0678919330239296 3.260777711868286 7.579934597015381 55 55 55
0.6126408576965332 0.1563272625207901 6.23978328704834 126 126 126
1.3160691261291504 -2.2325286865234375 5.170370101928711 81 81 81
1.4915441274642944 -2.1034796237945557 5.067211151123047 132 132 132
0.8939866423606873 -2.2490460872650146 5.480490684509277 85 85 85
1.1767585277557373 -1.742690086364746 5.008450984954834 128 128 128
0.8917666077613831 -1.8501328229904175 5.541419982910156 84 84 84
0.6100378036499023 -2.189417839050293 7.016820430755615 112 112 112
1.19176185131073 -1.5643985271453857 5.0316290855407715 68 68 68
1.1684292554855347 -1.3111765384674072 4.979059219360352 94 94 94
-3.9114110469818115 -4.013595104217529 15.469219207763672 13 13 13
-3.5146396160125732 -3.2271862030029297 14.800592422485352 109 109 109
-3.467824935913086 -2.9230997562408447 14.60036563873291 144 144 144
-5.17924690246582 -3.5985653400421143 18.220014572143555 163 163 163
0.7301616668701172 -1.1801995038986206 5.983084201812744 31 31 31
1.4109700918197632 -0.9427934885025024 5.265214443206787 81 81 81
1.4225597381591797 -0.9126855134963989 5.270492076873779 58 58 58
1.1752408742904663 -0.8496285080909729 5.088276386260986 131 131 131
-4.839822769165039 -2.820582389831543 17.381803512573242 68 68 68
-5.523672580718994 -3.0599441528320312 19.117109298706055 15 15 15
-5.091117858886719 -2.231904983520508 18.287303924560547 15 15 15
-5.139378070831299 -2.1355910301208496 18.334327697753906 143 143 143
-5.159982204437256 -1.6284894943237305 18.405485153198242 120 120 120
1.3986471891403198 -0.41816478967666626 5.266434669494629 202 202 202
1.3891862630844116 -0.38143467903137207 5.19127893447876 72 72 72
-5.214059829711914 -1.0497028827667236 18.81947135925293 58 58 58
-2.806812047958374 -0.7750769853591919 13.575935363769531 122 122 122
2.1425092220306396 -0.24496211111545563 5.461312294006348 45 45 45
1.0886328220367432 -0.21001163125038147 5.477214336395264 178 178 178
0.8728806376457214 -0.016936078667640686 5.862946510314941 110 110 110
1.2084741592407227 0.004284656140953302 5.367987632751465 49 49 49
1.4467666149139404 0.014144725166261196 5.384069442749023 26 26 26
0.6357007026672363 0.16549372673034668 6.4728217124938965 121 121 121
-4.633613109588623 0.489824503660202 15.55821418762207 47 47 47
-4.311493396759033 0.46059587597846985 14.667953491210938 71 71 71
-4.098466873168945 0.527763843536377 14.688685417175293 62 62 62
2.195105791091919 0.18059580028057098 5.491968154907227 139 139 139
1.431067943572998 0.2097066342830658 5.421778202056885 98 98 98
1.095869541168213 0.24035878479480743 5.537053108215332 33 33 33
1.4429866075515747 0.24207620322704315 5.42688512802124 41 41 41
2.107884168624878 0.3031443953514099 5.652106761932373 117 117 117
2.1390774250030518 0.3442186117172241 5.651940822601318 105 105 105
0.8780078291893005 0.43646180629730225 6.1615753173828125 4 4 4
2.176065444946289 0.391819566488266 5.4872727394104 75 75 75
1.078348159790039 0.4668523669242859 5.596117973327637 6 6 6
2.1177120208740234 0.46194711327552795 5.424891471862793 58 58 58
1.405619740486145 0.4834056794643402 5.363083839416504 123 123 123
0.6549168229103088 0.6230252385139465 6.558276653289795 4 4 4
1.4765164852142334 0.5291039347648621 5.55319356918335 115 115 115
2.0912668704986572 0.5423208475112915 5.403595924377441 55 55 55
2.2223684787750244 0.5863692760467529 5.694339275360107 142 142 142
2.2299678325653076 0.5998547077178955 5.573089599609375 119 119 119
1.4682590961456299 0.6266410946846008 5.4391865730285645 35 35 35
2.238585948944092 0.6777684688568115 5.706944465637207 91 91 91
0.06719426810741425 0.9588014483451843 7.931649208068848 17 17 17
1.4460513591766357 0.6953589916229248 5.476843357086182 59 59 59
2.1155731678009033 0.7101678252220154 5.585397720336914 52 52 52
2.194157838821411 0.72596675157547 5.704687118530273 59 59 59
2.0992395877838135 0.731837809085846 5.52691125869751 138 138 138
1.4236156940460205 0.7423989176750183 5.323995590209961 43 43 43
0.5272009372711182 1.0384618043899536 6.873879432678223 3 3 3
-4.7749528884887695 2.582937479019165 15.728559494018555 108 108 108
1.086485505104065 0.9291906952857971 5.684122085571289 8 8 8
0.8553728461265564 1.10213303565979 6.163605213165283 5 5 5
-3.5549914836883545 2.5558996200561523 14.14932632446289 21 21 21
-3.802861452102661 2.6290435791015625 14.353911399841309 148 148 148
-3.0413877964019775 2.597743272781372 14.195444107055664 68 68 68
2.1878342628479004 1.1062592267990112 5.720100402832031 104 104 104
-3.80041766166687 2.7623953819274902 14.292049407958984 30 30 30
1.106316328048706 1.1442160606384277 5.64490270614624 37 37 37
0.8008912205696106 1.3323978185653687 6.373939037322998 11 11 11
-1.328140139579773 2.3291919231414795 10.979740142822266 56 56 56
0.7432402968406677 1.5364829301834106 6.4537577629089355 54 54 54
1.149925947189331 1.3681780099868774 5.541658878326416 29 29 29
1.2138018608093262 1.4242589473724365 5.531744003295898 87 87 87
1.4829559326171875 1.6229866743087769 5.616389751434326 55 55 55
0.9438450932502747 1.801603078842163 6.090256690979004 130 130 130
1.2337085008621216 1.6532288789749146 5.482805252075195 107 107 107
0.8142396807670593 2.0072269439697266 6.364778518676758 12 12 12
1.094049096107483 1.8471592664718628 5.801673412322998 31 31 31
1.0881493091583252 1.8118849992752075 5.695704460144043 15 15 15
1.4445183277130127 2.220911741256714 5.524278163909912 41 41 41
1.497183918952942 2.55148983001709 5.770787239074707 52 52 52
1.3863154649734497 -2.0059447288513184 4.979084491729736 91 91 91
1.0055705308914185 -1.7581815719604492 5.27310848236084 126 126 126
0.6091005206108093 -2.1611666679382324 6.9472880363464355 112 112 112
1.059655785560608 -1.596034049987793 5.2453107833862305 135 135 135
1.0242409706115723 -1.5908517837524414 5.370903968811035 28 28 28
1.3700611591339111 -1.33541738986969 5.120396614074707 46 46 46
1.3940467834472656 -1.3353211879730225 5.120975494384766 69 69 69
1.180213212966919 -1.2886362075805664 5.073666572570801 125 125 125
1.1948961019515991 -1.1143138408660889 5.062591552734375 29 29 29
1.3507078886032104 -1.1083705425262451 5.141578197479248 43 43 43
-5.045650005340576 -3.515695095062256 17.824085235595703 154 154 154
-3.6614582538604736 -2.9231133460998535 15.037775039672852 162 162 162
-5.512133598327637 -3.476672649383545 19.1601619720459 145 145 145
1.408876895904541 -0.9464445114135742 5.229186534881592 110 110 110
1.181231141090393 -0.907988965511322 5.0811004638671875 108 108 108
1.405103087425232 -0.8833503127098083 5.267023086547852 150 150 150
1.1834715604782104 -0.8495984077453613 5.140439987182617 130 130 130
-4.817671775817871 -2.785304069519043 17.309894561767578 84 84 84
-3.576632022857666 -2.362438440322876 15.133347511291504 168 168 168
