ply
format ascii 1.0
element vertex 717
property float x
property float y
property float z
property uchar red
property uchar green
property uchar blue
end_header
-1.4694322347640991 -0.28555554151535034 8.636528015136719 93 93 93
-1.2675365209579468 -4.1251444816589355 7.494268894195557 76 76 76
-1.47421395778656 2.5739808082580566 8.698506355285645 70 70 70
-1.4074879884719849 0.462653249502182 8.3718843460083 32 32 32
-1.2579718828201294 -4.345095634460449 7.522232532501221 74 74 74
-1.2682521343231201 -4.461207389831543 7.626575469970703 97 97 97
-1.4481889009475708 2.589869499206543 8.716165542602539 93 93 93
-1.251832365989685 -4.101369380950928 7.555051326751709 70 70 70
-1.37926185131073 -1.6498286724090576 8.313497543334961 89 89 89
-1.3403515815734863 0.020388029515743256 8.170452117919922 26 26 26
-1.4315217733383179 2.827198028564453 8.717496871948242 50 50 50
-1.2952920198440552 -2.3778634071350098 7.947946548461914 97 97 97
-1.3116929531097412 -2.2106692790985107 8.070722579956055 64 64 64
-1.4017356634140015 2.5520424842834473 8.731287002563477 70 70 70
-1.4017356634140015 2.5520424842834473 8.731287002563477 70 70 70
-1.1983184814453125 -4.530937671661377 7.574588298797607 67 67 67
-1.2362613677978516 -4.596051216125488 7.62012243270874 123 123 123
-1.333942174911499 0.23185808956623077 8.349167823791504 69 69 69
-1.2116669416427612 -3.9590861797332764 7.603797435760498 69 69 69
-1.2554141283035278 -2.29232120513916 7.885392189025879 66 66 66
-1.3680585622787476 3.3843917846679688 8.6289644241333 67 67 67
-1.2123197317123413 -3.7627105712890625 7.642977714538574 74 74 74
-1.2522820234298706 -2.469759941101074 7.90583610534668 98 98 98
-1.2928662300109863 -0.1939094513654709 8.158063888549805 89 89 89
-1.3473756313323975 2.1575334072113037 8.6600980758667 46 46 46
-1.2199856042861938 -3.4455223083496094 7.717281818389893 70 70 70
-1.2536020278930664 -3.889474391937256 7.801237106323242 67 67 67
-1.2130500078201294 -4.178912162780762 7.688992500305176 37 37 37
-1.2899935245513916 -0.7666808366775513 8.191783905029297 85 85 85
-1.1801831722259521 -4.233099937438965 7.644321918487549 71 71 71
-1.1772527694702148 -4.572463035583496 7.547988414764404 33 33 33
-1.2521721124649048 -3.455526113510132 8.00559139251709 93 93 93
-1.3520481586456299 2.6537516117095947 8.653239250183105 22 22 22
-1.3520481586456299 2.6537516117095947 8.653239250183105 22 22 22
-1.2309645414352417 -2.5840444564819336 7.895233154296875 97 97 97
-1.1994376182556152 -3.427981376647949 7.7539963722229 39 39 39
-1.1944385766983032 -3.2873902320861816 7.730342388153076 61 61 61
-1.1660853624343872 -4.175426959991455 7.630943775177002 88 88 88
-1.1530793905258179 -4.536786079406738 7.5848002433776855 114 114 114
-1.3135087490081787 2.249335765838623 8.640698432922363 23 23 23
-1.1186617612838745 -2.5985093116760254 7.5932769775390625 61 61 61
-1.2340047359466553 -0.9404482245445251 8.201780319213867 39 39 39
-1.1721179485321045 -3.0626180171966553 7.800648212432861 89 89 89
-1.189383625984192 -2.415276288986206 7.918026447296143 58 58 58
-1.165946125984192 -4.174197196960449 7.629298686981201 88 88 88
-1.1771506071090698 -2.336641550064087 7.929017543792725 88 88 88
-1.190151333808899 -1.514765977859497 8.065839767456055 97 97 97
-1.1814358234405518 -1.7565550804138184 8.021068572998047 93 93 93
-1.175410270690918 -1.8544615507125854 8.056795120239258 61 61 61
-1.1364158391952515 -3.2936654090881348 7.801138401031494 114 114 114
-1.3030844926834106 3.8737521171569824 8.969705581665039 35 35 35
-1.2521017789840698 1.6973932981491089 8.635128021240234 38 38 38
-1.1232537031173706 -4.568633556365967 7.776198387145996 93 93 93
-1.01198410987854 -4.372852802276611 7.140457630157471 76 76 76
-1.2457351684570312 1.767176866531372 8.642842292785645 44 44 44
-1.1719156503677368 -2.7283473014831543 7.9604973793029785 85 85 85
-1.1698155403137207 -1.0210554599761963 8.151076316833496 99 99 99
-1.096632719039917 -4.303553581237793 7.656516075134277 47 47 47
-1.1684871912002563 -0.86708664894104 8.18355655670166 110 110 110
-1.1755940914154053 -2.0574111938476562 8.105143547058105 101 101 101
-1.1066874265670776 -3.1457345485687256 7.778858661651611 101 101 101
-1.1562544107437134 -1.0135608911514282 8.157663345336914 92 92 92
-1.1670451164245605 -0.7579744458198547 8.198294639587402 96 96 96
-1.208263874053955 1.62694251537323 8.5971097946167 39 39 39
-1.1764801740646362 4.189211368560791 8.415828704833984 51 51 51
-1.1172012090682983 -1.4057599306106567 7.990472793579102 78 78 78
-1.0915857553482056 -2.9251956939697266 7.864345550537109 100 100 100
-1.0711208581924438 -3.8930745124816895 7.776678562164307 79 79 79
-1.0766133069992065 -3.1557040214538574 7.849551200866699 89 89 89
-1.1457101106643677 0.251813679933548 8.366497993469238 76 76 76
-1.1238969564437866 -0.5087814927101135 8.207085609436035 105 105 105
-1.143733263015747 0.317993700504303 8.388219833374023 79 79 79
-1.114466667175293 0.015455521643161774 8.235491752624512 64 64 64
-1.0665072202682495 0.2782200574874878 8.196090698242188 49 49 49
-1.0402692556381226 -3.4046173095703125 7.810771465301514 59 59 59
-1.0887845754623413 -2.27211594581604 8.11455249786377 61 61 61
-1.101628065109253 0.10078608989715576 8.34227466583252 50 50 50
-1.1294461488723755 1.2752580642700195 8.56473159790039 61 61 61
-1.044461965560913 -2.029390573501587 7.925877571105957 56 56 56
-0.9887712001800537 -4.045147895812988 7.7534637451171875 77 77 77
-1.0808379650115967 -1.374804139137268 8.113874435424805 166 166 166
-1.0246543884277344 -2.9972517490386963 7.898315906524658 101 101 101
-1.0246543884277344 -2.9972517490386963 7.898315906524658 101 101 101
-1.0990413427352905 0.9979968667030334 8.517498016357422 109 109 109
-1.0328952074050903 -1.8786683082580566 8.041095733642578 69 69 69
-1.0534164905548096 0.43926453590393066 8.411270141601562 9 9 9
-1.1280461549758911 3.1130478382110596 8.834894180297852 21 21 21
-1.0920788049697876 1.1451610326766968 8.554856300354004 97 97 97
-1.0800455808639526 1.2803661823272705 8.557477951049805 100 100 100
-1.0047966241836548 -3.7815840244293213 8.015894889831543 35 35 35
-1.0047966241836548 -3.7815840244293213 8.015894889831543 35 35 35
-0.9957253336906433 -2.6685729026794434 7.964000701904297 68 68 68
-0.9957253336906433 -2.6685729026794434 7.964000701904297 68 68 68
-1.0321238040924072 -0.28451722860336304 8.2531156539917 101 101 101
-0.9556063413619995 -2.9012134075164795 7.840026378631592 98 98 98
-0.8861914873123169 -3.735515594482422 7.542847156524658 83 83 83
-0.9162376523017883 -4.210690498352051 7.619388580322266 43 43 43
-0.9175270199775696 -3.9835612773895264 7.712145805358887 109 109 109
-0.9280931949615479 -1.3492975234985352 7.8699212074279785 65 65 65
-1.0296430587768555 -0.48224955797195435 8.407560348510742 28 28 28
-1.0284247398376465 1.7174086570739746 8.656352996826172 68 68 68
-0.9971305727958679 1.151043176651001 8.462878227233887 9 9 9
-0.924126923084259 -3.2000951766967773 7.797914028167725 43 43 43
-0.9923399090766907 1.3494317531585693 8.63060474395752 153 153 153
-1.0184085369110107 2.2225520610809326 8.760910987854004 18 18 18
-1.0184085369110107 2.2225520610809326 8.760910987854004 18 18 18
-0.8973779678344727 -3.903324842453003 7.725355625152588 107 107 107
-0.9668459296226501 0.6036937832832336 8.390409469604492 59 59 59
-0.9928163886070251 1.8826367855072021 8.63103199005127 54 54 54
-0.9519551992416382 0.9153927564620972 8.504938125610352 177 177 177
-1.002443790435791 3.7621397972106934 8.954292297363281 43 43 43
-0.890678346157074 -2.3088438510894775 8.04685115814209 62 62 62
-0.9869859218597412 3.058598518371582 8.856864929199219 53 53 53
-0.855338454246521 -4.112479209899902 7.736030101776123 61 61 61
-0.9564714431762695 2.29020094871521 8.682082176208496 56 56 56
-0.8768904209136963 -2.3250443935394287 7.963118553161621 54 54 54
-0.864409327507019 -1.2820152044296265 8.156357765197754 102 102 102
-0.9282586574554443 0.7308958768844604 8.46687126159668 89 89 89
-0.9282586574554443 0.7308958768844604 8.46687126159668 89 89 89
-0.9839684963226318 2.24019718170166 8.783556938171387 23 23 23
-0.8387922048568726 -4.209793567657471 7.687039852142334 87 87 87
-0.9718160033226013 3.619267702102661 8.945028305053711 18 18 18
-0.8737218379974365 -1.3958971500396729 8.1228666305542 64 64 64
-0.8834601044654846 -0.5422762632369995 8.232595443725586 112 112 112
-0.8274775147438049 -4.031233310699463 7.727363109588623 53 53 53
-0.9570068717002869 3.9056081771850586 8.973628044128418 16 16 16
-0.8589374423027039 -2.051820755004883 8.07805061340332 99 99 99
-0.876921534538269 -0.4995148181915283 8.363646507263184 78 78 78
-0.876921534538269 -0.4995148181915283 8.363646507263184 78 78 78
-0.922441303730011 2.67822527885437 8.801647186279297 19 19 19
-0.7953963279724121 -4.781324863433838 7.632699966430664 48 48 48
-0.7925072908401489 -4.5338544845581055 7.672129154205322 74 74 74
-0.8020788431167603 -2.8558852672576904 7.931020259857178 75 75 75
-0.8572769165039062 0.6441413760185242 8.490078926086426 96 96 96
-0.7723613977432251 -4.523782730102539 7.692873954772949 63 63 63
-0.8615044355392456 1.2703518867492676 8.623147964477539 61 61 61
-0.786355197429657 -2.907928943634033 7.873353958129883 61 61 61
-0.8695662617683411 1.880371332168579 8.728792190551758 49 49 49
-0.8695662617683411 1.880371332168579 8.728792190551758 49 49 49
-0.7592305541038513 -4.681820392608643 7.62518835067749 52 52 52
-0.7695990800857544 -3.842310667037964 7.749460220336914 59 59 59
-0.7692334651947021 -4.129480361938477 7.822937488555908 68 68 68
-0.8351848125457764 1.0505754947662354 8.57076358795166 71 71 71
-0.8220189809799194 0.3409605324268341 8.444174766540527 77 77 77
-0.7615121603012085 -2.180520534515381 8.019369125366211 53 53 53
-0.8388270139694214 2.7501888275146484 8.940539360046387 46 46 46
-0.735550582408905 -2.9863827228546143 7.878445625305176 56 56 56
-0.8052371144294739 2.216928243637085 8.724575996398926 19 19 19
-0.7111905217170715 -4.274994850158691 7.694333076477051 55 55 55
-0.7679028511047363 0.09400273859500885 8.392425537109375 79 79 79
-0.7848585247993469 1.5189818143844604 8.623883247375488 48 48 48
-0.7752918601036072 1.414441466331482 8.587713241577148 66 66 66
-0.7296820282936096 -0.8270550966262817 8.088645935058594 84 84 84
-0.7296820282936096 -0.8270550966262817 8.088645935058594 84 84 84
-0.7973245978355408 0.9914503693580627 8.534737586975098 173 173 173
-0.6862627267837524 -4.619740962982178 7.646188735961914 21 21 21
-0.682965874671936 -4.711116790771484 7.632911682128906 27 27 27
-0.7423804998397827 0.1342000961303711 8.386019706726074 93 93 93
-0.6829901933670044 -4.0312957763671875 7.729833602905273 72 72 72
-0.6990832090377808 -2.8508050441741943 7.939569473266602 86 86 86
-0.6871136426925659 -2.771920680999756 7.98790979385376 50 50 50
-0.6947916746139526 -2.210287570953369 8.01930046081543 69 69 69
-0.6773754954338074 -3.8504652976989746 7.8320465087890625 62 62 62
-0.6866978406906128 -2.293907403945923 8.004034996032715 94 94 94
-0.7159048318862915 -0.08906269073486328 8.357182502746582 79 79 79
-0.6381206512451172 -4.104689598083496 7.630406856536865 63 63 63
-0.6383100748062134 -3.6913881301879883 7.7631659507751465 50 50 50
-0.6540055871009827 -2.6613383293151855 7.925090789794922 58 58 58
-0.6777304410934448 0.4510873556137085 8.405341148376465 105 105 105
-0.6366847157478333 -3.686075448989868 7.821182727813721 43 43 43
-0.686443030834198 0.19532954692840576 8.451367378234863 63 63 63
-0.6014014482498169 -4.642204284667969 7.629056453704834 38 38 38
-0.6460543870925903 -2.101452589035034 8.053808212280273 61 61 61
-0.7130977511405945 0.9985487461090088 8.642173767089844 123 123 123
-0.6457279324531555 -1.8790029287338257 8.134249687194824 54 54 54
-0.624351978302002 -2.820646286010742 7.90065336227417 63 63 63
-0.6051189303398132 -4.340073108673096 7.703301429748535 54 54 54
-0.6646183729171753 1.4866584539413452 8.70546817779541 74 74 74
-0.6447044014930725 -0.373432457447052 8.291007041931152 109 109 109
-0.607332170009613 -1.9889754056930542 8.053460121154785 85 85 85
-0.6195550560951233 -1.4188798666000366 8.242620468139648 61 61 61
-0.5578420162200928 -3.7401726245880127 7.784649848937988 30 30 30
-0.5520653128623962 -0.6506796479225159 7.96177339553833 97 97 97
-0.5469368696212769 -1.9473907947540283 8.108366966247559 74 74 74
-0.5561970472335815 -2.330634832382202 8.012067794799805 42 42 42
-0.5512133836746216 -4.056344985961914 7.741617679595947 38 38 38
-0.5850909352302551 -1.372313141822815 8.223644256591797 98 98 98
-0.549595057964325 -4.173093795776367 7.727072238922119 100 100 100
-0.5968806743621826 0.39082208275794983 8.48915958404541 53 53 53
-0.5622650384902954 -2.705627679824829 8.010965347290039 50 50 50
-0.5342456102371216 -4.787998199462891 7.657337665557861 55 55 55
-0.6122335195541382 -1.9506018161773682 8.374794006347656 39 39 39
-0.5441970229148865 -3.709402561187744 7.836246013641357 26 26 26
-0.534093976020813 -4.3219780921936035 7.717342853546143 27 27 27
-0.5496006011962891 -2.393066883087158 8.044913291931152 82 82 82
-0.5507482886314392 -0.9925495386123657 8.148407936096191 83 83 83
-0.5251724123954773 -3.646483898162842 7.843380451202393 103 103 103
-0.5221001505851746 0.6410354375839233 8.293980598449707 83 83 83
-0.5220994353294373 0.6410355567932129 8.293975830078125 83 83 83
-0.5270482301712036 -2.7992441654205322 7.978233814239502 33 33 33
-0.5270482301712036 -2.7992441654205322 7.978233814239502 33 33 33
-0.5187198519706726 -2.3190371990203857 8.031951904296875 37 37 37
-0.5476014614105225 0.9940419793128967 8.549752235412598 56 56 56
-0.5476014614105225 0.9940419793128967 8.549752235412598 56 56 56
-0.5438736081123352 0.5466540455818176 8.528505325317383 49 49 49
-0.5345747470855713 -0.22862361371517181 8.420084953308105 85 85 85
-0.5656408667564392 1.2321316003799438 8.559796333312988 135 135 135
-0.5137742757797241 0.3066766858100891 8.487469673156738 71 71 71
-0.5231567621231079 1.105834722518921 8.513910293579102 97 97 97
-0.5182451605796814 -0.44755709171295166 8.368882179260254 138 138 138
-0.5018908381462097 -3.388364553451538 8.20974349975586 46 46 46
-0.4814315736293793 -2.7770466804504395 7.952375411987305 24 24 24
-0.4677240550518036 -4.314153671264648 7.6724653244018555 41 41 41
-0.458694726228714 -3.9147801399230957 7.82280969619751 62 62 62
-0.4964456260204315 1.1768172979354858 8.677328109741211 82 82 82
-0.4244428277015686 -3.198068141937256 7.89193868637085 63 63 63
-0.48277056217193604 -1.2608565092086792 8.280680656433105 68 68 68
-0.4563664197921753 1.3275448083877563 8.606378555297852 133 133 133
-0.4670446217060089 -0.9425641298294067 8.32725715637207 91 91 91
-0.4670446217060089 -0.9425641298294067 8.32725715637207 91 91 91
-0.4272783100605011 -4.581066131591797 7.712031841278076 71 71 71
-0.4272783100605011 -4.581066131591797 7.712031841278076 71 71 71
-0.46631550788879395 0.7662590146064758 8.54535961151123 68 68 68
-0.4302927553653717 -3.1475796699523926 7.914766311645508 68 68 68
-0.4302927553653717 -3.1475796699523926 7.914766311645508 68 68 68
-0.41827139258384705 -1.8833105564117432 8.146910667419434 27 27 27
-0.44117116928100586 1.2404530048370361 8.624027252197266 69 69 69
-0.39553651213645935 -4.0747480392456055 7.811259746551514 67 67 67
-0.403727263212204 -0.3754740357398987 8.274275779724121 93 93 93
-0.40272364020347595 -0.3880142569541931 8.298839569091797 63 63 63
-0.4096304178237915 0.4644213020801544 8.501154899597168 84 84 84
-0.40993478894233704 0.7702261805534363 8.53298568725586 35 35 35
-0.34096860885620117 -3.9873456954956055 7.655817985534668 63 63 63
-0.3836802840232849 -0.9267057776451111 8.263733863830566 80 80 80
-0.3889601230621338 0.1334584653377533 8.421773910522461 53 53 53
-0.3810104727745056 -0.013521586544811726 8.410717964172363 94 94 94
-0.358190655708313 1.3324501514434814 8.628802299499512 53 53 53
-0.3660915195941925 0.2712070047855377 8.467852592468262 47 47 47
-0.3660915195941925 0.2712070047855377 8.467852592468262 47 47 47
-0.3300301432609558 -4.34675407409668 7.620832443237305 55 55 55
-0.36010971665382385 -0.3680017590522766 8.366819381713867 56 56 56
-0.33476313948631287 -3.977381944656372 7.804105281829834 43 43 43
-0.33476313948631287 -3.977381944656372 7.804105281829834 43 43 43
-0.3212006986141205 -0.14184479415416718 8.173212051391602 67 67 67
-0.33440133929252625 -3.644841194152832 7.89293909072876 79 79 79
-0.3399099111557007 1.047216534614563 8.587594032287598 82 82 82
-0.3695537745952606 1.3068604469299316 8.758445739746094 39 39 39
-0.3243865668773651 -3.6174471378326416 7.834367752075195 78 78 78
-0.2841743230819702 -3.5521082878112793 7.576886177062988 43 43 43
-0.3132420480251312 -4.184016704559326 7.729838848114014 69 69 69
-0.3288806676864624 -0.3805685043334961 8.40655517578125 57 57 57
-0.3319229483604431 1.4548275470733643 8.531865119934082 97 97 97
-0.32127296924591064 0.5684834122657776 8.53184700012207 48 48 48
-0.3330017030239105 1.1457092761993408 8.634824752807617 33 33 33
-0.31567031145095825 0.10982055962085724 8.472014427185059 59 59 59
-0.31404295563697815 0.508048951625824 8.40178108215332 63 63 63
-0.31034761667251587 -0.3351338803768158 8.35131549835205 67 67 67
-0.2994580566883087 -1.9965226650238037 8.324228286743164 51 51 51
-0.28976649045944214 -0.7613193392753601 8.074689865112305 63 63 63
-0.2819961905479431 -2.9307785034179688 7.997219085693359 66 66 66
-0.2536623179912567 1.7355890274047852 7.283259868621826 87 87 87
-0.2892075479030609 0.1717369258403778 8.419255256652832 66 66 66
-0.2919226884841919 0.04334436357021332 8.490163803100586 78 78 78
-0.27119165658950806 -3.089712142944336 7.961740970611572 86 86 86
-0.2833919823169708 -0.39544913172721863 8.335082054138184 125 125 125
-0.2833919823169708 -0.39544913172721863 8.335082054138184 125 125 125
-0.2605333924293518 1.6060980558395386 7.851707458496094 97 97 97
-0.2499757707118988 -2.8278441429138184 7.963016033172607 51 51 51
-0.2677312195301056 0.8175702095031738 8.61642074584961 76 76 76
-0.29807090759277344 -0.4040954113006592 8.68127155303955 85 85 85
-0.2525443136692047 0.04898133873939514 8.447874069213867 70 70 70
-0.21611252427101135 1.0639265775680542 8.661003112792969 106 106 106
-0.2204611450433731 0.15669067203998566 8.29292106628418 98 98 98
-0.2204611450433731 0.15669067203998566 8.29292106628418 98 98 98
-0.2008146196603775 -3.702705144882202 7.803808212280273 55 55 55
-0.2132904827594757 -0.07126878947019577 8.483508110046387 45 45 45
-0.185640349984169 -1.9247841835021973 8.14189338684082 54 54 54
-0.2186187505722046 0.8940122127532959 8.80418586730957 31 31 31
-0.1771269291639328 -2.4181032180786133 8.121541023254395 62 62 62
-0.14939339458942413 -2.3421566486358643 8.0938720703125 64 64 64
-0.17898058891296387 -0.876491129398346 8.35545539855957 43 43 43
-0.181224063038826 0.5394309759140015 8.511695861816406 38 38 38
-0.1657794564962387 0.033645741641521454 8.530484199523926 41 41 41
-0.15129297971725464 -0.9917930960655212 8.29787540435791 52 52 52
-0.12426672130823135 1.7936841249465942 6.970797061920166 91 91 91
-0.12351039797067642 1.0301741361618042 8.526866912841797 44 44 44
-0.11977577954530716 0.8016301393508911 8.42471981048584 41 41 41
-0.09822617471218109 1.7080739736557007 7.375690460205078 96 96 96
-0.1303398311138153 1.5660206079483032 8.453585624694824 88 88 88
-0.06435835361480713 2.025686025619507 6.0691046714782715 72 72 72
-0.0570814311504364 1.5449590682983398 8.049110412597656 114 114 114
-0.03347724676132202 1.7035413980484009 7.314496040344238 87 87 87
0.1320265233516693 1.8232054710388184 6.97202205657959 69 69 69
0.2242710292339325 1.8132015466690063 6.768552303314209 83 83 83
0.282961905002594 1.9094973802566528 6.513813018798828 124 124 124
0.32983168959617615 2.057429552078247 6.200695514678955 160 160 160
0.3421604037284851 1.9937766790390015 6.346673488616943 112 112 112
0.2636362910270691 2.4622559547424316 4.472278594970703 97 97 97
0.416022390127182 2.1520156860351562 5.452106952667236 113 113 113
0.33475708961486816 2.4111692905426025 4.5649614334106445 82 82 82
0.4565252363681793 -0.5498165488243103 5.079793453216553 46 46 46
0.48062798380851746 0.11159217357635498 5.183854579925537 58 58 58
0.45990443229675293 -1.5237977504730225 4.910210609436035 64 64 64
0.45990556478500366 -1.523813009262085 4.910256385803223 64 64 64
0.48412325978279114 -0.655364453792572 5.040132522583008 25 25 25
0.44839730858802795 -1.578078269958496 4.874115467071533 143 143 143
0.47419029474258423 -1.0106441974639893 5.022369384765625 41 41 41
0.49971166253089905 -0.4979568421840668 5.0801167488098145 29 29 29
0.4841626286506653 -0.6552981734275818 5.039763927459717 25 25 25
0.5031489133834839 -0.15069031715393066 5.166296482086182 18 18 18
0.48086440563201904 -1.3911008834838867 4.927574157714844 228 228 228
0.5019840598106384 -0.3099883496761322 5.109786510467529 24 24 24
0.5069836378097534 0.03109043650329113 5.189167499542236 39 39 39
0.5069836378097534 0.03109043650329113 5.189167499542236 39 39 39
0.523478090763092 0.3628166615962982 5.295791149139404 20 20 20
0.5409861207008362 0.6230428218841553 5.31156587600708 53 53 53
0.4992843568325043 -1.5529509782791138 4.888821601867676 222 222 222
0.5147409439086914 -1.1534501314163208 4.971695423126221 253 253 253
0.554423451423645 0.5323019027709961 5.278853416442871 54 54 54
0.5560121536254883 0.26842039823532104 5.232840538024902 46 46 46
0.5560121536254883 0.26842039823532104 5.232840538024902 46 46 46
0.5495227575302124 -0.8389508724212646 5.149080276489258 37 37 37
0.5762289762496948 0.0744180679321289 5.20546817779541 38 38 38
0.6080565452575684 1.4046320915222168 5.416260719299316 70 70 70
0.5789654850959778 -0.9326350092887878 5.025997638702393 53 53 53
0.5988970398902893 0.4151257276535034 5.268090724945068 35 35 35
0.6132082939147949 0.8304813504219055 5.353095054626465 45 45 45
0.6056884527206421 0.4869794249534607 5.116128921508789 50 50 50
0.5881414413452148 -1.2264150381088257 4.97650146484375 238 238 238
0.6218293309211731 0.05031874030828476 5.219261169433594 32 32 32
0.6518720388412476 1.8991705179214478 5.415556907653809 70 70 70
0.6731680631637573 1.7125800848007202 5.522899150848389 43 43 43
0.6977488398551941 1.5135014057159424 5.43016242980957 53 53 53
0.6543595790863037 -0.19587068259716034 5.196924209594727 46 46 46
0.6695980429649353 -0.00822099857032299 5.186982154846191 43 43 43
0.6889150142669678 0.04879353195428848 5.220439910888672 35 35 35
0.6598626375198364 -1.562436580657959 4.935011386871338 248 248 248
0.6709949374198914 -0.9688170552253723 5.045091152191162 55 55 55
0.6832208037376404 -0.9159239530563354 5.142411708831787 43 43 43
0.6983705759048462 -0.3249639570713043 5.048746585845947 42 42 42
0.7282776236534119 0.2853562831878662 5.272668361663818 34 34 34
0.6710036993026733 -0.968800961971283 5.045003414154053 55 55 55
0.7129930257797241 -0.45568978786468506 5.219838619232178 42 42 42
0.7098327875137329 -0.23043259978294373 5.185311794281006 46 46 46
0.7290821671485901 0.18427565693855286 5.257059097290039 37 37 37
0.7233069539070129 -0.7701236009597778 5.11619234085083 43 43 43
0.7846707105636597 1.1384892463684082 5.466415882110596 49 49 49
0.7930424809455872 1.3035708665847778 5.491916656494141 53 53 53
0.8965000510215759 1.741942286491394 5.568272113800049 104 104 104
0.8621661067008972 0.2809326946735382 5.36320686340332 33 33 33
0.8274344801902771 -1.0779058933258057 5.1240105628967285 56 56 56
0.9513319730758667 1.728477954864502 5.651012897491455 122 122 122
0.7069405913352966 2.4885382652282715 3.983091354370117 80 80 80
1.0052900314331055 1.7134257555007935 5.592567443847656 54 54 54
0.8537426590919495 2.2062437534332275 3.8834547996520996 81 81 81
-2.25955867767334 1.387473225593567 8.40582275390625 16 16 16
-0.4127267599105835 1.331719994544983 8.609024047851562 118 118 118
-2.9309639930725098 0.9754295945167542 8.185999870300293 60 60 60
0.7917354702949524 1.8753410577774048 5.470014572143555 113 113 113
-0.35819211602211 1.3324520587921143 8.628814697265625 53 53 53
-0.8414393663406372 0.9985127449035645 8.555140495300293 172 172 172
-0.8866863250732422 0.8882129192352295 8.281335830688477 147 147 147
-3.481215238571167 2.3471808433532715 8.358440399169922 7 7 7
-1.6695271730422974 0.9155866503715515 8.460649490356445 38 38 38
-2.3050625324249268 0.497976154088974 8.19206428527832 26 26 26
-0.7692452073097229 1.029512643814087 8.644569396972656 83 83 83
-2.922024726867676 1.461405634880066 8.311330795288086 181 181 181
0.47417837381362915 -1.0106279850006104 5.0221710205078125 41 41 41
-1.7056596279144287 -0.8659602999687195 8.101275444030762 23 23 23
-0.5656424164772034 1.2321925163269043 8.559975624084473 135 135 135
-1.7618218660354614 -0.9327303767204285 8.126126289367676 130 130 130
-1.6695480346679688 0.9155906438827515 8.46071720123291 38 38 38
0.5622336268424988 -1.2656745910644531 4.977996349334717 176 176 176
0.003661485854536295 2.035186529159546 6.0014848709106445 41 41 41
-0.9923788905143738 1.3494383096694946 8.630711555480957 153 153 153
-1.5385253429412842 1.5000159740447998 8.497912406921387 153 153 153
-1.441246747970581 1.6714208126068115 8.547257423400879 160 160 160
-3.646440267562866 2.8014285564422607 8.326708793640137 110 110 110
-0.4638402462005615 -0.9827637672424316 8.313600540161133 27 27 27
-1.0996531248092651 -2.6290276050567627 7.69448184967041 143 143 143
-1.2272738218307495 -0.8945189714431763 8.206954956054688 33 33 33
-3.457542896270752 1.4551626443862915 8.177610397338867 17 17 17
-1.117456078529358 -0.8844681978225708 8.246725082397461 48 48 48
-3.439063787460327 2.8000354766845703 8.37666130065918 37 37 37
-1.0603710412979126 -0.8935709595680237 8.22627067565918 135 135 135
-1.134445309638977 -2.74006986618042 7.894242286682129 136 136 136
-1.3587242364883423 -4.576412200927734 7.543593883514404 92 92 92
-1.3923622369766235 -0.8813380599021912 8.180377960205078 108 108 108
-1.3587068319320679 -4.576358318328857 7.543519973754883 92 92 92
-3.5564630031585693 0.5539352893829346 7.9761457443237305 16 16 16
-1.3587545156478882 -4.576476097106934 7.543692588806152 92 92 92
-1.1774578094482422 -4.572820663452148 7.548731327056885 33 33 33
-2.961717367172241 -0.8518832325935364 7.893317222595215 92 92 92
-3.280108690261841 -2.6070122718811035 7.56853723526001 29 29 29
-1.7259767055511475 -0.9639479517936707 8.094844818115234 130 130 130
-2.078199863433838 -3.14843487739563 7.647233963012695 86 86 86
-0.5656365752220154 1.2321264743804932 8.559733390808105 135 135 135
0.5004113912582397 -0.9322342276573181 4.998628616333008 134 134 134
-1.578405499458313 1.8084959983825684 8.564946174621582 24 24 24
0.4656332731246948 -1.3492536544799805 4.940622329711914 111 111 111
-1.227198600769043 -0.8942027688026428 8.206196784973145 33 33 33
-1.3396550416946411 1.8478766679763794 8.706934928894043 129 129 129
-1.7925664186477661 -1.8557270765304565 7.9861931800842285 22 22 22
0.7694702744483948 -1.366554856300354 4.977138996124268 149 149 149
-3.5563602447509766 0.5539012551307678 7.975978374481201 16 16 16
-1.514998435974121 1.8312616348266602 8.5547456741333 228 228 228
-1.4038277864456177 1.85016930103302 8.672119140625 154 154 154
-1.3088041543960571 1.7830036878585815 8.336261749267578 127 127 127
-1.1301103830337524 -4.500893592834473 7.622364044189453 24 24 24
-2.737560510635376 4.107685565948486 8.66483211517334 51 51 51
0.9061415195465088 1.929848074913025 5.31311559677124 147 147 147
-3.6534531116485596 3.2784156799316406 8.37871265411377 124 124 124
-1.5783779621124268 1.8084890842437744 8.564846992492676 24 24 24
-1.5473045110702515 1.8559051752090454 8.662096977233887 226 226 226
-1.4392399787902832 1.8481450080871582 8.600775718688965 110 110 110
0.4975416958332062 -0.9947673678398132 5.015610694885254 128 128 128
-1.573702096939087 1.860135793685913 8.611451148986816 153 153 153
-2.8753933906555176 1.5581432580947876 8.319697380065918 11 11 11
-1.105672836303711 -4.397824287414551 7.597491264343262 61 61 61
-0.2921903133392334 0.961012065410614 8.76681137084961 71 71 71
-1.5294981002807617 1.866486668586731 8.514537811279297 173 173 173
-1.6707655191421509 0.7344108819961548 8.399199485778809 19 19 19
-2.930992364883423 0.9754442572593689 8.186074256896973 60 60 60
-2.379301071166992 -1.414456844329834 7.904761791229248 53 53 53
-0.9612263441085815 1.1882221698760986 8.544156074523926 147 147 147
-2.2638120651245117 1.8862521648406982 8.489377975463867 19 19 19
-2.3890233039855957 1.9537041187286377 8.8136625289917 87 87 87
-1.6444036960601807 0.5754638314247131 8.416252136230469 212 212 212
-1.0005223751068115 1.2323895692825317 8.540775299072266 163 163 163
-1.8280513286590576 -2.2029874324798584 7.848358154296875 137 137 137
-0.4692878723144531 -0.04822172597050667 8.524053573608398 4 4 4
-1.2897207736968994 1.621276617050171 8.478922843933105 113 113 113
-3.009530782699585 -1.7530585527420044 7.735570430755615 89 89 89
0.6345316171646118 -1.1522196531295776 5.009142875671387 118 118 118
-2.747467517852783 1.5108451843261719 8.046445846557617 13 13 13
0.3850696384906769 2.2093992233276367 5.051270961761475 3 3 3
-2.4822945594787598 -4.1364240646362305 7.417619705200195 97 97 97
-3.6785783767700195 1.9040557146072388 8.159951210021973 21 21 21
-2.0450127124786377 -2.6508426666259766 7.723094463348389 174 174 174
-1.0888477563858032 1.0612577199935913 8.504579544067383 19 19 19
-0.9838062524795532 2.240077495574951 8.78294563293457 23 23 23
-3.771143674850464 1.8987239599227905 8.221896171569824 125 125 125
-2.3256494998931885 -2.79689359664917 7.674165725708008 168 168 168
-2.3251028060913086 -2.7964091300964355 7.672889232635498 168 168 168
-0.8802325129508972 2.009880781173706 8.669900894165039 133 133 133
-3.5077943801879883 3.7151031494140625 8.535820007324219 122 122 122
-3.697435140609741 3.317891836166382 8.467449188232422 145 145 145
-1.6659094095230103 0.6540642380714417 8.37313175201416 82 82 82
-3.7376019954681396 3.3397600650787354 8.542001724243164 150 150 150
-3.7633821964263916 0.6051209568977356 7.968380451202393 78 78 78
-2.366637945175171 -1.3164358139038086 8.00196361541748 118 118 118
-1.6659032106399536 0.654083788394928 8.373099327087402 82 82 82
-1.5764038562774658 2.003681182861328 8.612458229064941 74 74 74
-0.4127240478992462 1.3317185640335083 8.60900592803955 118 118 118
-3.0874130725860596 -2.213688850402832 7.68272590637207 66 66 66
-1.2760257720947266 1.370579481124878 8.532559394836426 121 121 121
0.39978688955307007 -1.4264651536941528 4.88538122177124 170 170 170
-0.3674519658088684 1.205767273902893 8.623684883117676 71 71 71
-3.1068003177642822 -4.022484302520752 7.307300567626953 93 93 93
-1.1952006816864014 -2.2762062549591064 7.859193801879883 171 171 171
-1.6333892345428467 -0.44157874584198 8.037460327148438 65 65 65
0.4265105724334717 -1.172580599784851 5.015105724334717 199 199 199
-1.7304428815841675 -0.951642632484436 8.173483848571777 8 8 8
-3.8009886741638184 1.5407299995422363 8.268729209899902 103 103 103
-1.35871422290802 -4.576333522796631 7.5435004234313965 92 92 92
-2.9310014247894287 0.9754453897476196 8.18609619140625 60 60 60
-1.2362602949142456 -4.596038341522217 7.620142936706543 123 123 123
-1.166080117225647 -4.1754560470581055 7.630962371826172 88 88 88
-0.40256059169769287 1.1345555782318115 8.566153526306152 48 48 48
0.5231850743293762 -1.587421178817749 4.871382713317871 149 149 149
-1.4686275720596313 0.9312044978141785 8.44507884979248 10 10 10
-2.3667397499084473 -1.3530470132827759 7.928263187408447 88 88 88
-1.4743291139602661 2.092834711074829 8.643190383911133 92 92 92
-1.443571925163269 1.4010456800460815 8.677291870117188 137 137 137
-3.696866750717163 1.4728894233703613 7.98153018951416 108 108 108
-1.186411738395691 -2.3060576915740967 7.967350959777832 134 134 134
-1.696946382522583 -0.9389030337333679 8.07384967803955 16 16 16
-2.236971616744995 3.6492393016815186 8.729218482971191 136 136 136
-3.3584728240966797 -1.30535089969635 7.737870216369629 89 89 89
-1.5050830841064453 2.680276870727539 8.703522682189941 31 31 31
-1.0808463096618652 -1.3748224973678589 8.113946914672852 166 166 166
-1.0090837478637695 -2.3265864849090576 8.007001876831055 145 145 145
-1.0585635900497437 -2.3037023544311523 7.924642562866211 151 151 151
-1.1098426580429077 -2.3093490600585938 7.959218978881836 145 145 145
0.3997959494590759 -1.4265215396881104 4.885429382324219 170 170 170
-1.1885900497436523 -2.276043653488159 7.827320098876953 157 157 157
-0.5778272747993469 0.9978087544441223 8.612630844116211 126 126 126
-0.7972017526626587 0.9913168549537659 8.533669471740723 173 173 173
-0.46477997303009033 -0.04967552423477173 8.464935302734375 15 15 15
-0.42145660519599915 -0.034492164850234985 8.413256645202637 102 102 102
-0.5041163563728333 -0.021254168823361397 8.430614471435547 87 87 87
-0.6416449546813965 0.9757336974143982 8.477397918701172 100 100 100
-0.8486756682395935 0.9789637923240662 8.491841316223145 166 166 166
-0.4912472069263458 1.2764331102371216 8.658588409423828 17 17 17
-1.0048145055770874 1.0225852727890015 8.52157974243164 157 157 157
-3.5350329875946045 -0.33391016721725464 7.924257278442383 6 6 6
-3.76326060295105 0.6051037311553955 7.968170642852783 78 78 78
-0.553270161151886 -4.090556621551514 7.739549160003662 15 15 15
-2.978682518005371 0.06756126880645752 8.034430503845215 71 71 71
-0.7972822785377502 0.9914249181747437 8.534520149230957 173 173 173
-3.569143295288086 -0.361799955368042 7.894009590148926 37 37 37
-0.6550853252410889 0.976984441280365 8.55299186706543 173 173 173
-2.3915581703186035 -2.2895383834838867 7.770155906677246 141 141 141
-0.9837918877601624 2.2400636672973633 8.782880783081055 23 23 23
-0.46243929862976074 -4.059803009033203 7.7451019287109375 56 56 56
-0.6911177635192871 -1.3634198904037476 8.132722854614258 179 179 179
-0.4837871789932251 -3.918654441833496 7.531729221343994 109 109 109
-2.978607177734375 0.06755859404802322 8.034249305725098 71 71 71
-1.816625952720642 -1.3393269777297974 7.979797840118408 122 122 122
-2.9055895805358887 0.6223114132881165 8.120125770568848 241 241 241
-1.1556237936019897 -2.376108407974243 8.012125015258789 39 39 39
-1.4786158800125122 -1.7494263648986816 7.934916019439697 17 17 17
-0.9892244935035706 0.9601151943206787 8.502660751342773 177 177 177
-3.0478734970092773 0.10505185276269913 8.032537460327148 181 181 181
-3.7951977252960205 0.833704948425293 8.002246856689453 139 139 139
-3.811537265777588 0.10893219709396362 7.959333419799805 48 48 48
-0.496459037065506 1.1768279075622559 8.677367210388184 82 82 82
-0.1081034392118454 1.3094488382339478 8.717318534851074 107 107 107
-1.2779844999313354 2.2603018283843994 8.657068252563477 78 78 78
-3.5914692878723145 -1.7141517400741577 7.657761096954346 59 59 59
-3.680302858352661 3.2915003299713135 8.525689125061035 37 37 37
-1.0030603408813477 1.2957212924957275 8.562429428100586 159 159 159
-1.669546365737915 0.9155899286270142 8.460714340209961 38 38 38
-1.0555028915405273 1.2949076890945435 8.496384620666504 110 110 110
-0.9886962175369263 1.0180810689926147 8.545987129211426 28 28 28
-3.5559475421905518 -0.3974893391132355 7.833970069885254 8 8 8
-1.7728476524353027 -1.7976406812667847 7.9068379402160645 25 25 25
-1.3530274629592896 1.3725329637527466 8.478957176208496 169 169 169
-0.34446480870246887 0.9478784203529358 8.653914451599121 91 91 91
-1.1317869424819946 -1.8321110010147095 8.057062149047852 139 139 139
-1.792331576347351 -1.8555701971054077 7.985535621643066 22 22 22
0.6344962120056152 -1.1522246599197388 5.009227752685547 118 118 118
-0.559874415397644 0.31348493695259094 8.513863563537598 47 47 47
-3.423858642578125 3.217557191848755 8.463912010192871 25 25 25
-0.33322277665138245 1.1468583345413208 8.633003234863281 33 33 33
-1.0002192258834839 1.2850219011306763 8.436644554138184 53 53 53
-1.5252546072006226 2.2577552795410156 8.574222564697266 2 2 2
-3.0398447513580322 -1.262587070465088 7.763425827026367 56 56 56
-1.3740562200546265 2.2980570793151855 8.723000526428223 103 103 103
-0.5637257099151611 0.3264046311378479 8.453275680541992 130 130 130
0.42966198921203613 -1.1614882946014404 4.983465194702148 190 190 190
-3.0168981552124023 0.3323480784893036 8.094186782836914 196 196 196
-1.0091317892074585 0.9113206267356873 8.419182777404785 84 84 84
-2.809565782546997 3.260559558868408 8.624338150024414 116 116 116
-3.4238457679748535 3.217548370361328 8.463858604431152 25 25 25
-2.290369749069214 -1.3070452213287354 7.965651512145996 150 150 150
-1.4743512868881226 0.93399578332901 8.47909164428711 20 20 20
-0.4757257401943207 -0.45815509557724 8.380209922790527 65 65 65
-0.4597530663013458 -0.44048693776130676 8.092585563659668 114 114 114
-2.754213809967041 3.2419559955596924 8.598356246948242 29 29 29
-3.014509916305542 -1.241712212562561 7.772148609161377 96 96 96
-3.0143826007843018 -1.2416669130325317 7.771903038024902 96 96 96
-2.321038246154785 -0.4364701509475708 8.083672523498535 14 14 14
-1.0534205436706543 0.43926143646240234 8.411311149597168 9 9 9
-1.7925182580947876 -1.855724811553955 7.986072540283203 22 22 22
-0.5772477984428406 0.4488601088523865 8.563776016235352 52 52 52
-0.29584944248199463 0.4354058504104614 8.47556209564209 32 32 32
-1.805747151374817 -3.674565315246582 7.673774242401123 130 130 130
-1.503346562385559 3.2423081398010254 8.811299324035645 14 14 14
0.46937626600265503 -1.1790505647659302 4.973581314086914 118 118 118
-0.48013728857040405 -1.9188017845153809 8.16612434387207 66 66 66
-0.45550069212913513 0.44071757793426514 8.496374130249023 133 133 133
0.454019159078598 -1.5454747676849365 4.881605625152588 69 69 69
-1.1478447914123535 1.3764045238494873 8.603388786315918 88 88 88
-0.21614913642406464 1.0639574527740479 8.661343574523926 106 106 106
-0.4540659487247467 0.43890681862831116 8.471370697021484 133 133 133
-0.4529981017112732 0.47887611389160156 8.530216217041016 139 139 139
0.44029003381729126 -1.5575634241104126 4.90593147277832 59 59 59
1.015263557434082 1.6904793977737427 5.609240531921387 79 79 79
-3.4572346210479736 1.4550596475601196 8.177006721496582 17 17 17
-1.2271995544433594 -0.8942057490348816 8.206201553344727 33 33 33
-2.247922897338867 2.3153388500213623 8.611564636230469 73 73 73
-0.8798529505729675 2.659909963607788 8.76993179321289 12 12 12
-2.1361303329467773 3.1742234230041504 8.729937553405762 36 36 36
0.4484403729438782 -1.5782359838485718 4.874475002288818 143 143 143
0.4484339654445648 -1.578205943107605 4.8744072914123535 143 143 143
-1.602953314781189 1.3875188827514648 8.482128143310547 80 80 80
-0.5501686930656433 -2.81309175491333 7.976934432983398 42 42 42
-0.4905681908130646 -3.658609390258789 7.804360866546631 95 95 95
-3.478501796722412 -1.2381715774536133 8.010348320007324 122 122 122
-0.18663650751113892 1.833781123161316 6.735926628112793 85 85 85
-0.9990743398666382 1.156051516532898 8.475480079650879 6 6 6
0.523016631603241 -1.5869110822677612 4.869943618774414 149 149 149
0.950889527797699 1.7528066635131836 5.624136447906494 129 129 129
-1.6985914707183838 -0.9206212759017944 8.081475257873535 126 126 126
-1.504929780960083 2.680136203765869 8.702913284301758 31 31 31
-1.2059907913208008 -3.60012149810791 7.75739860534668 150 150 150
-1.2020443677902222 1.4109556674957275 8.409669876098633 91 91 91
-3.756178379058838 1.0346790552139282 8.087360382080078 103 103 103
0.950889527797699 1.752806544303894 5.624136924743652 129 129 129
0.9509554505348206 1.752951741218567 5.624483108520508 145 145 145
-3.756575345993042 1.0348085165023804 8.088234901428223 103 103 103
-2.3116488456726074 -0.8341875076293945 8.00766658782959 38 38 38
-3.461574077606201 1.013731837272644 8.034820556640625 24 24 24
-0.5266796350479126 -3.209474563598633 8.176543235778809 56 56 56
0.9508901834487915 1.7528114318847656 5.624146461486816 129 129 129
-1.7484484910964966 -2.758340358734131 7.77787971496582 37 37 37
-0.4800181984901428 -2.7694849967956543 7.929810523986816 16 16 16
-1.4785646200180054 -1.7493857145309448 7.934658050537109 17 17 17
-1.4661483764648438 1.8692009449005127 8.693652153015137 117 117 117
-2.4900503158569336 -4.082220077514648 7.4433088302612305 108 108 108
-1.269794225692749 1.4938544034957886 8.286812782287598 70 70 70
-3.2975902557373047 -1.1846983432769775 7.688945770263672 131 131 131
-1.3137398958206177 -0.9055061340332031 8.346562385559082 95 95 95
-1.1794350147247314 -2.3103010654449463 7.863445281982422 127 127 127
-3.5835158824920654 -0.5537846088409424 7.823909282684326 92 92 92
-1.4166200160980225 2.0125739574432373 8.30276107788086 133 133 133
-0.8126857876777649 2.0375850200653076 8.602764129638672 53 53 53
0.4296651780605316 -1.1614772081375122 4.983425140380859 190 190 190
-1.0755294561386108 -1.8176857233047485 7.934060573577881 56 56 56
0.46563518047332764 -1.3492541313171387 4.940618515014648 111 111 111
-1.8185051679611206 0.9244437217712402 8.387556076049805 4 4 4
-1.0002048015594482 1.2850221395492554 8.436575889587402 53 53 53
-3.760089874267578 1.4991472959518433 8.064187049865723 129 129 129
-1.7200422286987305 -0.9316757321357727 8.143563270568848 111 111 111
-0.45549026131629944 0.4407115876674652 8.496225357055664 133 133 133
-0.6535273790359497 1.0352808237075806 8.579102516174316 53 53 53
-1.7055031061172485 -0.9382538795471191 8.074177742004395 13 13 13
-1.0089077949523926 1.3041653633117676 8.588805198669434 145 145 145
-1.1992112398147583 1.4092590808868408 8.398897171020508 91 91 91
-3.800961971282959 1.5407241582870483 8.268682479858398 103 103 103
0.6344960927963257 -1.1522347927093506 5.009286403656006 118 118 118
-0.4638400375843048 -0.9827630519866943 8.313597679138184 27 27 27
-0.695937991142273 1.0203098058700562 8.502936363220215 131 131 131
-0.4540688395500183 0.43890810012817383 8.471407890319824 133 133 133
-1.3587207794189453 -4.5763468742370605 7.543521404266357 92 92 92
-1.3587279319763184 -4.576409339904785 7.543595790863037 92 92 92
-2.4083096981048584 -2.0770180225372314 7.770336627960205 150 150 150
-3.4610228538513184 1.01359224319458 8.033662796020508 24 24 24
-0.4554991126060486 0.4407164752483368 8.496345520019531 133 133 133
-3.0192859172821045 -1.7763725519180298 7.691900730133057 29 29 29
-2.7513020038604736 1.5128676891326904 8.054347038269043 13 13 13
0.5458846092224121 1.5430493354797363 5.409784317016602 4 4 4
-0.9890831112861633 1.0173280239105225 8.558834075927734 53 53 53
-1.130004644393921 -4.5004353523254395 7.621620178222656 24 24 24
-1.0106229782104492 0.9672846794128418 8.536527633666992 169 169 169
-0.4319717288017273 0.482359915971756 8.497760772705078 11 11 11
-0.4757094979286194 -0.4581475555896759 8.380059242248535 65 65 65
-0.47572773694992065 -0.458159863948822 8.380229949951172 65 65 65
-1.5383644104003906 1.499935507774353 8.497293472290039 153 153 153
-2.305060863494873 0.497977614402771 8.192066192626953 26 26 26
-0.4215308725833893 -0.03450310230255127 8.413726806640625 102 102 102
-3.743619680404663 1.6267493963241577 8.17708969116211 141 141 141
-2.259589910507202 1.3874859809875488 8.405901908874512 16 16 16
-0.5860002636909485 1.0492428541183472 8.615281105041504 50 50 50
-0.45636874437332153 1.3275797367095947 8.606548309326172 133 133 133
-1.227205753326416 -0.8942217826843262 8.206231117248535 33 33 33
-1.4411394596099854 1.6713552474975586 8.546911239624023 160 160 160
-2.961592674255371 -0.851854145526886 7.892984867095947 92 92 92
-1.3137398958206177 -0.905505359172821 8.346561431884766 95 95 95
-2.3050272464752197 0.4979664087295532 8.191934585571289 26 26 26
-3.481257677078247 2.347209930419922 8.35854434967041 7 7 7
-1.1812211275100708 -4.218264102935791 7.689062595367432 117 117 117
-1.2915937900543213 1.622677206993103 8.485679626464844 113 113 113
-1.1658722162246704 -4.1742024421691895 7.6291890144348145 88 88 88
-1.4397695064544678 1.6704185009002686 8.541935920715332 160 160 160
-2.969644069671631 0.5728089213371277 8.114700317382812 171 171 171
-3.5564539432525635 0.553942084312439 7.9761271476745605 16 16 16
-3.612121343612671 0.1599910408258438 7.970868110656738 146 146 146
-2.9493918418884277 0.583649754524231 8.120418548583984 13 13 13
-1.578381061553955 1.8085072040557861 8.564870834350586 24 24 24
-1.3529995679855347 1.372519612312317 8.478870391845703 169 169 169
-0.5532661080360413 -4.090548515319824 7.739533424377441 15 15 15
-0.5532693266868591 -4.090556621551514 7.739548683166504 15 15 15
-3.569335699081421 -0.36182701587677 7.8943657875061035 37 37 37
-1.2760226726531982 1.3705840110778809 8.532571792602539 121 121 121
0.4296550750732422 -1.161498785018921 4.9834675788879395 190 190 190
-0.7138264179229736 0.9990386962890625 8.6458101272583 123 123 123
-3.477541446685791 -0.7534723877906799 7.6065168380737305 131 131 131
-0.41775718331336975 -0.4279366731643677 8.350266456604004 141 141 141
-1.517797827720642 1.8349403142929077 8.569570541381836 228 228 228
0.562233030796051 -1.2656735181808472 4.977997303009033 176 176 176
-1.1484407186508179 -2.370710849761963 7.884998321533203 134 134 134
-2.4281020164489746 -3.140808343887329 7.4879679679870605 50 50 50
-0.5137855410575867 0.3066922724246979 8.487608909606934 71 71 71
0.4816713035106659 -1.5760221481323242 4.864851951599121 84 84 84
-0.49644899368286133 1.1768213510513306 8.677315711975098 82 82 82
-1.4723443984985352 1.874298334121704 8.715124130249023 117 117 117
-3.750242233276367 1.5903657674789429 8.17143440246582 66 66 66
-0.02436516433954239 1.6244534254074097 7.566170692443848 120 120 120
-3.5713865756988525 3.2848892211914062 8.520027160644531 95 95 95
-1.8065310716629028 -3.6732358932495117 7.675103187561035 124 124 124
-2.2903265953063965 -1.3070194721221924 7.965517997741699 150 150 150
0.5004323720932007 -0.9322782158851624 4.998826026916504 134 134 134
-0.33320415019989014 1.1468446254730225 8.632890701293945 33 33 33
-0.7971944212913513 0.9912933111190796 8.53348445892334 173 173 173
-3.5399222373962402 -0.3945053815841675 7.796520233154297 10 10 10
-2.8850319385528564 1.4667166471481323 8.309281349182129 8 8 8
-2.3155946731567383 0.958401620388031 8.393572807312012 26 26 26
-3.0397846698760986 -1.2625634670257568 7.763278484344482 56 56 56
-0.4905887246131897 -3.6586947441101074 7.804530620574951 95 95 95
-1.7755481004714966 -1.3394438028335571 8.03744888305664 137 137 137
-0.9989804029464722 1.156001091003418 8.47508430480957 6 6 6
-1.0823838710784912 -2.5309560298919678 7.684711456298828 29 29 29
-1.7923312187194824 -1.85556161403656 7.9855265617370605 22 22 22
-1.416654109954834 2.0126101970672607 8.3029146194458 133 133 133
-0.33318376541137695 1.1468327045440674 8.632771492004395 33 33 33
-1.009128451347351 0.9113149046897888 8.41917896270752 84 84 84
-3.471595287322998 2.832362174987793 8.350862503051758 88 88 88
-0.8452672362327576 2.2126340866088867 8.688268661499023 22 22 22
-1.5494657754898071 1.8840941190719604 8.596027374267578 161 161 161
-1.7792383432388306 4.065216064453125 8.862468719482422 109 109 109
-1.710628628730774 0.8996419310569763 8.359786033630371 167 167 167
-1.1694612503051758 -3.261594533920288 7.773992538452148 159 159 159
-0.959405243396759 0.9212620854377747 8.57158088684082 185 185 185
-3.0624618530273438 -3.131943941116333 7.504024982452393 36 36 36
-1.669478178024292 0.9155784249305725 8.460495948791504 38 38 38
-3.5134987831115723 3.7154109477996826 8.52901554107666 116 116 116
-2.2997398376464844 1.8756204843521118 8.479395866394043 121 121 121
0.39748355746269226 -1.2567881345748901 4.92783784866333 160 160 160
-1.47439444065094 0.9340084791183472 8.479323387145996 20 20 20
-3.3584253787994385 -1.3053394556045532 7.73778772354126 89 89 89
-1.0091819763183594 0.9113488793373108 8.419395446777344 84 84 84
-1.58704674243927 1.938662052154541 8.571290016174316 38 38 38
-3.457916259765625 1.4553172588348389 8.178659439086914 17 17 17
-0.9839533567428589 2.2402098178863525 8.78357219696045 23 23 23
-2.2081382274627686 3.6492602825164795 8.781315803527832 38 38 38
