ply
format ascii 1.0
element vertex 715
property float x
property float y
property float z
property uchar red
property uchar green
property uchar blue
end_header
-1.5134519338607788 0.578389585018158 3.4519872665405273 106 106 106
-1.5067028999328613 0.3731462061405182 3.4208550453186035 122 122 122
-1.4703032970428467 -0.6530770063400269 3.3486557006835938 48 48 48
-1.4978681802749634 0.7639639973640442 3.4518144130706787 2 2 2
-1.4934606552124023 0.3870082199573517 3.4242899417877197 51 51 51
-1.4236195087432861 -1.9428143501281738 3.265115976333618 65 65 65
-1.4236195087432861 -1.9428143501281738 3.265115976333618 65 65 65
-1.502388596534729 0.5770248174667358 3.457975387573242 138 138 138
-1.456642508506775 -0.6552377343177795 3.355072259902954 23 23 23
-1.5213624238967896 1.541222095489502 3.5178139209747314 47 47 47
-1.4312344789505005 -0.9042177200317383 3.3308753967285156 69 69 69
-1.4326938390731812 -0.5989384055137634 3.3587381839752197 63 63 63
-1.4618077278137207 0.020916862413287163 3.4244344234466553 60 60 60
-1.437962532043457 -0.26128852367401123 3.3814585208892822 72 72 72
-1.4861249923706055 1.2240580320358276 3.4969215393066406 41 41 41
-1.408287525177002 -0.7585877180099487 3.3539609909057617 65 65 65
-1.4108904600143433 -0.5660855770111084 3.366096019744873 78 78 78
-1.4108904600143433 -0.5660855770111084 3.366096019744873 78 78 78
-1.4440110921859741 0.6984876990318298 3.47666335105896 59 59 59
-1.4301623106002808 0.23987019062042236 3.4512221813201904 48 48 48
-1.4410254955291748 0.2002290040254593 3.485919713973999 36 36 36
-1.3879578113555908 0.19508101046085358 3.3928065299987793 17 17 17
-1.4173775911331177 -0.6123690605163574 3.413299560546875 68 68 68
-1.378814697265625 -0.7966572046279907 3.36161208152771 26 26 26
-1.4314559698104858 0.9372701048851013 3.4915223121643066 45 45 45
-1.3839232921600342 -0.4073185622692108 3.403169870376587 64 64 64
-1.4194459915161133 0.8456707000732422 3.497492790222168 43 43 43
-1.3696296215057373 -0.39371418952941895 3.4098079204559326 58 58 58
-1.3696296215057373 -0.39371418952941895 3.4098079204559326 58 58 58
-1.4240689277648926 0.7214874029159546 3.5136008262634277 43 43 43
-1.4077215194702148 1.0260390043258667 3.517744779586792 43 43 43
-1.4202818870544434 1.5245840549468994 3.5518484115600586 50 50 50
-1.3298345804214478 -0.5551427006721497 3.3557262420654297 72 72 72
-1.421557903289795 1.7996323108673096 3.5805745124816895 39 39 39
-1.3550338745117188 -0.8443917632102966 3.3990941047668457 28 28 28
-1.367536187171936 0.33818525075912476 3.466549873352051 56 56 56
-1.426177978515625 2.399540662765503 3.6255295276641846 74 74 74
-1.3423044681549072 2.0368645191192627 3.44856333732605 45 45 45
-1.3930262327194214 1.5979520082473755 3.5494778156280518 46 46 46
-1.4276024103164673 -1.2502179145812988 3.6873369216918945 77 77 77
-1.3939369916915894 2.0218000411987305 3.6046316623687744 32 32 32
-1.3491902351379395 0.9423709511756897 3.518376111984253 18 18 18
-1.2745003700256348 -1.9185872077941895 3.305068016052246 62 62 62
-1.355234146118164 0.9560604095458984 3.529383659362793 14 14 14
-1.2993574142456055 -1.897051215171814 3.4146053791046143 16 16 16
-1.3962305784225464 2.3771817684173584 3.6590981483459473 42 42 42
-1.3394689559936523 1.0975626707077026 3.5481197834014893 51 51 51
-1.3034573793411255 0.36459770798683167 3.47300386428833 135 135 135
-1.3205853700637817 0.5753920674324036 3.5108251571655273 113 113 113
-1.2761216163635254 -0.43530869483947754 3.443953275680542 103 103 103
-1.2935484647750854 -0.19392968714237213 3.4662487506866455 54 54 54
-1.2845876216888428 -0.8449455499649048 3.456082344055176 109 109 109
-1.3587833642959595 2.3693645000457764 3.6571624279022217 10 10 10
-1.245046854019165 -1.9080766439437866 3.343250036239624 24 24 24
-1.3428305387496948 2.0515081882476807 3.6396970748901367 34 34 34
-1.2887015342712402 0.2878514230251312 3.494523048400879 42 42 42
-1.3215347528457642 1.782436728477478 3.6355111598968506 55 55 55
-1.3422894477844238 2.371137857437134 3.6826117038726807 45 45 45
-1.3158862590789795 1.5777027606964111 3.6243231296539307 77 77 77
-1.270749807357788 0.022077294066548347 3.4945268630981445 52 52 52
-1.2397491931915283 -0.7024637460708618 3.418393611907959 72 72 72
-1.255205512046814 -1.9108155965805054 3.462270498275757 35 35 35
-1.275536298751831 1.5808525085449219 3.5442097187042236 59 59 59
-1.2663179636001587 0.21047043800354004 3.506150245666504 71 71 71
-1.3041813373565674 1.5429946184158325 3.621864080429077 69 69 69
-1.33031165599823 2.3971335887908936 3.6955649852752686 16 16 16
-1.257096529006958 -0.04662388935685158 3.5027194023132324 14 14 14
-1.256536602973938 0.22446826100349426 3.5308656692504883 15 15 15
-1.2996306419372559 2.392195463180542 3.6871328353881836 84 84 84
-1.2841376066207886 1.5940086841583252 3.6119461059570312 37 37 37
-1.281116247177124 1.4517804384231567 3.6146576404571533 39 39 39
-1.2567228078842163 0.7869983911514282 3.554990530014038 49 49 49
-1.2276452779769897 -0.45263153314590454 3.4787330627441406 14 14 14
-1.2350988388061523 0.1672518104314804 3.526686906814575 52 52 52
-1.2133582830429077 -0.6336696147918701 3.469176769256592 2 2 2
-1.2911474704742432 2.2125844955444336 3.677035093307495 41 41 41
-1.205182433128357 -0.8577680587768555 3.4476752281188965 14 14 14
-1.216248631477356 -0.21387451887130737 3.4896392822265625 58 58 58
-1.202242136001587 -1.033858299255371 3.4401652812957764 105 105 105
-1.2451473474502563 1.2082921266555786 3.5954689979553223 42 42 42
-1.2374869585037231 1.131821870803833 3.590472459793091 52 52 52
-1.2415293455123901 1.0609546899795532 3.6025867462158203 45 45 45
-1.2094193696975708 -0.015392251312732697 3.5181617736816406 74 74 74
-1.2359472513198853 1.109086513519287 3.603858232498169 41 41 41
-1.222981333732605 0.9220199584960938 3.580050230026245 61 61 61
-1.1953188180923462 -0.18998779356479645 3.5018575191497803 58 58 58
-1.2356784343719482 -1.9053606986999512 3.6179041862487793 25 25 25
-1.2408469915390015 2.213639736175537 3.700679302215576 37 37 37
-1.1635749340057373 -0.5869580507278442 3.4833853244781494 48 48 48
-1.2179806232452393 1.8160849809646606 3.6834487915039062 36 36 36
-1.2164027690887451 2.207371950149536 3.6815083026885986 34 34 34
-1.1834080219268799 1.429768681526184 3.638976812362671 61 61 61
-1.1533337831497192 1.0860575437545776 3.599125623703003 39 39 39
-1.140885829925537 0.025737537071108818 3.5544931888580322 55 55 55
-1.0930589437484741 -1.89683198928833 3.3911380767822266 35 35 35
-1.1545114517211914 1.283970832824707 3.6206302642822266 41 41 41
-1.0929726362228394 -1.9234174489974976 3.412379503250122 52 52 52
-1.1061468124389648 -0.9912418127059937 3.4742178916931152 45 45 45
-1.158630609512329 0.37310492992401123 3.6250596046447754 50 50 50
-1.1061339378356934 -0.9912389516830444 3.474195957183838 45 45 45
-1.1395624876022339 1.00214684009552 3.6462087631225586 54 54 54
-1.1581934690475464 2.2246992588043213 3.7348926067352295 39 39 39
-1.1238983869552612 1.0180522203445435 3.6374220848083496 42 42 42
-1.0861798524856567 -0.5073152184486389 3.517427444458008 59 59 59
-1.0989124774932861 0.22677530348300934 3.592388391494751 46 46 46
-1.1245427131652832 2.3152873516082764 3.7350592613220215 49 49 49
-1.0792735815048218 -0.2803925573825836 3.5492541790008545 51 51 51
-1.0792509317398071 0.17908145487308502 3.5964279174804688 62 62 62
-1.0695936679840088 -0.2232322096824646 3.566450834274292 96 96 96
-1.0945384502410889 1.2306286096572876 3.678704023361206 46 46 46
-1.1024909019470215 1.5008763074874878 3.707812547683716 42 42 42
-1.088270902633667 1.0000070333480835 3.662933349609375 49 49 49
-1.1114490032196045 2.007389545440674 3.745622396469116 41 41 41
-1.025505781173706 -0.4264834225177765 3.5560410022735596 8 8 8
-1.0717706680297852 1.575111985206604 3.7192840576171875 98 98 98
-1.0518393516540527 1.2135679721832275 3.659055233001709 56 56 56
-1.0296740531921387 -0.20562535524368286 3.5851752758026123 99 99 99
-1.0296740531921387 -0.20562535524368286 3.5851752758026123 99 99 99
-1.0317226648330688 0.22265806794166565 3.6178503036499023 50 50 50
-1.0317226648330688 0.22265806794166565 3.6178503036499023 50 50 50
-1.06376314163208 1.7542623281478882 3.737888813018799 11 11 11
-0.9706717729568481 -1.9348191022872925 3.411938428878784 48 48 48
-1.0415493249893188 0.8546207547187805 3.6605894565582275 47 47 47
-1.0672343969345093 1.985578179359436 3.766568899154663 42 42 42
-1.0670969486236572 2.183567523956299 3.7805697917938232 86 86 86
-1.010807991027832 0.14136317372322083 3.6169559955596924 40 40 40
-1.0466639995574951 1.3507250547409058 3.7170050144195557 12 12 12
-1.0351355075836182 0.952118456363678 3.6807219982147217 12 12 12
-1.002855896949768 -0.475269079208374 3.5688374042510986 57 57 57
-1.0498270988464355 1.7673965692520142 3.7607645988464355 38 38 38
-1.0213876962661743 0.5426531434059143 3.6536879539489746 53 53 53
-1.0213876962661743 0.5426531434059143 3.6536879539489746 53 53 53
-1.0394597053527832 1.3798253536224365 3.7208635807037354 61 61 61
-0.9809718728065491 -1.8598418235778809 3.536849021911621 17 17 17
-1.0041122436523438 0.14948245882987976 3.630368947982788 13 13 13
-1.0498297214508057 1.7674041986465454 3.7607779502868652 38 38 38
-1.0074442625045776 0.5563302040100098 3.6659624576568604 12 12 12
-0.9715856313705444 -0.3969248831272125 3.5831096172332764 76 76 76
-0.9700144529342651 -0.2666879892349243 3.5983450412750244 11 11 11
-0.964977502822876 -0.40533092617988586 3.59430193901062 14 14 14
-1.0055495500564575 1.3473236560821533 3.7665295600891113 43 43 43
-0.9461078643798828 -0.8354224562644958 3.561035633087158 15 15 15
-0.9827017188072205 0.16177546977996826 3.6518120765686035 31 31 31
-0.9641380906105042 0.11332036554813385 3.63369083404541 45 45 45
-0.9793003797531128 1.0773632526397705 3.707571268081665 42 42 42
-0.9598594903945923 0.002110751811414957 3.633859634399414 50 50 50
-0.9651222825050354 0.790558397769928 3.6955974102020264 52 52 52
-0.9421385526657104 -0.056940797716379166 3.628488779067993 53 53 53
-0.9915488958358765 2.3440518379211426 3.822964906692505 49 49 49
-0.893544614315033 -1.8964483737945557 3.4888110160827637 25 25 25
-0.9671951532363892 1.7262712717056274 3.7696096897125244 52 52 52
-0.9130101799964905 -0.9190606474876404 3.562072277069092 59 59 59
-0.8858044147491455 -2.166379928588867 3.48165225982666 27 27 27
-0.992894172668457 2.4284942150115967 3.9023215770721436 94 94 94
-0.9381234049797058 0.5681732892990112 3.7123968601226807 36 36 36
-0.9432177543640137 1.8057191371917725 3.8007094860076904 34 34 34
-0.9293826818466187 1.2184334993362427 3.7530300617218018 33 33 33
-0.8705095052719116 -1.6711987257003784 3.533998966217041 20 20 20
-0.8967997431755066 0.395088791847229 3.6762914657592773 47 47 47
-0.9484981894493103 2.1903440952301025 3.895216226577759 34 34 34
-0.8705056309700012 -1.671183705329895 3.533971071243286 20 20 20
-0.8965654373168945 1.01813805103302 3.743701934814453 46 46 46
-0.8700913786888123 0.9718121290206909 3.7595813274383545 140 140 140
-0.8867133259773254 2.360135078430176 3.84194016456604 84 84 84
-0.8485074043273926 -0.18636663258075714 3.6461005210876465 72 72 72
-0.8145175576210022 -0.5709934830665588 3.6091411113739014 57 57 57
-0.860715925693512 1.4324525594711304 3.7845561504364014 41 41 41
-0.8433688879013062 0.6279881000518799 3.7461600303649902 43 43 43
-0.7920365929603577 -1.6495009660720825 3.525905132293701 18 18 18
-0.7920365929603577 -1.6495009660720825 3.525905132293701 18 18 18
-0.8560768961906433 1.7308801412582397 3.8707637786865234 41 41 41
-0.8275066018104553 0.6729565858840942 3.741528272628784 40 40 40
-0.8154780268669128 0.06038879603147507 3.6902120113372803 38 38 38
-0.8547214269638062 2.3351988792419434 3.8747010231018066 53 53 53
-0.8241795897483826 0.9091503620147705 3.779313802719116 39 39 39
-0.8506243228912354 2.3883533477783203 3.908768892288208 109 109 109
-0.8190118670463562 0.3039826452732086 3.773624897003174 46 46 46
-0.7951189279556274 0.4007650911808014 3.7429091930389404 44 44 44
-0.7802777886390686 -0.19048810005187988 3.6828935146331787 53 53 53
-0.7587960362434387 -1.2839901447296143 3.6124320030212402 67 67 67
-0.8080239295959473 2.155494451522827 3.84633469581604 58 58 58
-0.8095313310623169 1.9650404453277588 3.8769478797912598 83 83 83
-0.7608570456504822 -0.24893580377101898 3.666902780532837 56 56 56
-0.7878141403198242 1.1818878650665283 3.8066964149475098 57 57 57
-0.7877962589263916 1.2131216526031494 3.812509298324585 37 37 37
-0.774431586265564 0.4623711109161377 3.754694700241089 43 43 43
-0.7377462983131409 -1.4217946529388428 3.5939998626708984 80 80 80
-0.7799020409584045 1.5675865411758423 3.861764430999756 94 94 94
-0.746105968952179 -0.44572964310646057 3.6902928352355957 27 27 27
-0.727846086025238 -1.5308494567871094 3.608962297439575 47 47 47
-0.7637223601341248 2.3595056533813477 3.901658773422241 94 94 94
-0.7351384162902832 0.3528096079826355 3.7630653381347656 9 9 9
-0.6996422410011292 -1.8776594400405884 3.591766119003296 7 7 7
-0.721520185470581 -0.4424346685409546 3.704745292663574 12 12 12
-0.6937299370765686 -1.3923466205596924 3.6104366779327393 87 87 87
-0.7046399116516113 -0.34363603591918945 3.7213594913482666 40 40 40
-0.7046399116516113 -0.34363603591918945 3.7213594913482666 40 40 40
-0.7050699591636658 -0.5972986221313477 3.6909074783325195 12 12 12
-0.7315661311149597 2.241809129714966 3.880786895751953 33 33 33
-0.6998308300971985 -0.7027395963668823 3.695361614227295 48 48 48
-0.6915742754936218 -0.39267536997795105 3.6984918117523193 45 45 45
-0.6935279369354248 -0.2721672058105469 3.7151222229003906 60 60 60
-0.7029290795326233 0.5858989953994751 3.790637493133545 45 45 45
-0.6849172711372375 -1.032444953918457 3.660858392715454 106 106 106
-0.6918264627456665 0.9616603255271912 3.830425262451172 2 2 2
-0.6663622260093689 -0.3655736744403839 3.711108684539795 41 41 41
-0.6828880310058594 0.7428600788116455 3.829545736312866 41 41 41
-0.650333821773529 -1.864935278892517 3.6430680751800537 24 24 24
-0.6570523381233215 0.5317838191986084 3.805875301361084 45 45 45
-0.6488309502601624 0.47579148411750793 3.803858995437622 55 55 55
-0.6488309502601624 0.47579148411750793 3.803858995437622 55 55 55
-0.6462811231613159 0.6139469146728516 3.8099334239959717 38 38 38
-0.6515903472900391 0.8438332080841064 3.8516883850097656 40 40 40
-0.6456314325332642 0.7926971316337585 3.839905261993408 72 72 72
-0.6628049612045288 2.4266417026519775 3.975823163986206 41 41 41
-0.6150656342506409 -0.12526574730873108 3.7648239135742188 57 57 57
-0.6354380249977112 0.7361485958099365 3.8511765003204346 42 42 42
-0.6175315976142883 -0.2501840591430664 3.749080181121826 58 58 58
-0.5942310690879822 -2.0517492294311523 3.6124305725097656 18 18 18
-0.6321752667427063 1.919059157371521 3.9218056201934814 54 54 54
-0.6037156581878662 -0.3276163339614868 3.753129243850708 42 42 42
-0.6018275618553162 -0.2733915150165558 3.7518017292022705 39 39 39
-0.5968267321586609 -0.24795344471931458 3.7670042514801025 57 57 57
-0.5892095565795898 -0.6879538893699646 3.719970703125 51 51 51
-0.6026409864425659 0.5969489812850952 3.8160483837127686 39 39 39
-0.6058810949325562 1.0162829160690308 3.8789405822753906 38 38 38
-0.6219925284385681 2.155348300933838 3.9599432945251465 112 112 112
-0.5931735634803772 0.11026113480329514 3.8007843494415283 37 37 37
-0.5838796496391296 -0.5934313535690308 3.7279694080352783 50 50 50
-0.5965216755867004 0.36803585290908813 3.8886899948120117 10 10 10
-0.5730668306350708 -0.24240466952323914 3.784226655960083 48 48 48
-0.6060388684272766 2.3916618824005127 4.021035194396973 14 14 14
-0.5810517072677612 0.9006333947181702 3.8802971839904785 37 37 37
-0.5799679756164551 0.8170017004013062 3.8821308612823486 48 48 48
-0.5773681402206421 0.5474948287010193 3.878048896789551 66 66 66
-0.5693855881690979 0.026307974010705948 3.8419857025146484 39 39 39
-0.5412775278091431 -1.0584050416946411 3.714522123336792 42 42 42
-0.5416845679283142 -0.855188250541687 3.724111318588257 49 49 49
-0.5171546339988708 -1.8632867336273193 3.668170213699341 10 10 10
-0.5506271719932556 1.56448233127594 3.9691154956817627 12 12 12
-0.5526475310325623 1.745747447013855 3.9748823642730713 10 10 10
-0.5377710461616516 2.1652920246124268 4.010699272155762 92 92 92
-0.530806303024292 0.9528734683990479 3.9164040088653564 10 10 10
-0.5037490129470825 -1.8685280084609985 3.6736936569213867 35 35 35
-0.5302742123603821 1.1761969327926636 3.935687303543091 8 8 8
-0.5105512142181396 0.010758944787085056 3.826233148574829 46 46 46
-0.49051520228385925 -0.8069541454315186 3.770761728286743 45 45 45
-0.4862748086452484 0.15770983695983887 3.8493969440460205 11 11 11
-0.5007873773574829 2.0047566890716553 4.001843452453613 41 41 41
-0.4761391282081604 0.3859191834926605 3.8836019039154053 97 97 97
-0.45407813787460327 -0.640795111656189 3.8013293743133545 13 13 13
-0.4606377184391022 0.4534992575645447 3.8850159645080566 38 38 38
-0.4534873068332672 -0.18293656408786774 3.8387932777404785 44 44 44
-0.4334067702293396 -1.7667465209960938 3.7116057872772217 42 42 42
-0.4416419565677643 -0.7929468154907227 3.7946670055389404 15 15 15
-0.44035354256629944 -0.819158136844635 3.79221510887146 30 30 30
-0.4476833939552307 0.2743062376976013 3.887822389602661 41 41 41
-0.4226019084453583 -1.2863527536392212 3.7351644039154053 51 51 51
-0.42361775040626526 -1.0447553396224976 3.7781143188476562 12 12 12
-0.46077069640159607 1.2551159858703613 4.018124103546143 39 39 39
-0.4221470355987549 -0.5357534289360046 3.806209087371826 49 49 49
-0.41241124272346497 -1.453195333480835 3.7531588077545166 11 11 11
-0.4173060953617096 -0.6794819235801697 3.8049025535583496 35 35 35
-0.4493711590766907 2.2124569416046143 4.113577842712402 36 36 36
-0.3845379650592804 -0.8520629405975342 3.808382511138916 40 40 40
-0.3846229314804077 -0.6380128264427185 3.822972536087036 22 22 22
-0.37327319383621216 -1.837709903717041 3.7042343616485596 12 12 12
-0.3816341459751129 -0.3764039874076843 3.836569309234619 56 56 56
-0.3447858989238739 -0.3892689645290375 3.8694164752960205 56 56 56
-0.3290872275829315 -1.1405889987945557 3.8089234828948975 48 48 48
-0.32948583364486694 1.5862271785736084 3.9261066913604736 41 41 41
-0.3267543911933899 1.5813487768173218 3.917865514755249 43 43 43
-0.3316449820995331 2.17535400390625 4.124522686004639 14 14 14
-0.31243300437927246 0.3405987024307251 3.954953670501709 46 46 46
-0.321684330701828 1.9492796659469604 4.102846145629883 14 14 14
-0.28948110342025757 0.9936631321907043 4.025343894958496 10 10 10
-0.2890474200248718 2.133852958679199 4.131359577178955 44 44 44
-0.2693122923374176 -0.36848410964012146 3.8834354877471924 38 38 38
-0.264672189950943 1.2837423086166382 3.976524591445923 37 37 37
-0.2626500129699707 -0.023859631270170212 3.9333207607269287 25 25 25
-0.2626498341560364 -0.023859191685914993 3.933318614959717 25 25 25
-0.25684431195259094 0.990882396697998 4.041215419769287 41 41 41
-0.263756662607193 2.248269557952881 4.161574363708496 37 37 37
-0.2558831572532654 1.0236989259719849 4.035200595855713 37 37 37
-0.2416386902332306 0.5362430214881897 4.00874662399292 48 48 48
-0.23166514933109283 0.17999665439128876 3.9899067878723145 16 16 16
-0.21044903993606567 -1.4468170404434204 3.803614377975464 40 40 40
-0.20937694609165192 -0.4264870882034302 3.929497718811035 14 14 14
-0.2018825113773346 -1.4197453260421753 3.821263313293457 26 26 26
-0.2018825113773346 -1.4197453260421753 3.821263313293457 26 26 26
-0.2035471498966217 -0.07088997960090637 3.962001085281372 40 40 40
-0.19223441183567047 0.6621522903442383 4.024828910827637 53 53 53
-0.20654478669166565 2.3219797611236572 4.1730170249938965 75 75 75
-0.18692967295646667 -0.8242968916893005 3.925292491912842 25 25 25
-0.19389355182647705 2.219407081604004 4.173338413238525 57 57 57
-0.18274782598018646 -0.007434528321027756 3.9539947509765625 19 19 19
-0.1756877899169922 -1.018305778503418 3.9001896381378174 32 32 32
-0.1528555452823639 -0.33884143829345703 3.971713066101074 41 41 41
-0.15058375895023346 -0.5920801162719727 3.9197773933410645 37 37 37
-0.1451335847377777 -1.8469377756118774 3.8394663333892822 11 11 11
-0.15967345237731934 -1.311771035194397 3.9218366146087646 38 38 38
-0.1427200585603714 -0.7981142997741699 3.9199604988098145 27 27 27
-0.15643587708473206 -1.231369972229004 3.900242567062378 52 52 52
-0.14412334561347961 -1.6402642726898193 3.8699405193328857 13 13 13
-0.12046490609645844 0.21392014622688293 4.026883602142334 45 45 45
-0.11588762700557709 1.8361701965332031 4.16857385635376 39 39 39
-0.09687229990959167 -1.8401355743408203 3.8511862754821777 11 11 11
-0.09275564551353455 -0.17237704992294312 4.003757476806641 37 37 37
-0.05948657542467117 -0.009518214501440525 4.073044776916504 35 35 35
-0.05309088155627251 0.9341868758201599 4.12300443649292 47 47 47
-0.024476591497659683 0.0038308941293507814 4.036731719970703 37 37 37
-0.024061212316155434 -0.44797182083129883 4.019205093383789 39 39 39
-0.019516384229063988 0.9398906826972961 4.144779682159424 68 68 68
-0.01050831750035286 0.9684779047966003 4.164198875427246 69 69 69
-0.005471028387546539 0.17667561769485474 4.027030944824219 105 105 105
-0.0041373008862137794 0.013847957365214825 4.060798645019531 52 52 52
0.01190045103430748 -1.1554251909255981 3.8885302543640137 25 25 25
0.0246819369494915 -0.30836907029151917 4.034611701965332 76 76 76
0.04196041822433472 0.15345610678195953 4.110556125640869 46 46 46
0.042985014617443085 -0.629385232925415 4.033129692077637 9 9 9
0.03508351370692253 0.2159002125263214 4.11016845703125 51 51 51
0.054956961423158646 0.26294970512390137 4.119568824768066 22 22 22
0.06820161640644073 0.2584790587425232 4.121276378631592 29 29 29
0.07143118977546692 0.508955180644989 4.135598182678223 55 55 55
0.08861584961414337 1.7670247554779053 4.268894672393799 28 28 28
0.08920978009700775 -1.2148922681808472 3.988942861557007 52 52 52
0.08920978009700775 -1.2148922681808472 3.988942861557007 52 52 52
0.0858665332198143 0.2963741421699524 4.125958442687988 42 42 42
0.09980552643537521 -0.16083268821239471 4.07404899597168 31 31 31
0.13873304426670074 -0.7884448170661926 4.053596019744873 61 61 61
0.18368969857692719 1.7638771533966064 4.327285289764404 7 7 7
0.18854212760925293 1.169526219367981 4.268640518188477 30 30 30
0.19385477900505066 1.3689476251602173 4.287382125854492 3 3 3
0.18754960596561432 0.2499190717935562 4.156320571899414 36 36 36
0.208668053150177 0.49608084559440613 4.22003698348999 35 35 35
0.2168913334608078 1.7750107049942017 4.3168158531188965 41 41 41
0.21713146567344666 0.5747658610343933 4.231583118438721 69 69 69
0.2078620344400406 -0.6032753586769104 4.099576950073242 68 68 68
0.2353564351797104 0.7561759352684021 4.169824600219727 69 69 69
0.24003902077674866 -1.419599175453186 4.035046100616455 21 21 21
0.25053149461746216 1.8394361734390259 4.361533164978027 39 39 39
0.25569838285446167 -0.031859178096055984 4.1826252937316895 9 9 9
0.2686038613319397 -0.05011019483208656 4.190144062042236 75 75 75
0.2672296166419983 -0.4329116940498352 4.138739109039307 38 38 38
0.2759847939014435 -0.02191901206970215 4.198173522949219 29 29 29
0.2759970724582672 -0.021914271637797356 4.198099136352539 29 29 29
0.3167058527469635 -0.9872782826423645 4.03787088394165 33 33 33
0.3246464729309082 1.0903433561325073 4.31908655166626 32 32 32
0.3553127646446228 1.744288682937622 4.391448020935059 2 2 2
0.3450789451599121 1.2884273529052734 4.330740928649902 32 32 32
0.3781939744949341 0.29796063899993896 4.305400371551514 34 34 34
0.38152050971984863 0.49038761854171753 4.240678787231445 32 32 32
0.38029733300209045 -0.6455202102661133 4.166812419891357 45 45 45
0.37395575642585754 -1.6238991022109985 4.081160068511963 15 15 15
0.37395575642585754 -1.6238991022109985 4.081160068511963 15 15 15
0.37475720047950745 -1.8611249923706055 4.074830055236816 31 31 31
0.429123193025589 2.124406337738037 4.45966100692749 75 75 75
0.39337724447250366 -1.8288471698760986 4.0854058265686035 10 10 10
0.4071335196495056 -0.44933950901031494 4.222895622253418 45 45 45
0.4440164268016815 0.40382832288742065 4.311618804931641 38 38 38
0.4528142809867859 0.37193286418914795 4.343487739562988 11 11 11
0.4571496248245239 0.26991960406303406 4.329647064208984 32 32 32
0.4503788650035858 -0.5175164937973022 4.220463752746582 31 31 31
0.46778926253318787 1.1727018356323242 4.40926456451416 111 111 111
0.4964739978313446 0.5592375993728638 4.345714092254639 7 7 7
0.5014059543609619 -0.23918865621089935 4.282900810241699 34 34 34
0.5025844573974609 -0.23723068833351135 4.271477222442627 32 32 32
0.5161901116371155 0.15358956158161163 4.318018436431885 95 95 95
0.5248653888702393 0.45298850536346436 4.35197639465332 37 37 37
0.5138005018234253 -0.8262447714805603 4.219296455383301 19 19 19
0.5490118861198425 0.21340113878250122 4.244549751281738 54 54 54
0.551665186882019 -0.38954269886016846 4.275537967681885 33 33 33
0.5367833375930786 -1.4183008670806885 4.181898593902588 17 17 17
0.5708809494972229 0.0412115603685379 4.340321063995361 31 31 31
0.5744226574897766 -0.6199566721916199 4.2740936279296875 14 14 14
0.5943926572799683 -0.4482707381248474 4.2841010093688965 44 44 44
0.6163841485977173 -0.4934653043746948 4.325686931610107 28 28 28
0.596222460269928 -2.2739062309265137 4.133238315582275 10 10 10
0.6433011293411255 0.28720855712890625 4.384298324584961 32 32 32
0.6416788101196289 0.5469858050346375 4.372420787811279 36 36 36
0.6695649027824402 1.5356236696243286 4.510514259338379 9 9 9
0.6792647838592529 -0.054817065596580505 4.365427017211914 59 59 59
0.712543249130249 0.5815496444702148 4.46159029006958 44 44 44
0.6989675164222717 -1.5791761875152588 4.228994846343994 40 40 40
0.7581436634063721 1.7853611707687378 4.5755486488342285 37 37 37
0.7262925505638123 -0.14673514664173126 4.383976459503174 57 57 57
0.7344624400138855 0.22760584950447083 4.376997470855713 42 42 42
0.7483963966369629 0.3677974343299866 4.447342395782471 8 8 8
0.7189661860466003 -1.519268274307251 4.2722320556640625 26 26 26
0.7770212292671204 1.31330144405365 4.5394511222839355 45 45 45
0.7770078182220459 1.3073662519454956 4.528445243835449 45 45 45
0.7615622878074646 -0.44260257482528687 4.372750282287598 37 37 37
0.7961785793304443 -0.13678237795829773 4.406392574310303 25 25 25
0.806377649307251 -0.234810933470726 4.418698310852051 43 43 43
0.8102470636367798 -1.2067039012908936 4.318589687347412 19 19 19
0.8154800534248352 -0.6459725499153137 4.355266571044922 47 47 47
0.8320639729499817 -0.7049907445907593 4.331297874450684 40 40 40
0.8033348321914673 -1.581275224685669 4.213239669799805 22 22 22
0.8480343818664551 -0.09618567675352097 4.449285984039307 37 37 37
0.8414161205291748 -0.8823426365852356 4.3496222496032715 23 23 23
0.8450322151184082 -1.7703555822372437 4.294728755950928 13 13 13
0.833683967590332 -1.569507360458374 4.195021152496338 19 19 19
0.8831725716590881 -0.6317628026008606 4.414970874786377 39 39 39
0.9258995056152344 1.3320279121398926 4.606298446655273 42 42 42
0.9380436539649963 0.8711763620376587 4.590059280395508 42 42 42
0.896015465259552 -2.3371598720550537 4.204119682312012 10 10 10
0.9898295402526855 0.4152347445487976 4.5683088302612305 8 8 8
0.9875301718711853 -0.0822962075471878 4.508042335510254 38 38 38
0.9925712943077087 -0.23360230028629303 4.5071120262146 40 40 40
1.0045887231826782 -0.008283372037112713 4.5487847328186035 31 31 31
1.0005148649215698 -0.3932555913925171 4.489589214324951 32 32 32
0.9767714738845825 -1.5553756952285767 4.321903228759766 43 43 43
1.0276418924331665 -0.3700087368488312 4.5089898109436035 65 65 65
1.063101887702942 0.3758913576602936 4.646915435791016 10 10 10
1.016111969947815 -1.4136767387390137 4.397172927856445 13 13 13
1.039671778678894 -0.7899519801139832 4.460391998291016 30 30 30
1.0040258169174194 -2.206507921218872 4.298861026763916 27 27 27
1.0921604633331299 1.1079462766647339 4.668667793273926 37 37 37
1.0396666526794434 -0.7899438142776489 4.460370063781738 30 30 30
1.1112797260284424 1.2478114366531372 4.709009170532227 28 28 28
1.049133539199829 -1.6126344203948975 4.404591083526611 12 12 12
1.0701708793640137 -0.702745795249939 4.47562837600708 22 22 22
1.0849831104278564 -0.3247004449367523 4.527569770812988 23 23 23
1.0661710500717163 -1.0101656913757324 4.437586784362793 10 10 10
1.0591652393341064 -1.5723401308059692 4.39916467666626 46 46 46
1.0756300687789917 -0.9165781140327454 4.491161823272705 56 56 56
1.074199914932251 -1.1973681449890137 4.44417142868042 22 22 22
1.0620263814926147 -0.9503893852233887 4.365537643432617 34 34 34
1.1126151084899902 -0.8254428505897522 4.487306118011475 32 32 32
1.2251936197280884 0.6168889403343201 4.651671886444092 29 29 29
1.2358559370040894 0.19231587648391724 4.669430732727051 7 7 7
1.2431985139846802 -0.020572245121002197 4.646815776824951 35 35 35
1.2778531312942505 0.828419029712677 4.733747959136963 28 28 28
1.2649860382080078 0.27066683769226074 4.6786580085754395 41 41 41
1.2431637048721313 -0.020564036443829536 4.646609783172607 35 35 35
1.3373732566833496 0.7913178205490112 4.74403190612793 62 62 62
1.290435552597046 -1.8077768087387085 4.5017571449279785 15 15 15
1.3136056661605835 -0.12156037986278534 4.586272716522217 26 26 26
1.3149160146713257 -1.6388636827468872 4.540140151977539 25 25 25
1.3834866285324097 0.7272113561630249 4.7618231773376465 54 54 54
1.4252656698226929 0.659062922000885 4.742339134216309 29 29 29
1.4452180862426758 0.563735842704773 4.726405143737793 4 4 4
1.4694225788116455 0.34796538949012756 4.75753116607666 43 43 43
1.4898717403411865 0.06854711472988129 4.766793251037598 5 5 5
1.4863595962524414 -0.7654393911361694 4.65892219543457 27 27 27
0.21716272830963135 0.5747541785240173 4.231420040130615 69 69 69
-0.25491878390312195 0.7626831531524658 4.028005599975586 2 2 2
-1.0108439922332764 -0.4340882897377014 3.5574262142181396 47 47 47
-1.1035090684890747 -0.4034443497657776 3.5401973724365234 78 78 78
-1.0334371328353882 -0.421640545129776 3.5464096069335938 120 120 120
-1.0439027547836304 -0.42368820309638977 3.5632214546203613 128 128 128
0.9073128700256348 1.5272117853164673 4.563392162322998 41 41 41
-1.1203745603561401 0.5497158169746399 3.5939748287200928 110 110 110
-0.7263964414596558 -0.22104229032993317 3.7191383838653564 89 89 89
0.6968440413475037 0.9725831747055054 4.489225387573242 69 69 69
-1.4370923042297363 -0.6441338658332825 3.3668298721313477 51 51 51
-0.5506263375282288 1.5644805431365967 3.9691104888916016 12 12 12
-1.2450510263442993 -1.9080791473388672 3.3432552814483643 24 24 24
-0.2237127274274826 -0.43651241064071655 3.9229989051818848 72 72 72
-0.8777485489845276 -1.8870651721954346 3.5136334896087646 35 35 35
-0.048790089786052704 1.7251017093658447 4.208970546722412 100 100 100
-1.4429517984390259 1.5720149278640747 3.5404586791992188 12 12 12
-0.8147366046905518 1.9478563070297241 3.877102851867676 87 87 87
-1.0644733905792236 -0.4378649890422821 3.5397377014160156 25 25 25
-1.0899741649627686 -0.44046342372894287 3.5283586978912354 23 23 23
-1.3895823955535889 -0.42014074325561523 3.3869452476501465 30 30 30
-1.0899710655212402 -0.4404633939266205 3.528353452682495 23 23 23
-1.1516163349151611 0.567584753036499 3.583826780319214 104 104 104
-0.4638954699039459 0.013298413716256618 3.856194496154785 98 98 98
-1.334415078163147 -0.438652366399765 3.4314353466033936 104 104 104
0.1695733666419983 2.174874782562256 4.3713297843933105 8 8 8
-0.21561411023139954 1.41683828830719 4.089483737945557 47 47 47
-0.021060824394226074 0.8432977199554443 4.066526889801025 45 45 45
-0.9521822929382324 -0.6358598470687866 3.5755650997161865 69 69 69
-1.509379267692566 0.5621033906936646 3.445124864578247 111 111 111
-1.3214354515075684 1.7823216915130615 3.6352431774139404 55 55 55
0.29595378041267395 -0.4238331615924835 4.162689685821533 76 76 76
-0.625328540802002 -0.6489028334617615 3.7129735946655273 56 56 56
-1.3343758583068848 -0.43864017724990845 3.431346893310547 104 104 104
0.47775962948799133 0.7778927683830261 4.385122299194336 4 4 4
-1.2119227647781372 1.6211293935775757 3.717177391052246 72 72 72
0.4421471357345581 1.5642025470733643 4.423988342285156 67 67 67
-0.6253500580787659 -0.6489064693450928 3.713017702102661 56 56 56
-1.3123152256011963 0.584398627281189 3.528892993927002 112 112 112
-1.5023938417434692 0.5770246982574463 3.4579825401306152 138 138 138
-0.277948796749115 0.5701929330825806 3.9537692070007324 80 80 80
-0.25665199756622314 0.5679713487625122 3.974652051925659 142 142 142
-0.62408047914505 0.544873833656311 3.812251329421997 10 10 10
0.1788453310728073 1.543042540550232 4.267318248748779 29 29 29
0.5101132392883301 -0.013484657742083073 4.294003009796143 33 33 33
0.21715836226940155 0.574759304523468 4.23145866394043 69 69 69
-0.0064353360794484615 -0.016999829560518265 4.092284202575684 61 61 61
-1.4620695114135742 0.8192337155342102 3.4793994426727295 90 90 90
-1.4443944692611694 0.8202338814735413 3.4813945293426514 69 69 69
-1.171077013015747 -0.013890376314520836 3.535318613052368 131 131 131
-1.241776466369629 -0.033786553889513016 3.528919219970703 110 110 110
-0.20142050087451935 0.9770800471305847 4.100465297698975 104 104 104
0.07090148329734802 0.761164665222168 4.147153854370117 46 46 46
-0.4842638671398163 -0.018020378425717354 3.8534905910491943 31 31 31
0.996295154094696 0.5535547733306885 4.588408946990967 64 64 64
-0.26264506578445435 -0.02385961264371872 3.933300256729126 25 25 25
-1.640116810798645 -1.197015404701233 3.569798469543457 53 53 53
-1.0673542022705078 1.7903757095336914 3.7237603664398193 105 105 105
0.7003429532051086 1.1395174264907837 4.5060601234436035 76 76 76
-1.158484697341919 0.39658159017562866 3.5761077404022217 60 60 60
0.2907170355319977 -0.6039097905158997 4.1545329093933105 33 33 33
-1.337724208831787 -0.034161120653152466 3.4651055335998535 46 46 46
-1.1584850549697876 0.3965829312801361 3.5761101245880127 60 60 60
-1.5067088603973389 0.37314683198928833 3.4208619594573975 122 122 122
-0.7998502254486084 0.9827389717102051 3.8039445877075195 60 60 60
-1.158493161201477 0.39658263325691223 3.5761241912841797 60 60 60
0.5063111186027527 0.37806740403175354 4.348529815673828 7 7 7
-0.7998465895652771 0.9827330708503723 3.803931474685669 60 60 60
-0.6286430358886719 0.1690198928117752 3.7698657512664795 65 65 65
-1.0206952095031738 0.966450035572052 3.704577922821045 85 85 85
-0.9744438529014587 1.7599583864212036 3.7556631565093994 45 45 45
-0.7005811333656311 2.3820645809173584 3.952664852142334 18 18 18
-0.9843320250511169 1.7857924699783325 3.7625417709350586 89 89 89
-0.7322836518287659 0.37290146946907043 3.810603380203247 66 66 66
-1.470906376838684 -0.4195122718811035 3.362039566040039 65 65 65
-1.403988003730774 -0.41955357789993286 3.3780136108398438 8 8 8
-1.4765291213989258 0.8035595417022705 3.4669864177703857 59 59 59
-0.7998633980751038 0.9827452898025513 3.803988218307495 60 60 60
0.01778699830174446 0.37153035402297974 4.116020202636719 27 27 27
0.017786789685487747 0.3715251684188843 4.116001605987549 27 27 27
-0.6419106125831604 0.342393696308136 3.787368059158325 16 16 16
-0.3045791983604431 0.7763162851333618 3.9814870357513428 38 38 38
-0.9411479830741882 -0.19033001363277435 3.6142666339874268 93 93 93
-0.5439404249191284 1.215315341949463 3.934983491897583 7 7 7
-1.5361669063568115 0.9662655591964722 3.472670316696167 64 64 64
0.9864711165428162 0.39361944794654846 4.585277557373047 30 30 30
-1.2999299764633179 0.9982588887214661 3.5704660415649414 117 117 117
-0.028142934665083885 1.1834584474563599 4.199058532714844 35 35 35
-1.0891033411026 2.183323383331299 3.779759645462036 86 86 86
0.7503995299339294 0.35487115383148193 4.460411548614502 8 8 8
0.9666301012039185 0.7732110619544983 4.590426445007324 38 38 38
-0.023140626028180122 0.7625679969787598 4.070876121520996 64 64 64
-1.4028496742248535 -0.4256482422351837 3.41982364654541 33 33 33
0.06149473413825035 -0.7975131869316101 4.019128799438477 59 59 59
1.2464308738708496 0.3792690932750702 4.694025039672852 47 47 47
-1.3477007150650024 -0.42498499155044556 3.4159860610961914 18 18 18
1.2389782667160034 0.3540973365306854 4.678304672241211 60 60 60
0.4245361089706421 1.7222049236297607 4.414147853851318 50 50 50
-0.9910576343536377 -0.830517053604126 3.520810604095459 46 46 46
-1.0811847448349 1.187606930732727 3.6710293292999268 96 96 96
-0.692061722278595 0.18652202188968658 3.7698636054992676 6 6 6
-0.9735714197158813 -0.43123677372932434 3.6383821964263916 78 78 78
-1.4108567237854004 0.1734304279088974 3.44614839553833 118 118 118
-0.4100497364997864 -0.8251016139984131 3.817957878112793 42 42 42
-1.4778127670288086 -0.6436985731124878 3.34259295463562 48 48 48
-1.2512496709823608 -0.834646463394165 3.4102115631103516 110 110 110
-1.2498096227645874 0.2300967425107956 3.5234837532043457 110 110 110
-0.6652693748474121 0.19417735934257507 3.7842965126037598 15 15 15
-1.4821141958236694 -0.25659894943237305 3.3816492557525635 101 101 101
-1.2400459051132202 -0.8988889455795288 3.4382474422454834 52 52 52
-1.240104079246521 -0.8989132642745972 3.438424825668335 52 52 52
-1.379501461982727 0.1833135038614273 3.4621875286102295 4 4 4
-1.1883270740509033 -0.8942731618881226 3.445056200027466 2 2 2
-1.3375444412231445 0.18604108691215515 3.472554922103882 113 113 113
-1.1883280277252197 -0.8942739963531494 3.445059061050415 2 2 2
-1.4810760021209717 0.20359879732131958 3.388857841491699 28 28 28
-1.3364202976226807 0.19477957487106323 3.4837608337402344 116 116 116
-1.369476079940796 -0.3936965763568878 3.409608840942383 58 58 58
-1.4810490608215332 0.20359854400157928 3.388824939727783 28 28 28
-0.8355055451393127 2.1894850730895996 3.9007256031036377 18 18 18
-1.4809893369674683 0.20296159386634827 3.3885819911956787 28 28 28
-1.4090949296951294 0.19862891733646393 3.444586992263794 39 39 39
-1.3796918392181396 0.19955158233642578 3.4626591205596924 12 12 12
-0.5410261750221252 1.3477951288223267 3.8919825553894043 29 29 29
-1.2879271507263184 -0.8406045436859131 3.4200196266174316 119 119 119
-1.3674722909927368 0.18571880459785461 3.449319839477539 45 45 45
0.22031204402446747 0.7753075957298279 4.267752170562744 95 95 95
-1.488438367843628 -0.25635045766830444 3.378014326095581 109 109 109
-1.450859785079956 0.18162289261817932 3.4138240814208984 14 14 14
-0.7970679998397827 0.19192259013652802 3.7213051319122314 64 64 64
-0.4416641891002655 -0.7929818630218506 3.794855833053589 15 15 15
0.44896581768989563 1.3366807699203491 4.386452674865723 51 51 51
-0.6013920903205872 0.1961831897497177 3.810675621032715 123 123 123
-0.5684396028518677 0.19449535012245178 3.8098862171173096 107 107 107
-0.861233115196228 -1.0406631231307983 3.602288007736206 14 14 14
-0.8532631397247314 -1.0309851169586182 3.556504487991333 31 31 31
-0.6419110894203186 0.3423944115638733 3.7873780727386475 16 16 16
-1.3163796663284302 1.9777048826217651 3.65686297416687 19 19 19
-0.5852622985839844 0.18788215517997742 3.822023630142212 126 126 126
-1.4046494960784912 0.1702452152967453 3.4379098415374756 141 141 141
-0.655625581741333 -1.441306710243225 3.642179012298584 76 76 76
-1.0400420427322388 1.179594874382019 3.7037227153778076 49 49 49
-0.6014421582221985 0.1831861138343811 3.810563802719116 24 24 24
-1.005516529083252 0.16685909032821655 3.619584798812866 75 75 75
-1.5078706741333008 0.16365104913711548 3.4313859939575195 83 83 83
-1.509371042251587 0.5620908141136169 3.445108652114868 111 111 111
-1.2020487785339355 -0.26373690366744995 3.504828453063965 101 101 101
-1.472733974456787 -0.24313531816005707 3.3888795375823975 110 110 110
-0.8700805306434631 0.9718091487884521 3.7595956325531006 140 140 140
-0.4855375289916992 0.1756591945886612 3.879302978515625 116 116 116
-0.982703447341919 0.16177476942539215 3.651817798614502 31 31 31
-1.2773544788360596 1.1368558406829834 3.5853676795959473 103 103 103
-0.5688527822494507 0.17163309454917908 3.8253707885742188 24 24 24
-1.0799518823623657 -0.4389130175113678 3.5128111839294434 21 21 21
-0.5377673506736755 2.165282726287842 4.010685920715332 92 92 92
-0.44037875533103943 -0.8191801905632019 3.792322874069214 30 30 30
-1.0082507133483887 -0.19463539123535156 3.575734853744507 33 33 33
-0.4416632652282715 -0.7929823398590088 3.794853448867798 15 15 15
-0.23573939502239227 -0.2089284062385559 3.9534552097320557 4 4 4
-0.45652011036872864 0.1518079787492752 3.8701610565185547 57 57 57
-0.8593940138816833 1.9705570936203003 3.847343921661377 128 128 128
-0.9487021565437317 -0.4181917607784271 3.603301525115967 21 21 21
-0.9411805272102356 -0.19032904505729675 3.614320755004883 93 93 93
-0.9791300892829895 0.13421572744846344 3.632309913635254 10 10 10
0.011128432117402554 0.14597395062446594 4.024431228637695 24 24 24
0.1920028030872345 -0.21158640086650848 4.1216654777526855 2 2 2
0.18917223811149597 1.1732945442199707 4.281900882720947 37 37 37
-0.9187660813331604 -0.8529875874519348 3.5952510833740234 45 45 45
-0.6655370593070984 1.5862410068511963 3.9262900352478027 1 1 1
0.32215505838394165 -1.0060349702835083 4.10451078414917 15 15 15
-0.80308598279953 1.1476846933364868 3.8069262504577637 56 56 56
-0.4180529713630676 -0.6229320168495178 3.8214170932769775 6 6 6
-1.1813675165176392 -0.19249244034290314 3.5188724994659424 108 108 108
-0.749550998210907 -0.04392101243138313 3.70426082611084 73 73 73
1.197567105293274 0.7422933578491211 4.703710556030273 11 11 11
-0.1399850994348526 -0.814551591873169 3.9102861881256104 31 31 31
0.9835793375968933 0.5479510426521301 4.578390121459961 8 8 8
-0.6842456459999084 -1.2608219385147095 3.6205861568450928 34 34 34
-0.3027869164943695 -0.4136132597923279 3.8890058994293213 47 47 47
-1.4852267503738403 1.6156975030899048 3.561950922012329 43 43 43
0.4512343406677246 1.533402681350708 4.344298839569092 42 42 42
0.1973971575498581 -0.8055670857429504 4.093031883239746 30 30 30
-0.43906429409980774 -0.6519971489906311 3.7587618827819824 42 42 42
-1.2293415069580078 0.40463563799858093 3.5396761894226074 63 63 63
0.3201790750026703 0.8113526701927185 4.31448221206665 10 10 10
-0.5432276129722595 -1.036188006401062 3.738365650177002 51 51 51
-0.248113751411438 1.376859426498413 4.128859519958496 76 76 76
-0.6192757487297058 0.2542448043823242 3.801544666290283 67 67 67
-1.3026158809661865 0.8298379182815552 3.541701078414917 57 57 57
-1.18136465549469 -0.19249382615089417 3.5188658237457275 108 108 108
-0.6441105008125305 0.18860918283462524 3.799957752227783 71 71 71
-0.6506534218788147 1.5701349973678589 3.8929030895233154 2 2 2
-1.2785671949386597 -0.41505566239356995 3.438103675842285 108 108 108
-1.3101497888565063 0.41951361298561096 3.49731707572937 90 90 90
-0.39442873001098633 0.15161073207855225 3.8726806640625 45 45 45
-0.7021529674530029 0.3870573937892914 3.7765486240386963 101 101 101
-1.1516270637512207 0.5675871968269348 3.5838565826416016 104 104 104
-0.8777485489845276 -1.8870646953582764 3.5136332511901855 35 35 35
-1.4620615243911743 0.8192281126976013 3.4793803691864014 90 90 90
-0.6060238480567932 2.3915960788726807 4.020948886871338 14 14 14
-1.5360437631607056 0.9663276076316833 3.4725325107574463 64 64 64
-1.0108463764190674 -0.4340863823890686 3.5574300289154053 47 47 47
-1.089084506034851 2.1832942962646484 3.7797107696533203 86 86 86
-1.066599726676941 2.1645796298980713 3.776282548904419 33 33 33
-1.489672064781189 -0.2571760416030884 3.385615348815918 115 115 115
-1.5682830810546875 1.9750194549560547 3.5055770874023438 9 9 9
-0.8355059623718262 2.189486265182495 3.900726556777954 18 18 18
-1.4726141691207886 -0.24311766028404236 3.388733386993408 110 110 110
-1.0269678831100464 -0.4203908145427704 3.5643091201782227 112 112 112
-0.5377674102783203 2.165278673171997 4.010675430297852 92 92 92
-1.0899739265441895 -0.4404642581939697 3.5283586978912354 23 23 23
-1.036051869392395 -0.42204660177230835 3.5496411323547363 113 113 113
-1.0483598709106445 -0.42012515664100647 3.5461604595184326 14 14 14
-1.0899689197540283 -0.44046252965927124 3.528346300125122 23 23 23
-0.5688267946243286 0.17162568867206573 3.8252902030944824 24 24 24
-1.2084367275238037 -0.44214898347854614 3.497041940689087 36 36 36
-0.22786104679107666 0.17572809755802155 3.922999858856201 40 40 40
-0.4855610430240631 0.17566776275634766 3.8793606758117676 116 116 116
-0.7632890343666077 0.7445117235183716 3.7828054428100586 67 67 67
0.0404580682516098 -0.2337084710597992 4.044829368591309 39 39 39
-0.23201850056648254 0.17969733476638794 3.9953997135162354 16 16 16
-1.3343651294708252 -0.4386410415172577 3.4313313961029053 104 104 104
-1.0082576274871826 -0.19463792443275452 3.5757546424865723 33 33 33
-0.40046820044517517 -1.2229920625686646 3.7558326721191406 73 73 73
-0.7402068376541138 -0.42198464274406433 3.6843698024749756 50 50 50
-1.2133445739746094 -0.6336660385131836 3.4691431522369385 2 2 2
-1.4706611633300781 -0.2718868851661682 3.371142864227295 116 116 116
-1.467221975326538 -0.25678732991218567 3.3632652759552 58 58 58
0.06149600073695183 -0.7975119948387146 4.019123554229736 59 59 59
0.013708665035665035 0.45176202058792114 4.191566467285156 9 9 9
-0.4100472927093506 -0.8250975608825684 3.817951202392578 42 42 42
-0.40304383635520935 -0.8118540048599243 3.753194570541382 71 71 71
-1.1584913730621338 0.39658334851264954 3.5761194229125977 60 60 60
-0.2357403039932251 -0.20892028510570526 3.953458786010742 4 4 4
0.6769496202468872 1.904732584953308 4.518455982208252 33 33 33
-1.158488154411316 0.39658311009407043 3.576115131378174 60 60 60
0.7709134817123413 -0.0247606560587883 4.5046210289001465 36 36 36
0.4742008447647095 1.3356441259384155 4.415281295776367 41 41 41
-0.46425530314445496 0.012000694870948792 3.8589365482330322 96 96 96
-0.7991164326667786 1.538206934928894 3.850815534591675 76 76 76
-1.4980297088623047 0.048307254910469055 3.3966054916381836 131 131 131
-1.2460428476333618 -0.05569625273346901 3.5030343532562256 92 92 92
-1.3804889917373657 -0.4363056719303131 3.417534589767456 30 30 30
-0.22829502820968628 -0.04867785796523094 3.969787836074829 101 101 101
0.5057099461555481 0.5453982949256897 4.325599670410156 47 47 47
-1.2417771816253662 -0.03378930687904358 3.528920888900757 110 110 110
-1.3127199411392212 1.3670737743377686 3.5877907276153564 71 71 71
0.2133011817932129 0.5641207098960876 4.157860279083252 95 95 95
-1.367380976676941 0.1856909692287445 3.4491472244262695 45 45 45
1.1844712495803833 0.9669861793518066 4.704416751861572 10 10 10
-0.2877657115459442 0.9775002002716064 4.036345481872559 8 8 8
-0.005177023820579052 -0.01636926271021366 4.087245464324951 61 61 61
-0.693720281124115 -0.8339799642562866 3.676677942276001 103 103 103
0.5101131200790405 -0.013490975834429264 4.294045448303223 33 33 33
-0.4403668940067291 -0.8191786408424377 3.7922561168670654 30 30 30
-1.5333225727081299 0.7700372934341431 3.4507317543029785 38 38 38
-0.2857208549976349 0.586404025554657 4.064762592315674 100 100 100
-0.44166404008865356 -0.7929813861846924 3.794853925704956 15 15 15
-0.6240715384483337 0.5448647141456604 3.812229871749878 10 10 10
-1.3039891719818115 0.9913154244422913 3.5628628730773926 9 9 9
-0.9827019572257996 0.161775603890419 3.6518125534057617 31 31 31
-0.9854001402854919 0.13177229464054108 3.6324899196624756 105 105 105
-1.287604570388794 1.1630698442459106 3.594637632369995 2 2 2
-1.4091073274612427 0.19862912595272064 3.4445886611938477 39 39 39
0.45000484585762024 1.3341554403305054 4.377710819244385 48 48 48
-1.3871361017227173 0.20307251811027527 3.4701809883117676 10 10 10
-1.1879886388778687 0.7628830671310425 3.565013885498047 65 65 65
-1.4980508089065552 0.04830668866634369 3.3966314792633057 60 60 60
-0.5155869722366333 0.76859050989151 3.9059741497039795 17 17 17
-0.21689002215862274 -0.44642889499664307 3.9895365238189697 35 35 35
