ply
format ascii 1.0
element vertex 722
property float x
property float y
property float z
property uchar red
property uchar green
property uchar blue
end_header
-2.342221975326538 -2.967052698135376 5.516851425170898 43 43 43
-2.2642884254455566 -2.8596596717834473 5.382143974304199 85 85 85
-2.2676684856414795 -2.866297483444214 5.430492401123047 60 60 60
-2.4443414211273193 -1.9321324825286865 5.921618461608887 42 42 42
-2.265995740890503 -2.0006086826324463 5.467710494995117 34 34 34
-2.2486507892608643 -2.875551223754883 5.429843425750732 95 95 95
-2.3794503211975098 -2.0364058017730713 5.765700340270996 47 47 47
-2.2427728176116943 -2.861741065979004 5.448073863983154 90 90 90
-2.4305660724639893 -1.7175034284591675 5.918912887573242 164 164 164
-2.5113003253936768 1.1131058931350708 6.147431373596191 100 100 100
-2.406074047088623 -1.7947301864624023 5.906505584716797 53 53 53
-2.2154698371887207 -2.2482993602752686 5.47798490524292 135 135 135
-2.306473731994629 -2.0015056133270264 5.74284553527832 41 41 41
-2.3541417121887207 -1.9436336755752563 5.877561569213867 56 56 56
-2.4152235984802246 1.5478311777114868 6.05413293838501 120 120 120
-2.422178268432617 1.4221125841140747 6.047011375427246 104 104 104
-2.103924512863159 -2.014360189437866 5.356292247772217 121 121 121
-2.3793752193450928 0.7355852723121643 6.0616536140441895 109 109 109
-2.3793752193450928 0.7355852723121643 6.0616536140441895 109 109 109
-2.2987821102142334 -1.8498246669769287 5.880843162536621 41 41 41
-2.297626495361328 -1.7875351905822754 5.886509895324707 159 159 159
-2.297626495361328 -1.7875351905822754 5.886509895324707 159 159 159
-2.384667158126831 1.89680016040802 6.125849723815918 96 96 96
-2.34965443611145 2.18282413482666 6.054322242736816 96 96 96
-2.1594114303588867 -1.9278619289398193 5.673109531402588 40 40 40
-2.2666869163513184 -1.8965591192245483 5.912361145019531 34 34 34
-2.2603585720062256 -1.584021806716919 5.9542083740234375 148 148 148
-2.273813009262085 -1.3016453981399536 5.991215229034424 155 155 155
-2.299771547317505 2.8287484645843506 6.06882905960083 94 94 94
-2.276876449584961 -1.0618449449539185 6.021653652191162 151 151 151
-2.240473985671997 -1.5227606296539307 5.950866222381592 150 150 150
-2.2326443195343018 -1.8197355270385742 5.93023681640625 127 127 127
-2.2263243198394775 -1.8455150127410889 5.912003517150879 119 119 119
-2.124999523162842 -0.1365867704153061 5.739925861358643 82 82 82
-2.112614631652832 -2.264313220977783 5.653228282928467 90 90 90
-2.2901062965393066 0.9520794749259949 6.157627582550049 115 115 115
-2.258077383041382 2.937763214111328 6.072645664215088 87 87 87
-2.2463417053222656 -1.0889842510223389 6.020963191986084 108 108 108
-2.2463440895080566 -1.0889850854873657 6.020968914031982 108 108 108
-2.176532745361328 -0.5357140302658081 5.867076396942139 104 104 104
-2.0840907096862793 -2.436574697494507 5.633279800415039 117 117 117
-2.109818935394287 -2.9141476154327393 5.7279510498046875 62 62 62
-2.2813892364501953 -0.14875681698322296 6.159674167633057 14 14 14
-2.10404109954834 -2.941107988357544 5.699822902679443 78 78 78
-2.2411551475524902 -0.5606217384338379 6.082566738128662 91 91 91
-2.2556748390197754 0.1256590038537979 6.1275410652160645 72 72 72
-2.216418504714966 -2.143388509750366 5.992763042449951 97 97 97
-2.07130765914917 -2.379401445388794 5.634137153625488 118 118 118
-2.208752393722534 -0.9941480159759521 6.019730091094971 90 90 90
-2.2566637992858887 2.0113561153411865 6.1555304527282715 84 84 84
-2.225874423980713 -0.28202924132347107 6.082520008087158 84 84 84
-2.2140276432037354 0.1559857577085495 6.086766242980957 97 97 97
-2.258274793624878 1.2315454483032227 6.153055667877197 89 89 89
-2.2414393424987793 3.2602810859680176 6.185130596160889 58 58 58
-2.2414145469665527 3.2602381706237793 6.185068130493164 58 58 58
-2.064507246017456 -2.042339563369751 5.658327102661133 123 123 123
-2.15923810005188 -1.8858073949813843 5.919496059417725 103 103 103
-2.1278488636016846 -2.0262343883514404 5.85804557800293 34 34 34
-2.1688411235809326 -1.5810719728469849 6.002768039703369 98 98 98
-2.2582809925079346 3.089586019515991 6.203812599182129 69 69 69
-2.2285099029541016 1.4974592924118042 6.157864093780518 57 57 57
-2.2160205841064453 0.6336700916290283 6.130104064941406 55 55 55
-2.201287269592285 1.4996588230133057 6.107497692108154 58 58 58
-2.2661242485046387 2.86987566947937 6.233116149902344 76 76 76
-2.141427993774414 -0.8845459818840027 5.954320430755615 82 82 82
-2.2044265270233154 2.006227493286133 6.1332478523254395 59 59 59
-2.2054202556610107 1.7729072570800781 6.144676208496094 63 63 63
-2.167354106903076 1.1645041704177856 6.04348087310791 58 58 58
-2.055776596069336 -3.0893290042877197 5.749322891235352 68 68 68
-2.1571457386016846 -0.16751590371131897 6.041981220245361 58 58 58
-2.1626172065734863 0.0440683513879776 6.055214881896973 54 54 54
-2.1619114875793457 2.595691680908203 6.127580165863037 34 34 34
-2.056422472000122 -3.0441081523895264 5.82770299911499 72 72 72
-1.9553297758102417 -1.1435869932174683 5.628098011016846 89 89 89
-1.9425923824310303 -2.2839932441711426 5.580018043518066 104 104 104
-2.0398340225219727 -3.1907637119293213 5.826053142547607 66 66 66
-1.940699815750122 -0.9581632018089294 5.604022979736328 99 99 99
-2.029860019683838 -1.7952308654785156 5.83003568649292 40 40 40
-2.033487558364868 -0.5662782788276672 5.846434593200684 77 77 77
-2.0353429317474365 -0.5174134969711304 5.896682262420654 90 90 90
-2.0289554595947266 -1.3237870931625366 5.851175785064697 38 38 38
-2.0289554595947266 -1.3237870931625366 5.851175785064697 38 38 38
-2.1154096126556396 2.8487355709075928 6.11893367767334 25 25 25
-2.0129597187042236 -1.9683476686477661 5.832708358764648 130 130 130
-1.9981454610824585 -2.0247905254364014 5.8648247718811035 129 129 129
-2.1003201007843018 3.0717074871063232 6.115760803222656 45 45 45
-2.024996757507324 -1.2966386079788208 5.893433570861816 113 113 113
-2.0404555797576904 -0.3470929265022278 5.955853462219238 44 44 44
-2.010315179824829 -2.1031768321990967 5.879210472106934 123 123 123
-2.053497076034546 1.2630938291549683 6.012974262237549 52 52 52
-1.9153366088867188 -1.046958327293396 5.678531169891357 32 32 32
-1.9521764516830444 -1.870179533958435 5.724224090576172 128 128 128
-2.0386011600494385 1.4940141439437866 5.991479873657227 47 47 47
-2.022307872772217 0.25194814801216125 5.949796199798584 85 85 85
-2.0284957885742188 0.7786076664924622 5.982267379760742 89 89 89
-2.0208890438079834 0.6072783470153809 5.95393705368042 76 76 76
-2.045091152191162 2.7028391361236572 6.073446750640869 60 60 60
-2.01652455329895 2.044736862182617 5.9990668296813965 53 53 53
-2.000807285308838 1.1463565826416016 5.955530166625977 93 93 93
-2.01222825050354 -0.3183046281337738 6.012495040893555 88 88 88
-2.01222825050354 -0.3183046281337738 6.012495040893555 88 88 88
-2.016650438308716 3.269420862197876 6.0431809425354 32 32 32
-2.016650438308716 3.269420862197876 6.0431809425354 32 32 32
-2.021679639816284 0.5756860971450806 6.045922756195068 69 69 69
-2.0169591903686523 1.8819465637207031 6.048642158508301 66 66 66
-2.0046517848968506 1.770811676979065 6.0372700691223145 75 75 75
-2.0077388286590576 1.757211446762085 6.053922176361084 75 75 75
-1.991541862487793 1.9436793327331543 6.039467811584473 54 54 54
-2.0385727882385254 2.74645733833313 6.137272357940674 51 51 51
-1.970266342163086 -2.5509836673736572 5.9957990646362305 94 94 94
-2.0054001808166504 3.088153123855591 6.112401008605957 54 54 54
-2.013244390487671 0.3609333038330078 6.150460720062256 76 76 76
-1.9542970657348633 -3.191239356994629 5.968656063079834 60 60 60
-1.9843533039093018 0.8443166613578796 6.110013961791992 16 16 16
-1.9843533039093018 0.8443166613578796 6.110013961791992 16 16 16
-1.975002408027649 1.1286664009094238 6.104211807250977 65 65 65
-1.9577620029449463 0.7582168579101562 6.095304012298584 115 115 115
-1.893734097480774 -2.190269708633423 5.957545280456543 104 104 104
-1.9483146667480469 2.5235345363616943 6.134715557098389 60 60 60
-1.9502921104431152 0.6188753247261047 6.14509391784668 66 66 66
-1.8692563772201538 -2.2496695518493652 5.983185291290283 117 117 117
-1.9376410245895386 0.915103018283844 6.237188339233398 76 76 76
-1.9083198308944702 0.3410632014274597 6.142086982727051 73 73 73
-1.9055825471878052 -1.346530556678772 6.156043529510498 37 37 37
-1.9055825471878052 -1.346530556678772 6.156043529510498 37 37 37
-1.8761577606201172 -1.8101646900177002 6.1168742179870605 144 144 144
-1.8761577606201172 -1.8101646900177002 6.1168742179870605 144 144 144
-1.916098713874817 0.7160994410514832 6.223056793212891 83 83 83
-1.7322680950164795 -2.4869163036346436 5.691534519195557 35 35 35
-1.884656310081482 -0.40636828541755676 6.224298000335693 80 80 80
-1.8713301420211792 -1.3198925256729126 6.152961254119873 140 140 140
-1.879395604133606 -1.8136979341506958 6.127763271331787 144 144 144
-1.879395604133606 -1.8136979341506958 6.127763271331787 144 144 144
-1.8725656270980835 -0.6101285219192505 6.1713995933532715 106 106 106
-1.8725656270980835 -0.6101285219192505 6.1713995933532715 106 106 106
-1.899087905883789 3.0915310382843018 6.227691650390625 17 17 17
-1.8528478145599365 -1.4768753051757812 6.112732410430908 125 125 125
-1.8679630756378174 -2.354714870452881 6.175719738006592 129 129 129
-1.8731839656829834 0.2999148666858673 6.228292465209961 19 19 19
-1.8325663805007935 1.2698150873184204 6.125257968902588 61 61 61
-1.8690605163574219 -0.871032178401947 6.248346328735352 33 33 33
-1.8748270273208618 1.2430949211120605 6.298294544219971 28 28 28
-1.855039119720459 -0.4053433835506439 6.227383613586426 29 29 29
-1.9000579118728638 0.9965907335281372 6.365353107452393 86 86 86
-1.9000579118728638 0.9965907335281372 6.365353107452393 86 86 86
-1.8756520748138428 1.4531776905059814 6.326642990112305 153 153 153
-1.8473960161209106 -0.3585897982120514 6.233209133148193 139 139 139
-1.8590219020843506 0.005765011999756098 6.310696601867676 77 77 77
-1.8386858701705933 0.6043393611907959 6.259660720825195 68 68 68
-1.8601304292678833 3.3281309604644775 6.362143039703369 52 52 52
-1.7992658615112305 -1.4347182512283325 6.196767330169678 114 114 114
-1.8542717695236206 -0.0621057003736496 6.349313735961914 80 80 80
-1.8464545011520386 1.2942992448806763 6.489165782928467 69 69 69
-1.748597264289856 -2.1286556720733643 6.188208103179932 120 120 120
-1.7724436521530151 -0.015040908940136433 6.300189971923828 75 75 75
-1.7680965662002563 0.3744894862174988 6.337491035461426 73 73 73
-1.8570879697799683 -1.555580973625183 6.7227654457092285 115 115 115
-1.7804111242294312 0.5948091149330139 6.4449005126953125 91 91 91
-1.7506102323532104 -2.2716381549835205 6.351902484893799 108 108 108
-1.7200307846069336 -2.651561737060547 6.248626232147217 34 34 34
-1.7694063186645508 -1.2309207916259766 6.43140172958374 107 107 107
-1.7721539735794067 -2.7247536182403564 6.456583023071289 68 68 68
-1.7677322626113892 -0.3322417736053467 6.4335713386535645 83 83 83
-1.7143709659576416 -2.645249843597412 6.282412528991699 65 65 65
-1.7698793411254883 3.06321120262146 6.413669109344482 26 26 26
-1.7082186937332153 -2.0093863010406494 6.237905502319336 33 33 33
-1.787795901298523 1.1643092632293701 6.5449042320251465 58 58 58
-1.787795901298523 1.1643092632293701 6.5449042320251465 58 58 58
-1.750779390335083 -0.7631430625915527 6.41379451751709 106 106 106
-1.750779390335083 -0.7631430625915527 6.41379451751709 106 106 106
-1.7513905763626099 -0.010271547362208366 6.440903186798096 128 128 128
-1.6692475080490112 -1.5309802293777466 6.203295707702637 22 22 22
-1.7389321327209473 -1.2963275909423828 6.424006462097168 87 87 87
-1.7325750589370728 0.18988540768623352 6.464544296264648 73 73 73
-1.686804175376892 -0.6308812499046326 6.36845588684082 110 110 110
-1.686804175376892 -0.6308812499046326 6.36845588684082 110 110 110
-1.7760165929794312 1.0994131565093994 6.68886137008667 59 59 59
-1.7018938064575195 -0.4032957851886749 6.440104007720947 44 44 44
-1.7248822450637817 0.45770853757858276 6.5177741050720215 68 68 68
-1.7134793996810913 -1.1392158269882202 6.52471399307251 18 18 18
-1.7410025596618652 0.4664649963378906 6.63949728012085 72 72 72
-1.7007431983947754 0.5117722749710083 6.498598098754883 14 14 14
-1.7007431983947754 0.5117722749710083 6.498598098754883 14 14 14
-1.717138409614563 0.9950156211853027 6.594310283660889 6 6 6
-1.7000783681869507 -0.2686764895915985 6.500932216644287 76 76 76
-1.657515048980713 -2.5486178398132324 6.34233283996582 87 87 87
-1.7062404155731201 2.1557276248931885 6.584537982940674 53 53 53
-1.7035090923309326 1.9167405366897583 6.608705520629883 8 8 8
-1.6252374649047852 1.888477087020874 6.377181529998779 64 64 64
-1.6884963512420654 1.9692898988723755 6.64193868637085 107 107 107
-1.9906526803970337 -1.3981812000274658 7.899953365325928 84 84 84
-1.5876655578613281 -2.045055389404297 6.342104434967041 90 90 90
-1.647725224494934 3.068466901779175 6.6510491371154785 25 25 25
-1.630744457244873 3.3436317443847656 6.609043121337891 39 39 39
-1.582726001739502 -1.9309923648834229 6.503025531768799 34 34 34
-1.6119928359985352 -0.6182944178581238 6.653862953186035 111 111 111
-1.6135269403457642 0.616936445236206 6.664281368255615 73 73 73
-1.6025745868682861 0.8932727575302124 6.676877498626709 79 79 79
-1.6025745868682861 0.8932727575302124 6.676877498626709 79 79 79
-1.5588796138763428 0.2549857497215271 6.564678192138672 47 47 47
-1.6316670179367065 1.9981334209442139 6.909415245056152 64 64 64
-1.578714370727539 -0.2461089938879013 6.669422149658203 74 74 74
-1.586820363998413 1.271061658859253 6.746857166290283 62 62 62
-1.6877596378326416 1.7037897109985352 7.266266345977783 65 65 65
-1.5807249546051025 1.43281090259552 6.83001708984375 36 36 36
-1.5570151805877686 3.2628073692321777 6.748329162597656 42 42 42
-1.5775234699249268 0.8456894159317017 6.840448379516602 68 68 68
-1.5775420665740967 1.2726242542266846 6.861055850982666 57 57 57
-1.628420114517212 -1.6624915599822998 7.121326446533203 14 14 14
-1.569856882095337 3.6668660640716553 6.915524005889893 33 33 33
-1.6073665618896484 -0.6134763360023499 7.0473456382751465 111 111 111
-1.5393511056900024 -0.5024897456169128 6.799857139587402 127 127 127
-1.5393511056900024 -0.5024897456169128 6.799857139587402 127 127 127
-1.5072174072265625 1.438516616821289 6.680981636047363 47 47 47
-1.5498827695846558 0.7419250011444092 6.859299659729004 33 33 33
-1.5498827695846558 0.7419250011444092 6.859299659729004 33 33 33
-1.5210198163986206 -0.003934761043637991 6.759590148925781 102 102 102
-1.5391925573349 -0.4341617822647095 6.848993301391602 32 32 32
-1.5391925573349 -0.4341617822647095 6.848993301391602 32 32 32
-1.5288262367248535 -2.697861671447754 6.730213165283203 33 33 33
-1.5288262367248535 -2.697861671447754 6.730213165283203 33 33 33
-1.5254236459732056 -0.5161892771720886 6.814740180969238 94 94 94
-1.544312596321106 1.4349403381347656 6.927846431732178 81 81 81
-1.634124994277954 1.0262218713760376 7.284702301025391 87 87 87
-1.5064747333526611 2.4253180027008057 6.828260898590088 54 54 54
-1.4935110807418823 1.9109210968017578 6.863340854644775 72 72 72
-1.5035871267318726 1.1409859657287598 6.928638458251953 81 81 81
-1.4727941751480103 0.3536511957645416 6.916320323944092 70 70 70
-1.4941033124923706 1.827386736869812 7.0091071128845215 63 63 63
-1.4819796085357666 0.10315980017185211 6.966451644897461 65 65 65
-1.4704195261001587 0.8559289574623108 7.008986473083496 75 75 75
-1.4564636945724487 1.115452527999878 6.952212333679199 83 83 83
-1.4372657537460327 0.7746265530586243 6.918431282043457 83 83 83
-1.437140941619873 3.4406590461730957 6.963934898376465 58 58 58
-1.4656366109848022 -0.3024147152900696 7.187897682189941 76 76 76
-1.3695924282073975 -3.0818426609039307 6.6995697021484375 40 40 40
-1.514892339706421 0.9105802774429321 7.462273120880127 75 75 75
-1.423976182937622 3.0817065238952637 7.098233222961426 48 48 48
-1.3889734745025635 1.0161161422729492 6.8969807624816895 69 69 69
-1.424004077911377 3.0818207263946533 7.0984272956848145 48 48 48
-1.3606863021850586 -0.3827698230743408 6.842302322387695 114 114 114
-1.3587114810943604 -2.1968913078308105 6.811802864074707 93 93 93
-1.4153140783309937 1.8135497570037842 7.21092414855957 63 63 63
-1.3781304359436035 0.2483830600976944 7.119260787963867 64 64 64
-1.4083127975463867 2.5041756629943848 7.2034831047058105 57 57 57
-1.3761154413223267 -0.6024677157402039 7.084827899932861 82 82 82
-1.3766056299209595 3.6001851558685303 7.126104354858398 27 27 27
-1.3314164876937866 -3.2336835861206055 6.896248817443848 67 67 67
-1.4692604541778564 -1.6254090070724487 7.730116367340088 111 111 111
-1.4692604541778564 -1.6254090070724487 7.730116367340088 111 111 111
-1.3748701810836792 2.8415184020996094 7.198479652404785 47 47 47
-1.316805124282837 -2.71562123298645 6.955610752105713 63 63 63
-1.3121758699417114 -0.6169990301132202 6.967815399169922 83 83 83
-1.3290493488311768 -0.33355942368507385 7.057934284210205 81 81 81
-1.3100578784942627 0.16829967498779297 7.044997692108154 70 70 70
-1.4024549722671509 2.690249443054199 7.505737781524658 94 94 94
-1.2813488245010376 0.8514726161956787 7.086269855499268 76 76 76
-1.301127314567566 1.7164536714553833 7.205911636352539 62 62 62
-1.301127314567566 1.7164536714553833 7.205911636352539 62 62 62
-1.3215641975402832 1.0592021942138672 7.328276634216309 62 62 62
-1.2477809190750122 -3.069289445877075 6.937098979949951 61 61 61
-1.2234333753585815 -0.4316965639591217 6.967473030090332 22 22 22
-1.287190556526184 0.8911324143409729 7.2778449058532715 59 59 59
-1.2873408794403076 3.1127257347106934 7.28420877456665 66 66 66
-1.154140830039978 3.5747599601745605 6.684730052947998 121 121 121
-1.264257550239563 0.381073921918869 7.301504611968994 68 68 68
-1.2499274015426636 1.2687755823135376 7.289555072784424 65 65 65
-1.2346502542495728 0.9228199124336243 7.205287933349609 1 1 1
-1.2599338293075562 1.172641634941101 7.378663539886475 16 16 16
-1.2751773595809937 -1.2080435752868652 7.507184982299805 30 30 30
-1.2307116985321045 1.152610421180725 7.2924299240112305 38 38 38
-1.2280348539352417 -0.15767955780029297 7.3038010597229 76 76 76
-1.238030195236206 0.45503541827201843 7.398946285247803 68 68 68
-1.1885669231414795 -0.38016220927238464 7.154435157775879 78 78 78
-1.211077332496643 1.5294753313064575 7.293015480041504 62 62 62
-1.231273889541626 2.582514524459839 7.45443868637085 22 22 22
-1.27650785446167 -1.6262301206588745 7.727064609527588 22 22 22
-1.2834380865097046 -0.714876651763916 7.720188617706299 23 23 23
-1.1379978656768799 3.6400516033172607 6.962335586547852 54 54 54
-1.2203935384750366 0.3390299379825592 7.446334362030029 67 67 67
-1.209017038345337 1.0866771936416626 7.410137176513672 63 63 63
-1.1986907720565796 -0.15294605493545532 7.35345983505249 92 92 92
-1.1841518878936768 0.23847895860671997 7.317560195922852 1 1 1
-1.194778561592102 3.6269237995147705 7.4709930419921875 52 52 52
-1.2038501501083374 0.473457008600235 7.465405464172363 2 2 2
-1.2069202661514282 2.592118501663208 7.487491607666016 29 29 29
-1.2069202661514282 2.592118501663208 7.487491607666016 29 29 29
-1.182477355003357 -1.2459713220596313 7.433093547821045 92 92 92
-1.1621809005737305 -1.8201545476913452 7.339534282684326 77 77 77
-1.1661807298660278 1.3869359493255615 7.416166305541992 47 47 47
-1.161594271659851 -0.1058698445558548 7.350281715393066 75 75 75
-1.1696031093597412 2.387944221496582 7.413858413696289 54 54 54
-1.1723859310150146 3.056475877761841 7.51490592956543 22 22 22
-1.179518461227417 -0.27589309215545654 7.578253269195557 78 78 78
-1.179518461227417 -0.27589309215545654 7.578253269195557 78 78 78
-1.0627245903015137 3.6477930545806885 6.976682186126709 55 55 55
-1.1067070960998535 3.3462860584259033 7.546597480773926 45 45 45
-1.0803948640823364 3.360830068588257 7.423489093780518 61 61 61
-1.0825300216674805 -1.9577133655548096 7.528572082519531 83 83 83
-1.0956037044525146 2.7309041023254395 7.6297502517700195 50 50 50
-1.0905475616455078 1.2301286458969116 7.660097599029541 61 61 61
-1.0918303728103638 0.3284688889980316 7.7046217918396 68 68 68
-1.088631510734558 3.5531005859375 7.697770118713379 54 54 54
-1.0344380140304565 -1.229953408241272 7.3301472663879395 97 97 97
-1.0389273166656494 0.08273690938949585 7.371286392211914 55 55 55
-1.0617190599441528 1.7045564651489258 7.596229553222656 59 59 59
-1.0161486864089966 2.7649495601654053 7.353334426879883 64 64 64
-1.0695242881774902 2.6353933811187744 7.7525553703308105 62 62 62
-0.949680745601654 3.6238040924072266 6.927908897399902 93 93 93
-1.0329793691635132 0.0038135014474391937 7.558618545532227 21 21 21
-1.0308315753936768 -0.2347886711359024 7.5961198806762695 27 27 27
-1.0349829196929932 3.0106966495513916 7.644567489624023 12 12 12
-1.0349829196929932 3.0106966495513916 7.644567489624023 12 12 12
-1.0400747060775757 1.4506512880325317 7.755887985229492 85 85 85
-1.0400747060775757 1.4506512880325317 7.755887985229492 85 85 85
-1.0365204811096191 3.548954963684082 7.75031042098999 52 52 52
-0.9791770577430725 1.4621587991714478 7.487861633300781 114 114 114
-0.9677437543869019 3.6250085830688477 7.298067092895508 92 92 92
-1.0432289838790894 -2.0478076934814453 7.88109827041626 68 68 68
-1.2184079885482788 -1.758298397064209 8.983338356018066 87 87 87
-1.0158112049102783 2.6593966484069824 7.712964057922363 47 47 47
-0.9776338338851929 -1.2784379720687866 7.345048904418945 89 89 89
-1.0142878293991089 3.4513933658599854 7.794958591461182 55 55 55
-0.9817951321601868 -0.8186546564102173 7.654839038848877 72 72 72
-0.998650074005127 1.091439962387085 7.800207614898682 64 64 64
-1.0046265125274658 2.048004627227783 7.901928901672363 76 76 76
-0.97674161195755 1.4347186088562012 7.708908557891846 57 57 57
-1.0004407167434692 2.0224242210388184 7.902462005615234 71 71 71
-0.9597184062004089 3.3768157958984375 7.863035678863525 44 44 44
-0.9410754442214966 0.28072547912597656 7.764678955078125 66 66 66
-0.960173487663269 1.2777043581008911 8.178357124328613 66 66 66
-0.9185540676116943 0.48890942335128784 7.828640937805176 104 104 104
-1.0196456909179688 -2.9763216972351074 8.446619033813477 34 34 34
-0.8641288876533508 1.4202828407287598 7.4040679931640625 58 58 58
-0.8953998684883118 0.7276626825332642 7.739413738250732 59 59 59
-0.7962561845779419 -1.3599231243133545 6.907726287841797 91 91 91
-0.825550377368927 3.6389002799987793 7.3354387283325195 110 110 110
-0.8730712532997131 3.5961129665374756 7.7763190269470215 57 57 57
-0.8712937235832214 -1.282422661781311 7.7868733406066895 80 80 80
-0.8712937235832214 -1.282422661781311 7.7868733406066895 80 80 80
-0.8722818493843079 2.5772902965545654 7.865015506744385 54 54 54
-0.8296179175376892 3.6042442321777344 7.51712703704834 121 121 121
-0.8763416409492493 3.468031883239746 8.002584457397461 59 59 59
-0.8596393465995789 -1.8404303789138794 7.708680629730225 22 22 22
-0.8596393465995789 -1.8404303789138794 7.708680629730225 22 22 22
-0.883526623249054 0.5943339467048645 8.074710845947266 63 63 63
-0.8671022057533264 0.8625339269638062 7.967225074768066 85 85 85
-0.8569343686103821 1.6136072874069214 8.005581855773926 17 17 17
-0.9037714004516602 0.46969982981681824 8.25863265991211 38 38 38
-0.8414496183395386 1.363473892211914 8.009542465209961 7 7 7
-0.7921074628829956 1.6840897798538208 8.045580863952637 57 57 57
-0.7978057861328125 2.657886505126953 8.194450378417969 48 48 48
-0.7956913709640503 -0.2947409451007843 8.172561645507812 64 64 64
-0.8229635953903198 -1.2137422561645508 8.31262493133545 5 5 5
-0.7390146255493164 -0.9052830934524536 7.798331260681152 14 14 14
-0.7560174465179443 0.30831825733184814 8.115477561950684 72 72 72
-0.7298856377601624 1.4209997653961182 7.921364784240723 57 57 57
-0.705458402633667 -1.895309567451477 7.662353038787842 63 63 63
-0.7420753240585327 0.06348802149295807 8.093114852905273 59 59 59
-0.743299126625061 1.7653605937957764 8.260973930358887 60 60 60
-0.6564827561378479 3.614439010620117 7.334502696990967 98 98 98
-0.7131349444389343 3.1985886096954346 8.283418655395508 35 35 35
-0.7024691104888916 2.7791404724121094 8.324406623840332 18 18 18
-0.6931600570678711 3.093984842300415 8.416298866271973 44 44 44
-0.711393415927887 1.5374704599380493 8.717806816101074 72 72 72
-0.6880244612693787 2.5655455589294434 8.464622497558594 155 155 155
-0.6588554978370667 0.32297468185424805 8.267385482788086 62 62 62
-0.5912312865257263 -0.578586757183075 8.260311126708984 64 64 64
-0.5940237045288086 0.33611971139907837 8.611233711242676 60 60 60
-0.5157055854797363 1.6691948175430298 8.531615257263184 92 92 92
-0.5460860729217529 -0.49391618371009827 8.562562942504883 24 24 24
-0.5460860729217529 -0.49391618371009827 8.562562942504883 24 24 24
-0.5001978278160095 0.09310904145240784 8.49486255645752 56 56 56
-0.47589707374572754 -1.0735960006713867 8.452020645141602 56 56 56
-0.4877305328845978 3.162097454071045 8.79937744140625 41 41 41
-0.450389564037323 0.06810837984085083 8.876460075378418 51 51 51
-0.4530273675918579 -0.8792852163314819 9.03695297241211 53 53 53
-0.42341241240501404 2.71421480178833 8.793173789978027 87 87 87
-0.4014149308204651 3.5691425800323486 8.635183334350586 54 54 54
-0.39203643798828125 3.721677303314209 8.719736099243164 109 109 109
-0.38706040382385254 -0.7325166463851929 8.87013053894043 16 16 16
-0.30922386050224304 3.6068460941314697 7.1410627365112305 93 93 93
-0.37351611256599426 -0.02756497450172901 8.896071434020996 63 63 63
-0.36779502034187317 1.9265996217727661 9.031609535217285 70 70 70
-0.30442914366722107 3.6515631675720215 7.872136116027832 137 137 137
-0.327328085899353 -0.21315431594848633 9.231560707092285 52 52 52
-0.27739188075065613 0.7242000102996826 9.02628231048584 54 54 54
-0.2650609016418457 0.8458415865898132 9.331974029541016 68 68 68
-0.24605396389961243 0.2644244134426117 9.011589050292969 51 51 51
-0.23117606341838837 3.2218239307403564 9.11788272857666 38 38 38
-0.2104547619819641 -1.3883707523345947 8.676939964294434 25 25 25
-0.2106020599603653 1.8514236211776733 9.223527908325195 73 73 73
-0.2092803418636322 0.3998619019985199 9.211977005004883 17 17 17
-0.13956589996814728 3.6793785095214844 7.33394193649292 59 59 59
-0.15086154639720917 0.022743143141269684 9.389090538024902 46 46 46
-0.11627329140901566 3.6395819187164307 8.127339363098145 78 78 78
-0.13338282704353333 -0.6436905860900879 9.4088716506958 50 50 50
-0.13338282704353333 -0.6436905860900879 9.4088716506958 50 50 50
-0.12264187633991241 1.2177011966705322 9.33204174041748 46 46 46
-0.11879938095808029 0.3293049931526184 9.727036476135254 50 50 50
-0.09238969534635544 1.4524497985839844 9.54562759399414 47 47 47
-0.09238969534635544 1.4524497985839844 9.54562759399414 47 47 47
-0.054272472858428955 -0.601405143737793 9.671906471252441 62 62 62
-0.04226783290505409 2.770798683166504 9.564316749572754 4 4 4
-0.04226783290505409 2.770798683166504 9.564316749572754 4 4 4
-0.04580657184123993 -0.6889581084251404 9.218183517456055 58 58 58
-0.04193396866321564 1.063559889793396 9.865195274353027 65 65 65
-0.009060272015631199 -2.4002766609191895 8.394987106323242 52 52 52
-0.0032374723814427853 0.22154055535793304 9.840875625610352 75 75 75
0.018020885065197945 -1.7522797584533691 7.482250213623047 41 41 41
0.052141595631837845 0.48489275574684143 9.895370483398438 43 43 43
0.06996243447065353 3.5693881511688232 8.498361587524414 64 64 64
0.09427240490913391 -0.24230070412158966 10.032415390014648 69 69 69
0.10885871201753616 -1.7583149671554565 9.536235809326172 53 53 53
0.10884151607751846 3.6007814407348633 8.691461563110352 86 86 86
0.11441259831190109 0.2381334900856018 8.95988941192627 65 65 65
0.14835430681705475 -1.6281152963638306 10.327620506286621 49 49 49
0.19066844880580902 3.63923716545105 9.035979270935059 54 54 54
0.21581485867500305 0.3838917016983032 9.975364685058594 18 18 18
0.21531498432159424 0.022493597120046616 9.84251594543457 43 43 43
0.21531498432159424 0.022493597120046616 9.84251594543457 43 43 43
0.21392115950584412 0.019946951419115067 9.74183464050293 42 42 42
0.21392115950584412 0.019946951419115067 9.74183464050293 42 42 42
0.21978288888931274 1.6470842361450195 9.646583557128906 44 44 44
0.21930716931819916 1.8086484670639038 9.632363319396973 47 47 47
0.2353629469871521 3.0598599910736084 10.0540771484375 40 40 40
0.2503572702407837 3.157458782196045 10.18540096282959 39 39 39
0.24810323119163513 0.464106023311615 10.027227401733398 43 43 43
0.38040873408317566 1.6560800075531006 10.054444313049316 47 47 47
0.4484299123287201 1.392116904258728 10.396132469177246 55 55 55
0.4843589961528778 3.0309393405914307 10.395156860351562 41 41 41
0.49157023429870605 3.4235117435455322 10.191656112670898 51 51 51
0.4948493242263794 1.3516676425933838 10.455875396728516 68 68 68
0.6649547219276428 -3.5664830207824707 12.415584564208984 40 40 40
0.6649547219276428 -3.5664830207824707 12.415584564208984 40 40 40
0.4064456820487976 -2.2263286113739014 7.850403785705566 38 38 38
0.4064456820487976 -2.2263286113739014 7.850403785705566 38 38 38
0.5449910163879395 3.3191285133361816 10.059094429016113 28 28 28
0.5538313984870911 0.23275898396968842 10.329715728759766 42 42 42
0.6031563878059387 2.9447145462036133 10.866106986999512 51 51 51
0.6018942594528198 -1.6135954856872559 10.486397743225098 48 48 48
0.46911677718162537 3.6437230110168457 7.785374164581299 121 121 121
0.46148163080215454 -0.9145984053611755 7.423343181610107 27 27 27
0.6715356707572937 3.5931472778320312 10.712944984436035 71 71 71
0.6876775622367859 -4.440022945404053 11.046548843383789 57 57 57
0.6805887222290039 -0.9238978624343872 10.575278282165527 44 44 44
0.46046754717826843 3.5975000858306885 7.124175548553467 64 64 64
0.6106646656990051 3.350693941116333 8.927606582641602 96 96 96
0.8462446331977844 -4.463221549987793 11.290467262268066 34 34 34
0.7721208333969116 0.9268996715545654 9.851065635681152 32 32 32
0.9098397493362427 3.600847005844116 11.105890274047852 43 43 43
0.961592435836792 3.4653308391571045 11.367006301879883 43 43 43
0.9342976808547974 1.0770610570907593 10.863936424255371 40 40 40
1.2604237794876099 -2.1568222045898438 14.488195419311523 43 43 43
1.0967520475387573 -1.4557969570159912 12.631887435913086 20 20 20
1.1613640785217285 2.5599563121795654 11.748103141784668 43 43 43
1.1251208782196045 2.465731620788574 11.382406234741211 45 45 45
0.6910738348960876 3.5750465393066406 6.885260581970215 71 71 71
1.091298222541809 3.0582759380340576 11.038742065429688 34 34 34
1.1342363357543945 0.2484121322631836 10.471607208251953 28 28 28
1.332125186920166 0.6348186731338501 12.180755615234375 42 42 42
1.3260892629623413 2.5971169471740723 12.037704467773438 71 71 71
1.3260892629623413 2.5971169471740723 12.037704467773438 71 71 71
1.3899685144424438 3.490934371948242 12.016073226928711 22 22 22
1.4154306650161743 -0.4724237024784088 11.892387390136719 58 58 58
1.3235365152359009 3.55849552154541 10.90988540649414 45 45 45
1.6560646295547485 3.636300802230835 13.335854530334473 40 40 40
1.5260789394378662 1.3887993097305298 12.249273300170898 46 46 46
1.5208346843719482 1.279284119606018 12.10819149017334 46 46 46
1.0871756076812744 3.6265206336975098 8.58653736114502 120 120 120
2.0383427143096924 -1.0526612997055054 15.718788146972656 35 35 35
2.1893224716186523 -2.918092966079712 16.451379776000977 38 38 38
1.5763052701950073 -1.5314418077468872 11.972838401794434 30 30 30
1.7612491846084595 1.3667657375335693 12.588635444641113 44 44 44
1.7733092308044434 0.12618860602378845 12.57509708404541 44 44 44
1.8890619277954102 0.9492053985595703 13.367342948913574 64 64 64
1.7950286865234375 2.318119764328003 12.726682662963867 62 62 62
1.821395754814148 1.7715532779693604 12.818550109863281 63 63 63
1.7831751108169556 3.5114259719848633 12.276701927185059 52 52 52
1.9657974243164062 2.797832489013672 13.277175903320312 55 55 55
1.9497495889663696 3.3859779834747314 13.355175018310547 46 46 46
1.949466347694397 2.2372210025787354 12.97387409210205 45 45 45
1.1811449527740479 3.79085636138916 7.759365558624268 76 76 76
2.0002634525299072 0.08224645256996155 13.211647987365723 79 79 79
2.278010606765747 3.8556716442108154 14.662426948547363 39 39 39
1.8581655025482178 3.5503647327423096 11.923383712768555 68 68 68
1.865896463394165 3.1640372276306152 12.029269218444824 51 51 51
1.989402174949646 2.9947001934051514 12.73265266418457 57 57 57
2.1217358112335205 1.7890725135803223 13.205904960632324 64 64 64
2.2490172386169434 3.461752414703369 13.73893928527832 40 40 40
1.3130031824111938 3.5390114784240723 8.03986644744873 84 84 84
2.160921335220337 1.301408290863037 13.185761451721191 49 49 49
2.160921335220337 1.301408290863037 13.185761451721191 49 49 49
2.3208110332489014 0.3238467574119568 13.995250701904297 45 45 45
2.256695032119751 -2.406224489212036 13.664786338806152 13 13 13
2.3995375633239746 -1.4371118545532227 13.986427307128906 18 18 18
2.568192958831787 -2.3252387046813965 14.958760261535645 11 11 11
2.351393699645996 -0.2911348342895508 13.685348510742188 78 78 78
2.09126615524292 3.0885863304138184 12.263259887695312 53 53 53
2.5070230960845947 -2.0799295902252197 14.234010696411133 89 89 89
2.434892416000366 2.427443027496338 13.734861373901367 47 47 47
2.5617501735687256 -2.4617457389831543 14.353686332702637 22 22 22
2.642225503921509 -1.138358235359192 14.583642959594727 59 59 59
2.537750482559204 2.7368650436401367 13.967893600463867 56 56 56
2.8501274585723877 2.477839946746826 14.848978042602539 48 48 48
2.603651762008667 -1.0161817073822021 13.501787185668945 100 100 100
2.8308112621307373 -0.6550381183624268 14.593243598937988 85 85 85
3.8927054405212402 -3.871208667755127 20.02569580078125 54 54 54
1.431762456893921 3.6223928928375244 7.302034378051758 67 67 67
1.431762456893921 3.6223928928375244 7.302034378051758 67 67 67
2.8458778858184814 1.4600893259048462 14.50036907196045 60 60 60
1.5846575498580933 3.5882835388183594 8.050238609313965 72 72 72
3.6916730403900146 -2.064023733139038 18.509502410888672 21 21 21
2.49470591545105 1.7287498712539673 12.585110664367676 31 31 31
2.6412453651428223 2.8983314037323 13.379350662231445 68 68 68
3.138871431350708 -5.0067009925842285 15.791293144226074 81 81 81
2.937286853790283 -0.846566379070282 14.598523139953613 105 105 105
2.870809555053711 -1.3081791400909424 14.185982704162598 107 107 107
2.972658395767212 3.4779269695281982 14.567217826843262 51 51 51
3.4060354232788086 1.2915520668029785 16.436758041381836 37 37 37
3.1065495014190674 -0.17151157557964325 14.984723091125488 83 83 83
3.180241107940674 2.2425074577331543 15.129559516906738 83 83 83
3.180241107940674 2.2425074577331543 15.129559516906738 83 83 83
3.416673183441162 -3.0469675064086914 16.242000579833984 102 102 102
3.1498708724975586 -0.1005764752626419 14.896167755126953 97 97 97
3.3074207305908203 1.5299500226974487 15.502397537231445 73 73 73
3.4076459407806396 2.0567212104797363 15.564127922058105 31 31 31
3.3628103733062744 2.4161672592163086 15.535808563232422 41 41 41
3.47664475440979 -1.6805349588394165 16.035449981689453 130 130 130
3.4757955074310303 -1.905909538269043 15.98042106628418 146 146 146
3.2173993587493896 0.2680692672729492 14.733733177185059 76 76 76
3.540156841278076 2.7503228187561035 15.842105865478516 52 52 52
3.9626593589782715 3.7064476013183594 17.628429412841797 61 61 61
2.8314571380615234 -1.150434136390686 12.957083702087402 103 103 103
3.565981388092041 2.543055772781372 15.958355903625488 12 12 12
3.597029447555542 1.2194851636886597 16.133703231811523 67 67 67
3.631265878677368 0.05770716816186905 16.048599243164062 113 113 113
3.843038558959961 -2.4394235610961914 16.604021072387695 42 42 42
3.915165662765503 -3.8675906658172607 17.081361770629883 23 23 23
4.052402496337891 2.7061233520507812 17.382646560668945 15 15 15
4.661194324493408 -4.394214153289795 19.715312957763672 34 34 34
3.5985217094421387 1.9987863302230835 15.375251770019531 80 80 80
3.9120945930480957 3.295569658279419 16.4582462310791 92 92 92
4.193605899810791 2.440807342529297 17.533767700195312 129 129 129
4.193605899810791 2.440807342529297 17.533767700195312 129 129 129
3.830411911010742 -2.1372873783111572 15.686296463012695 94 94 94
4.114850997924805 -2.934924602508545 16.814315795898438 142 142 142
4.4871931076049805 2.3883824348449707 18.2760009765625 163 163 163
4.352875232696533 2.8111732006073 17.64630889892578 53 53 53
4.619259834289551 -2.308389186859131 18.79465103149414 176 176 176
4.523556232452393 -1.5948961973190308 18.123613357543945 142 142 142
4.019778728485107 1.8079626560211182 16.369853973388672 102 102 102
5.039085865020752 -1.091011643409729 20.11667823791504 140 140 140
4.643322467803955 1.5874438285827637 18.57539176940918 86 86 86
4.6547112464904785 -3.5329713821411133 18.423233032226562 140 140 140
4.802900791168213 -0.16439522802829742 18.75248146057129 89 89 89
4.663602828979492 0.5330851078033447 18.272377014160156 13 13 13
4.688383102416992 0.8733540177345276 18.41234588623047 123 123 123
4.742963790893555 -0.6334213018417358 18.549623489379883 78 78 78
4.741851806640625 1.9614893198013306 18.540767669677734 23 23 23
4.671844005584717 -2.74214768409729 18.20799446105957 220 220 220
4.78123140335083 0.4189259707927704 18.488967895507812 96 96 96
4.8281331062316895 0.673008382320404 18.660078048706055 63 63 63
4.503262996673584 -3.725215435028076 17.643192291259766 1 1 1
4.810944080352783 -3.6542227268218994 18.645050048828125 10 10 10
4.955589771270752 2.332127571105957 18.885475158691406 47 47 47
5.022110462188721 -1.7376024723052979 19.086536407470703 100 100 100
4.861828804016113 0.22108979523181915 18.46569061279297 60 60 60
4.688580513000488 -1.2207536697387695 17.80751609802246 106 106 106
4.850358009338379 1.647843599319458 18.40873908996582 59 59 59
5.0044684410095215 1.1877782344818115 18.96352195739746 50 50 50
5.121771335601807 -0.3111884593963623 19.36168098449707 80 80 80
4.777907371520996 0.35110923647880554 18.027103424072266 100 100 100
5.0518670082092285 -2.646526575088501 19.009309768676758 24 24 24
5.041653633117676 -1.522485613822937 18.861255645751953 148 148 148
5.041653633117676 -1.522485613822937 18.861255645751953 148 148 148
5.012612342834473 1.4124125242233276 18.7465763092041 84 84 84
5.012612342834473 1.4124125242233276 18.7465763092041 84 84 84
2.038250207901001 3.580301523208618 7.601766586303711 81 81 81
4.736172199249268 2.5067741870880127 17.716798782348633 101 101 101
5.062671184539795 -1.0273104906082153 18.833984375 127 127 127
5.041300296783447 -2.51479434967041 18.674022674560547 109 109 109
5.245588779449463 -2.0580456256866455 19.297677993774414 138 138 138
5.031267166137695 1.4919058084487915 18.436750411987305 4 4 4
5.101057052612305 2.05737042427063 18.648700714111328 90 90 90
5.037825107574463 1.1790403127670288 18.388742446899414 103 103 103
2.104522943496704 3.394383668899536 7.588398456573486 68 68 68
2.104522943496704 3.394383668899536 7.588398456573486 68 68 68
5.254434108734131 -0.2869817018508911 18.81103515625 93 93 93
5.4657416343688965 -0.8109450936317444 19.533308029174805 99 99 99
5.881765842437744 -2.680175304412842 20.838647842407227 106 106 106
5.324579238891602 -0.5541163086891174 18.82533836364746 76 76 76
4.655900955200195 3.446861505508423 16.400501251220703 110 110 110
4.548005104064941 1.0538204908370972 16.098464965820312 39 39 39
2.2926714420318604 3.6033084392547607 8.047784805297852 74 74 74
4.702088356018066 -1.5130727291107178 16.46253204345703 113 113 113
2.517503023147583 3.563253164291382 8.596213340759277 76 76 76
2.6868672370910645 3.5509824752807617 9.116491317749023 88 88 88
6.26113224029541 -1.890224814414978 21.176958084106445 81 81 81
2.9019076824188232 3.5298144817352295 9.760726928710938 59 59 59
2.227678060531616 3.6036860942840576 7.483811378479004 76 76 76
5.394233703613281 -1.4066461324691772 18.05832862854004 77 77 77
6.10127592086792 0.37193745374679565 20.37265396118164 64 64 64
5.989192485809326 -1.0465689897537231 19.960309982299805 90 90 90
6.3263421058654785 0.12467225641012192 20.913612365722656 74 74 74
5.897740364074707 -0.016631873324513435 19.34465217590332 65 65 65
2.1480166912078857 3.6127560138702393 6.903327941894531 82 82 82
6.763466835021973 0.3732336759567261 21.551530838012695 61 61 61
6.888086318969727 2.353307008743286 21.833768844604492 21 21 21
2.5643720626831055 3.5793750286102295 8.107209205627441 81 81 81
5.737170696258545 1.27933669090271 18.164344787597656 75 75 75
5.737170696258545 1.27933669090271 18.164344787597656 75 75 75
7.486505508422852 -0.42092230916023254 23.125459671020508 52 52 52
8.240190505981445 -5.3075032234191895 25.039337158203125 46 46 46
7.778616905212402 3.1848888397216797 23.39743423461914 50 50 50
7.476963520050049 0.05179695412516594 22.651124954223633 54 54 54
8.102921485900879 -0.4675120413303375 24.412485122680664 44 44 44
8.102921485900879 -0.4675120413303375 24.412485122680664 44 44 44
8.684198379516602 0.34713074564933777 25.763568878173828 63 63 63
8.023150444030762 -2.3356752395629883 24.033056259155273 32 32 32
8.383827209472656 2.401592493057251 24.884281158447266 67 67 67
8.832178115844727 -5.530893325805664 26.164962768554688 61 61 61
8.330741882324219 -0.20811153948307037 24.644256591796875 62 62 62
8.397428512573242 1.825300693511963 24.8240909576416 69 69 69
8.307852745056152 3.0978307723999023 24.512203216552734 93 93 93
9.13715648651123 -1.3053077459335327 26.589969635009766 53 53 53
8.675826072692871 -1.7747313976287842 25.052583694458008 41 41 41
8.981507301330566 -2.503222942352295 26.13284683227539 38 38 38
7.116848945617676 -4.308782577514648 20.603744506835938 69 69 69
8.20474624633789 -4.928769588470459 23.617143630981445 69 69 69
9.389742851257324 2.158987045288086 26.829683303833008 38 38 38
8.989006042480469 1.6193984746932983 25.67807388305664 33 33 33
9.207590103149414 3.045912981033325 26.271400451660156 31 31 31
9.354248046875 -0.843170166015625 26.6065731048584 28 28 28
9.110304832458496 0.13168373703956604 25.90519142150879 32 32 32
9.279688835144043 -1.2758519649505615 26.351825714111328 28 28 28
9.52702808380127 -1.8085572719573975 27.0369930267334 26 26 26
9.943930625915527 -2.985931634902954 28.048702239990234 22 22 22
9.658069610595703 -2.0367863178253174 26.82042121887207 102 102 102
9.724568367004395 -2.3008058071136475 27.005870819091797 115 115 115
9.724568367004395 -2.3008058071136475 27.005870819091797 115 115 115
9.825736045837402 2.4269750118255615 27.044221878051758 30 30 30
9.669174194335938 3.0139124393463135 26.377412796020508 79 79 79
10.33389663696289 -2.8392679691314697 28.12462043762207 23 23 23
7.047093868255615 3.149017095565796 19.131908416748047 83 83 83
9.382071495056152 2.477870225906372 25.483854293823242 63 63 63
3.1242501735687256 3.569403886795044 8.445329666137695 74 74 74
9.0675048828125 2.6124446392059326 24.509286880493164 51 51 51
2.801952600479126 3.6112329959869385 7.539208889007568 89 89 89
10.957503318786621 -5.308219909667969 29.366159439086914 58 58 58
9.40606689453125 4.247277736663818 24.787906646728516 85 85 85
10.949398040771484 -0.7777225971221924 28.778139114379883 90 90 90
10.689657211303711 -1.924747109413147 28.105937957763672 104 104 104
11.562758445739746 -0.29597389698028564 30.22374725341797 29 29 29
11.779023170471191 1.8046773672103882 30.414384841918945 36 36 36
11.775407791137695 -2.5694739818573 30.573354721069336 199 199 199
11.775407791137695 -2.5694739818573 30.573354721069336 199 199 199
11.525123596191406 -0.579407274723053 29.814468383789062 141 141 141
6.2893452644348145 -4.623239517211914 16.213163375854492 171 171 171
12.097259521484375 -1.6767141819000244 30.785930633544922 107 107 107
12.126770973205566 -1.096128225326538 30.840417861938477 145 145 145
12.126770973205566 -1.096128225326538 30.840417861938477 145 145 145
11.537961959838867 0.47463327646255493 28.99250602722168 64 64 64
12.432796478271484 -0.8753162622451782 31.19729995727539 69 69 69
11.34953498840332 -3.706125259399414 28.10396957397461 45 45 45
3.022526741027832 3.72611665725708 7.200043201446533 87 87 87
9.276618003845215 -2.311713218688965 25.744829177856445 4 4 4
-2.0302484035491943 -1.3480454683303833 5.842464923858643 156 156 156
0.12690898776054382 3.617863893508911 8.629240036010742 143 143 143
-1.5498707294464111 0.7419210076332092 6.859262466430664 33 33 33
9.731694221496582 -2.654907464981079 26.939172744750977 14 14 14
-1.1910077333450317 0.7120740413665771 7.423727512359619 188 188 188
5.600343704223633 -2.170786142349243 19.70858383178711 1 1 1
-2.246368646621704 -1.0890052318572998 6.021042346954346 108 108 108
3.416036605834961 -1.4699939489364624 15.447494506835938 36 36 36
5.5061936378479 -1.8858006000518799 19.24956512451172 98 98 98
5.073561191558838 2.5397520065307617 18.5638370513916 197 197 197
-0.8569663166999817 1.6136984825134277 8.005942344665527 17 17 17
-1.3506208658218384 1.3944731950759888 7.0755696296691895 3 3 3
4.141077995300293 2.3724398612976074 17.366065979003906 217 217 217
4.841397285461426 2.7151119709014893 17.78325843811035 74 74 74
-1.7005149126052856 -1.1220272779464722 6.36527156829834 150 150 150
-2.279184579849243 0.2914501428604126 6.1383490562438965 46 46 46
-1.7166138887405396 0.9947361946105957 6.592801094055176 6 6 6
-2.2461273670196533 -1.3268929719924927 5.992384433746338 31 31 31
-2.2461273670196533 -1.3268914222717285 5.992384433746338 31 31 31
-1.7978661060333252 -1.044443964958191 5.945107460021973 112 112 112
3.5373144149780273 -1.748123049736023 15.87438678741455 11 11 11
1.0699877738952637 3.6210055351257324 7.33130407333374 60 60 60
11.084903717041016 -2.7270846366882324 29.073936462402344 126 126 126
1.4229676723480225 3.689237594604492 7.376936912536621 47 47 47
-1.3332887887954712 -1.3352304697036743 7.589761257171631 32 32 32
5.316092014312744 -3.3321759700775146 19.175952911376953 8 8 8
-2.365968942642212 2.8359909057617188 6.095465183258057 177 177 177
-1.3778984546661377 0.9531944990158081 7.123222827911377 34 34 34
-1.8942101001739502 -1.3733068704605103 6.204805374145508 16 16 16
4.365001678466797 2.4710423946380615 17.73967742919922 197 197 197
5.599889755249023 -2.170600414276123 19.70694351196289 1 1 1
4.809685707092285 -3.653294086456299 18.640405654907227 10 10 10
-0.7053901553153992 3.6628878116607666 7.161148548126221 111 111 111
-1.9020689725875854 -1.3336706161499023 6.163654327392578 8 8 8
4.002476215362549 2.3786375522613525 17.877174377441406 37 37 37
4.998497486114502 0.31077757477760315 18.371816635131836 149 149 149
2.5918426513671875 0.018468676134943962 14.544175148010254 12 12 12
3.5700747966766357 -1.7623132467269897 16.014389038085938 11 11 11
2.652494192123413 0.23730561137199402 14.281070709228516 20 20 20
-1.703267216682434 2.383960485458374 6.612821578979492 7 7 7
-1.7143553495407104 -1.3708304166793823 6.399076461791992 151 151 151
4.678762912750244 2.37379789352417 18.154403686523438 249 249 249
4.483196258544922 2.3863470554351807 18.260061264038086 163 163 163
-0.875151515007019 3.5644826889038086 6.757920742034912 63 63 63
2.81672739982605 -2.4008100032806396 14.38895320892334 14 14 14
4.959103107452393 1.2428054809570312 18.193828582763672 61 61 61
3.2103524208068848 -0.043755169957876205 14.844258308410645 9 9 9
11.62417984008789 -2.6684443950653076 29.698299407958984 6 6 6
-1.8469794988632202 1.9080941677093506 6.330344200134277 122 122 122
-1.7143503427505493 -1.370839238166809 6.399046421051025 151 151 151
-1.7018097639083862 -0.40323618054389954 6.439899921417236 44 44 44
4.650180816650391 -1.578171968460083 18.28188133239746 157 157 157
4.493358612060547 2.391120433807373 18.29922866821289 163 163 163
-2.347126007080078 -0.021412713453173637 6.051295280456543 109 109 109
10.718926429748535 -2.5040440559387207 28.872283935546875 46 46 46
