ply
format ascii 1.0
element vertex 714
property float x
property float y
property float z
property uchar red
property uchar green
property uchar blue
end_header
1.6838901042938232 2.270090103149414 4.769669532775879 82 82 82
1.9933198690414429 -0.49229317903518677 5.637308120727539 37 37 37
1.6578742265701294 0.7881520390510559 4.6624860763549805 114 114 114
1.6750352382659912 -1.9362763166427612 4.700037956237793 81 81 81
1.6750352382659912 -1.9362763166427612 4.700037956237793 81 81 81
1.7041643857955933 2.1085031032562256 4.751328945159912 17 17 17
1.6812217235565186 1.39080810546875 4.704904556274414 50 50 50
1.7060012817382812 2.1062209606170654 4.74112606048584 15 15 15
1.692478895187378 1.4285266399383545 4.7195539474487305 123 123 123
1.6788146495819092 1.315490484237671 4.695206165313721 14 14 14
2.0269696712493896 -0.3081452250480652 5.6469573974609375 47 47 47
1.6986665725708008 2.234010696411133 4.723901748657227 51 51 51
1.7076894044876099 2.078859567642212 4.738981246948242 100 100 100
1.6965100765228271 1.6591718196868896 4.702661514282227 125 125 125
1.758339524269104 1.1343666315078735 4.913703441619873 42 42 42
1.7229893207550049 -0.8602889776229858 4.7754316329956055 92 92 92
1.6941895484924316 1.2407495975494385 4.6869964599609375 39 39 39
2.038543224334717 -0.4393089711666107 5.63757848739624 42 42 42
1.6920976638793945 0.8078892230987549 4.662823677062988 71 71 71
1.6559154987335205 1.8313407897949219 4.540025234222412 69 69 69
2.067566156387329 -0.5057252645492554 5.693177700042725 34 34 34
2.0870535373687744 -0.36984649300575256 5.720231056213379 104 104 104
1.8161042928695679 -0.7525211572647095 4.994050025939941 134 134 134
1.721500039100647 1.8592655658721924 4.721651077270508 127 127 127
1.7020293474197388 1.2256691455841064 4.652575492858887 57 57 57
1.7449535131454468 2.2972891330718994 4.765166759490967 42 42 42
1.7449535131454468 2.2972891330718994 4.765166759490967 42 42 42
1.636604905128479 -1.988013505935669 4.424540996551514 40 40 40
2.0950772762298584 -0.35335293412208557 5.691623687744141 131 131 131
1.7764716148376465 0.7491906881332397 4.8196797370910645 120 120 120
1.8713836669921875 0.5329136252403259 5.072749614715576 66 66 66
1.7160955667495728 0.8849382400512695 4.6338419914245605 56 56 56
1.7433913946151733 1.4863040447235107 4.699734210968018 123 123 123
1.727770209312439 1.3672325611114502 4.640380382537842 43 43 43
1.751358151435852 1.8795651197433472 4.682788372039795 100 100 100
1.786713719367981 0.6662436723709106 4.763073921203613 61 61 61
1.7309588193893433 2.257190227508545 4.593647003173828 40 40 40
1.7542178630828857 1.2399439811706543 4.651867866516113 44 44 44
1.817247748374939 -0.7680910229682922 4.78333854675293 25 25 25
1.7583606243133545 1.2103351354599 4.638000011444092 78 78 78
1.883129596710205 -0.735990047454834 4.964728355407715 31 31 31
1.8135793209075928 -0.8348625302314758 4.775236129760742 33 33 33
1.7630704641342163 1.5104084014892578 4.63593053817749 132 132 132
1.7770646810531616 1.7178491353988647 4.662256717681885 45 45 45
1.790709137916565 2.290083885192871 4.695725440979004 72 72 72
1.878069519996643 -0.7665523886680603 4.921426773071289 138 138 138
1.7653683423995972 1.2540031671524048 4.616340637207031 38 38 38
1.6674301624298096 -2.0556082725524902 4.354109287261963 112 112 112
1.8429267406463623 0.7594798803329468 4.801998615264893 81 81 81
1.7861977815628052 1.7456941604614258 4.640469551086426 152 152 152
1.7808969020843506 1.193260908126831 4.606775760650635 33 33 33
1.7955073118209839 1.5744081735610962 4.633897304534912 119 119 119
1.7590281963348389 1.764262318611145 4.49365234375 98 98 98
1.7900011539459229 1.2117055654525757 4.588009357452393 71 71 71
1.8519213199615479 1.4556556940078735 4.760941028594971 57 57 57
1.8094812631607056 1.9065277576446533 4.640547752380371 42 42 42
2.209502696990967 -0.4920499622821808 5.6673784255981445 44 44 44
1.866080641746521 0.721359372138977 4.806931018829346 67 67 67
1.8850699663162231 1.1492210626602173 4.829925060272217 42 42 42
1.804612159729004 1.030311942100525 4.596035003662109 75 75 75
1.8747763633728027 0.6664804816246033 4.743051528930664 77 77 77
1.7267249822616577 -2.0542569160461426 4.392620086669922 31 31 31
1.8075628280639648 0.9415695071220398 4.586829662322998 52 52 52
1.5487815141677856 -0.7033367156982422 3.9160420894622803 117 117 117
1.8800687789916992 -0.834616482257843 4.756884574890137 34 34 34
1.7130671739578247 -2.0584943294525146 4.329758644104004 108 108 108
1.829965591430664 2.04013729095459 4.625002384185791 117 117 117
1.8824260234832764 -1.0277245044708252 4.74166202545166 27 27 27
2.2793161869049072 -0.3976651728153229 5.71636962890625 217 217 217
2.2793161869049072 -0.3976651728153229 5.71636962890625 217 217 217
1.9564892053604126 -0.7664370536804199 4.901179790496826 79 79 79
1.7370684146881104 -2.154374837875366 4.342653274536133 111 111 111
1.8035345077514648 1.377358078956604 4.472538471221924 100 100 100
1.8035345077514648 1.377358078956604 4.472538471221924 100 100 100
1.8502377271652222 1.915740728378296 4.609023094177246 39 39 39
1.9519253969192505 0.5692692399024963 4.821800231933594 150 150 150
1.8450603485107422 1.1453020572662354 4.557985782623291 80 80 80
1.8789600133895874 -1.2886656522750854 4.634283065795898 23 23 23
1.879289984703064 1.1304550170898438 4.629034042358398 39 39 39
1.857739806175232 1.8947865962982178 4.5483622550964355 31 31 31
1.857739806175232 1.8947865962982178 4.5483622550964355 31 31 31
2.3062989711761475 -0.3497832715511322 5.673547744750977 38 38 38
1.8648922443389893 2.0363996028900146 4.5457353591918945 110 110 110
1.9263416528701782 -1.2260918617248535 4.725486755371094 75 75 75
2.0028622150421143 -0.7652781009674072 4.888927459716797 175 175 175
1.8784867525100708 0.8743976950645447 4.574719429016113 93 93 93
1.896275281906128 -1.439004898071289 4.613067626953125 30 30 30
1.8890019655227661 1.503340244293213 4.5734100341796875 49 49 49
2.0180208683013916 0.583740770816803 4.873600959777832 134 134 134
1.9007351398468018 1.9087824821472168 4.551874160766602 27 27 27
2.06406569480896 0.5053285360336304 4.97780704498291 152 152 152
1.7328169345855713 -0.04744051396846771 4.147589683532715 172 172 172
1.9292978048324585 -1.7192604541778564 4.610713005065918 68 68 68
1.9285248517990112 -1.0604544878005981 4.604546070098877 52 52 52
2.014310121536255 0.5612139105796814 4.75973653793335 187 187 187
1.8922996520996094 0.9318962693214417 4.470073223114014 68 68 68
1.9041107892990112 1.0084820985794067 4.4329071044921875 67 67 67
1.9041107892990112 1.0084820985794067 4.4329071044921875 67 67 67
2.0310966968536377 -1.0213524103164673 4.683508396148682 85 85 85
1.1510238647460938 -0.7630385160446167 5.149660587310791 235 235 235
1.6877031326293945 0.4696529805660248 5.217654705047607 175 175 175
-1.0175496339797974 -0.9154326319694519 4.805257320404053 19 19 19
-1.0474168062210083 1.8696495294570923 5.087917804718018 37 37 37
-1.0274091958999634 -0.3024754226207733 4.82190465927124 53 53 53
1.6102384328842163 0.4644757807254791 5.236527442932129 33 33 33
-0.9601734280586243 0.6734297275543213 5.030696392059326 163 163 163
-0.9756680727005005 -0.11572802066802979 4.95323371887207 63 63 63
1.9217503070831299 0.42423689365386963 5.757134914398193 84 84 84
1.6296600103378296 -1.0485836267471313 4.845458030700684 152 152 152
-1.0060608386993408 -0.9110868573188782 4.7771124839782715 20 20 20
-0.4404456615447998 0.9748256802558899 5.733506679534912 27 27 27
1.9217400550842285 0.4242350161075592 5.757098197937012 84 84 84
1.7924318313598633 -1.0348985195159912 4.714060306549072 148 148 148
-1.3835346698760986 0.3599660098552704 4.8273773193359375 144 144 144
0.007240891922265291 1.32054603099823 5.907773494720459 1 1 1
-0.8068332076072693 -1.9330307245254517 4.996777057647705 82 82 82
2.1842949390411377 -0.0520881786942482 5.555074691772461 123 123 123
1.9235540628433228 0.7632123231887817 4.703393459320068 123 123 123
1.9042072296142578 0.486081600189209 5.056568622589111 69 69 69
-0.941524863243103 0.4859251379966736 5.020910739898682 224 224 224
1.3204333782196045 -1.9269126653671265 4.935666084289551 9 9 9
-0.4936007261276245 0.4011538326740265 5.650613307952881 113 113 113
2.2575881481170654 -0.38755738735198975 5.676401615142822 143 143 143
-0.8264960646629333 -1.5399662256240845 5.062065124511719 37 37 37
1.5939083099365234 -0.7825351357460022 5.247470855712891 154 154 154
2.2044878005981445 -0.37592148780822754 5.6912641525268555 12 12 12
-1.0253710746765137 -0.3008962571620941 4.81709098815918 124 124 124
-0.31893569231033325 0.5791124105453491 5.81893253326416 96 96 96
0.4946145713329315 0.9530949592590332 5.53628396987915 55 55 55
1.9884974956512451 0.38300126791000366 5.842772960662842 44 44 44
0.9302837252616882 0.35202476382255554 5.374521732330322 145 145 145
-0.033974502235651016 2.7641170024871826 5.117227554321289 88 88 88
1.6864069700241089 -0.8218207359313965 5.363402366638184 234 234 234
1.2045681476593018 0.5374324321746826 5.422696113586426 81 81 81
1.8221687078475952 1.7145493030548096 4.603548049926758 15 15 15
-0.6275603771209717 0.45071354508399963 5.429605484008789 60 60 60
1.2945576906204224 -0.7593050599098206 5.3286237716674805 166 166 166
1.0501799583435059 0.5599834322929382 5.377616882324219 182 182 182
1.9614900350570679 -0.353542298078537 5.642346382141113 118 118 118
1.974973201751709 -0.3950989842414856 5.705968379974365 2 2 2
1.4906796216964722 0.4593612253665924 5.463395118713379 181 181 181
-0.809041440486908 2.792194128036499 5.242868423461914 146 146 146
-0.4846714735031128 -0.7720179557800293 5.504156589508057 90 90 90
1.6061468124389648 -0.786752462387085 5.127493858337402 220 220 220
1.2838290929794312 0.5452145934104919 5.350288391113281 117 117 117
1.830770492553711 1.698910117149353 4.544660568237305 124 124 124
1.710591197013855 -0.4396863281726837 5.906218528747559 75 75 75
1.4594459533691406 -1.2678892612457275 4.886918067932129 160 160 160
-0.48012575507164 2.7122673988342285 5.473049640655518 131 131 131
1.5327116250991821 -0.7919061779975891 5.083241939544678 18 18 18
1.3116947412490845 -0.8097040057182312 5.1819987297058105 148 148 148
1.2660292387008667 -0.8287360072135925 5.282341480255127 124 124 124
1.2212636470794678 0.5854461789131165 5.430210113525391 166 166 166
1.2144378423690796 0.5793084502220154 5.37233829498291 166 166 166
-0.4728187024593353 0.2236562967300415 5.595608234405518 131 131 131
1.0968269109725952 1.369795322418213 5.12191104888916 37 37 37
-0.6294956207275391 0.607020378112793 5.406310081481934 25 25 25
1.135587453842163 -0.6846206784248352 5.126307964324951 250 250 250
1.303122639656067 1.639354944229126 4.922593593597412 88 88 88
-1.0172829627990723 -1.5008121728897095 4.7052764892578125 132 132 132
-0.6308090090751648 0.6084999442100525 5.410651683807373 25 25 25
-0.6310818195343018 0.6082006692886353 5.411845684051514 25 25 25
-0.15890951454639435 1.121376633644104 6.011246204376221 102 102 102
0.2535690665245056 0.3399307429790497 6.176050186157227 146 146 146
0.7259232401847839 0.7576509118080139 5.337947845458984 175 175 175
-0.8155460953712463 -0.9318414926528931 5.0559000968933105 28 28 28
1.6006190776824951 1.6825900077819824 4.777423858642578 165 165 165
1.1207472085952759 1.4601569175720215 5.149013042449951 164 164 164
-0.9756292700767517 1.6562317609786987 5.126845359802246 1 1 1
1.0953335762023926 2.240400552749634 5.209643840789795 16 16 16
-0.7932969927787781 0.26821061968803406 5.181903839111328 217 217 217
-1.060081958770752 -0.36967533826828003 4.756666660308838 183 183 183
-1.0282198190689087 0.694982647895813 4.930912017822266 5 5 5
-0.004366252571344376 1.1659960746765137 5.896087169647217 124 124 124
1.0250698328018188 0.6406192779541016 5.334498405456543 75 75 75
-0.7850074172019958 0.29309651255607605 5.181426525115967 204 204 204
-0.32577940821647644 2.6951684951782227 5.393890380859375 111 111 111
-0.48164620995521545 0.8169090151786804 5.8416266441345215 199 199 199
1.1037081480026245 1.6437658071517944 5.16463565826416 22 22 22
-0.6416938304901123 0.23222212493419647 5.362295150756836 72 72 72
-0.46860894560813904 0.7899413704872131 5.672123908996582 158 158 158
-0.9857391119003296 0.28894349932670593 4.984283447265625 114 114 114
-0.6522887945175171 1.590472936630249 5.547382831573486 11 11 11
0.21767503023147583 2.713552474975586 5.44209098815918 148 148 148
-1.3878954648971558 0.901691198348999 4.918997287750244 121 121 121
-0.21515263617038727 2.7097086906433105 5.434671401977539 87 87 87
-0.5600898861885071 0.23132313787937164 5.740130424499512 30 30 30
-0.9785392880439758 -1.7018659114837646 4.758223056793213 73 73 73
1.6260747909545898 -0.8568870425224304 4.86614990234375 118 118 118
-0.5983631610870361 -2.2267215251922607 5.112563610076904 60 60 60
-0.47338300943374634 -2.2372090816497803 5.168880939483643 140 140 140
1.1862953901290894 2.065157890319824 5.241489410400391 79 79 79
1.0934274196624756 1.830934762954712 5.15729284286499 37 37 37
-0.7941601872444153 1.0303884744644165 5.26111364364624 82 82 82
1.1436775922775269 -0.7136245965957642 5.149788856506348 172 172 172
-0.7984618544578552 -1.3190134763717651 5.009527206420898 32 32 32
1.4486064910888672 0.437677264213562 5.228029727935791 170 170 170
-0.401540070772171 -2.2492849826812744 5.264865875244141 43 43 43
-0.3158785104751587 -0.20244374871253967 5.782032489776611 14 14 14
1.8413878679275513 -0.8662991523742676 4.835326194763184 114 114 114
1.2060186862945557 1.6198921203613281 5.0464582443237305 25 25 25
1.623630166053772 -0.8141099214553833 5.127467632293701 98 98 98
1.4497159719467163 -0.8168972134590149 5.272513389587402 196 196 196
-0.17642265558242798 2.682480812072754 5.104221820831299 130 130 130
-0.979800820350647 1.0632222890853882 5.069039821624756 136 136 136
1.6085740327835083 0.43545159697532654 5.412827491760254 74 74 74
-0.4996057450771332 -2.1633753776550293 5.246318817138672 42 42 42
-1.1682319641113281 -1.2796766757965088 4.526818752288818 9 9 9
-0.8239611387252808 -0.5256778001785278 5.0589680671691895 28 28 28
1.3432559967041016 1.2853798866271973 4.988831043243408 13 13 13
1.87399423122406 -0.5418561100959778 5.8993377685546875 72 72 72
1.1562036275863647 1.2673819065093994 5.103829860687256 121 121 121
-0.6346887350082397 0.05164088308811188 5.381539821624756 235 235 235
-1.1880253553390503 0.7203783988952637 4.731809616088867 149 149 149
1.9005757570266724 0.4856996536254883 5.046014308929443 52 52 52
-0.6887932419776917 2.7215328216552734 5.261561393737793 139 139 139
1.763075351715088 1.5104150772094727 4.635948181152344 132 132 132
-0.7934955358505249 0.2686714828014374 5.182743549346924 217 217 217
1.694742202758789 -0.9258345365524292 5.858932018280029 164 164 164
-0.9756154417991638 1.6562132835388184 5.126796722412109 1 1 1
1.199331283569336 1.627426028251648 5.050612926483154 138 138 138
-0.9469621777534485 1.0509729385375977 5.0650105476379395 42 42 42
1.2044976949691772 1.6120883226394653 5.02815580368042 30 30 30
-0.6201996803283691 0.2288842499256134 5.4075927734375 25 25 25
-0.9443792104721069 0.48640176653862 5.028381824493408 224 224 224
-1.3739069700241089 -1.1076593399047852 4.661652088165283 116 116 116
1.1120918989181519 1.6293437480926514 5.136186122894287 68 68 68
1.995389699935913 -0.06821972876787186 5.337050914764404 63 63 63
-0.630041778087616 0.6085949540138245 5.413025856018066 122 122 122
-1.1639072895050049 -0.9096346497535706 4.541799068450928 143 143 143
1.5663232803344727 1.6721227169036865 4.798109531402588 155 155 155
1.610224962234497 0.4644656479358673 5.2364821434021 33 33 33
1.950114130973816 -0.7831228375434875 4.868204116821289 153 153 153
1.7182199954986572 0.18467769026756287 5.96848726272583 145 145 145
1.6129958629608154 -0.7688794136047363 5.051965713500977 171 171 171
1.6006300449371338 1.682606816291809 4.777454376220703 165 165 165
-1.3774511814117432 -0.5132095813751221 4.7478742599487305 53 53 53
1.5659998655319214 1.6889958381652832 4.773059368133545 134 134 134
1.219800353050232 -2.0788450241088867 4.709738731384277 59 59 59
1.457991600036621 0.45781072974205017 5.6298089027404785 94 94 94
1.45798921585083 0.4578092396259308 5.629796028137207 94 94 94
-0.9674686789512634 1.4471074342727661 5.123374938964844 142 142 142
1.1510285139083862 -0.7630442380905151 5.149697780609131 235 235 235
-0.9499464631080627 1.4183275699615479 5.108675956726074 123 123 123
1.5682541131973267 -0.8054035902023315 5.184488773345947 25 25 25
1.572413444519043 -0.8154954314231873 5.246911525726318 118 118 118
2.0530569553375244 -0.33768606185913086 5.75458288192749 139 139 139
1.8845831155776978 0.42884624004364014 5.8206892013549805 142 142 142
-0.48579034209251404 0.026697631925344467 5.63279390335083 69 69 69
1.0259228944778442 0.5775930285453796 5.407867908477783 5 5 5
1.698684573173523 -1.4950143098831177 4.757896900177002 78 78 78
1.8327025175094604 1.7014089822769165 4.5489959716796875 124 124 124
-0.7901102900505066 0.03997894749045372 5.063889980316162 153 153 153
1.2638425827026367 0.5245881676673889 5.463038444519043 254 254 254
-0.49959614872932434 -2.1633460521698 5.246231555938721 42 42 42
1.1510308980941772 -0.7630094289779663 5.149431228637695 235 235 235
-1.3769679069519043 0.31028687953948975 4.809383392333984 44 44 44
1.0259312391281128 0.5775969624519348 5.4078779220581055 5 5 5
-1.0244001150131226 1.2630209922790527 4.996634006500244 163 163 163
-0.9365780353546143 0.6709792017936707 5.02468204498291 75 75 75
-0.9694334864616394 1.2598732709884644 5.097653865814209 34 34 34
2.2045295238494873 -0.375921368598938 5.6913838386535645 12 12 12
1.2175936698913574 0.5114852786064148 5.417393207550049 6 6 6
1.59930419921875 -0.7813023328781128 5.097835063934326 203 203 203
-1.0138452053070068 0.8581239581108093 4.951178073883057 153 153 153
-0.957134485244751 0.47865796089172363 4.975652694702148 32 32 32
1.1178960800170898 1.246731162071228 5.147963523864746 123 123 123
-1.010454535484314 0.3039674758911133 4.892194747924805 164 164 164
1.3204209804534912 -1.92689049243927 4.935614585876465 9 9 9
-0.9840639233589172 0.8741307854652405 5.055653095245361 56 56 56
0.683265745639801 0.9782677292823792 5.435250282287598 42 42 42
-0.8049454689025879 0.645487368106842 5.234149932861328 34 34 34
1.6102374792099 0.4644760489463806 5.236520767211914 33 33 33
1.8741015195846558 -0.5418902635574341 5.899709701538086 72 72 72
-0.9741034507751465 -1.6978214979171753 4.7478790283203125 73 73 73
-0.9017202258110046 0.6682372689247131 5.177007675170898 75 75 75
-0.6149861216545105 2.7231268882751465 5.364882469177246 120 120 120
1.1510155200958252 -0.7630012035369873 5.149385452270508 235 235 235
-1.1652674674987793 -1.2762517929077148 4.515237808227539 13 13 13
-1.0129653215408325 -1.1093430519104004 4.7451677322387695 18 18 18
1.5012648105621338 -1.4147651195526123 4.99672269821167 96 96 96
1.2211298942565918 0.5853811502456665 5.429667949676514 166 166 166
-0.5367474555969238 0.22115695476531982 5.500019073486328 138 138 138
-0.45593076944351196 0.5993406176567078 5.705180644989014 36 36 36
1.3859673738479614 -0.7825117111206055 5.157062530517578 200 200 200
1.7914214134216309 -0.7914132475852966 5.073642730712891 170 170 170
0.6913725733757019 0.992595374584198 5.393710613250732 38 38 38
-1.1880499124526978 0.7203912734985352 4.731889247894287 149 149 149
-0.7909730076789856 0.29384759068489075 5.198132514953613 209 209 209
-1.0608834028244019 -0.3681415021419525 4.7605462074279785 188 188 188
-1.0478461980819702 0.8800299167633057 4.973433017730713 72 72 72
0.007240891922265291 1.32054603099823 5.907773494720459 1 1 1
-0.8040837049484253 -0.7360455989837646 5.057281494140625 24 24 24
-0.4801141619682312 2.7121894359588623 5.472931385040283 131 131 131
-0.7909714579582214 2.7557733058929443 5.05884313583374 84 84 84
0.060706887394189835 1.3376086950302124 5.878080368041992 4 4 4
-0.0005359337665140629 0.4837138056755066 6.066633224487305 101 101 101
-1.1811968088150024 0.5138660073280334 4.681454658508301 0 0 0
-0.5145725607872009 0.407453715801239 5.571788311004639 29 29 29
2.0530340671539307 -0.33767756819725037 5.754501819610596 139 139 139
-1.1665529012680054 -0.707961916923523 4.569407939910889 142 142 142
1.1526715755462646 1.2571724653244019 5.062591075897217 83 83 83
-0.5982632040977478 -2.22662615776062 5.112264156341553 60 60 60
1.3162213563919067 -1.9783504009246826 4.919684410095215 81 81 81
1.7084741592407227 -0.8774489164352417 4.8133955001831055 122 122 122
1.6877151727676392 0.4696500599384308 5.217698574066162 175 175 175
-0.10692249983549118 2.708362340927124 5.459287643432617 147 147 147
-0.47556766867637634 0.9904119968414307 5.717933177947998 17 17 17
1.2824801206588745 1.4889376163482666 5.155370712280273 64 64 64
-0.48015105724334717 0.8122780323028564 5.818599224090576 193 193 193
1.573746919631958 0.460997074842453 5.258040428161621 44 44 44
0.4406043589115143 1.9700303077697754 5.679327964782715 11 11 11
-0.8326298594474792 2.7711217403411865 5.135470390319824 40 40 40
-1.1877552270889282 1.6623530387878418 4.845883846282959 102 102 102
-0.5034037232398987 0.8134142756462097 5.803325653076172 96 96 96
1.571521282196045 1.516449213027954 4.829189300537109 128 128 128
1.4376388788223267 0.4048554301261902 5.386946678161621 30 30 30
1.2632566690444946 -1.9732704162597656 4.95715856552124 91 91 91
1.6381299495697021 2.0464298725128174 4.781559944152832 17 17 17
1.1862950325012207 2.0651562213897705 5.241485118865967 79 79 79
1.1121922731399536 1.652558445930481 5.127084732055664 40 40 40
-0.18582312762737274 0.5570893287658691 6.0411295890808105 15 15 15
-0.9865679144859314 -1.504841923713684 4.730812072753906 160 160 160
-1.3551963567733765 -0.49054867029190063 4.749815940856934 6 6 6
-0.5850405693054199 0.6120210289955139 5.512660026550293 110 110 110
-0.9720157384872437 -0.1307263970375061 4.950394153594971 26 26 26
1.202802062034607 0.5400786995887756 5.420001029968262 106 106 106
1.0250747203826904 0.6406275033950806 5.334557056427002 75 75 75
-0.47341156005859375 -2.237182378768921 5.168825149536133 140 140 140
-0.3183337450027466 0.5771663784980774 5.813923358917236 101 101 101
-0.8041079044342041 -0.7360585927963257 5.057374000549316 24 24 24
-1.1938458681106567 1.8862866163253784 4.864178657531738 127 127 127
-0.4404542148113251 0.9748334884643555 5.733545780181885 27 27 27
2.245842933654785 -0.6203357577323914 5.699297904968262 123 123 123
1.0546766519546509 0.5627153515815735 5.399858474731445 156 156 156
-0.9756314754486084 -0.11570966243743896 4.953132629394531 63 63 63
1.6612696647644043 -0.25534170866012573 5.77877140045166 135 135 135
1.7184051275253296 -0.8834779858589172 4.840918064117432 115 115 115
1.748595118522644 -0.8179581761360168 4.652824401855469 151 151 151
0.4406038522720337 1.970029592514038 5.679327964782715 11 11 11
0.5305172204971313 0.9472704529762268 5.450937271118164 29 29 29
1.566319465637207 1.672101616859436 4.798031330108643 155 155 155
-1.11016047000885 -2.106842041015625 4.476428985595703 163 163 163
-0.7822414636611938 0.6522080302238464 5.248171806335449 182 182 182
0.4944981634616852 0.9528351426124573 5.535828590393066 60 60 60
-0.46622875332832336 0.7822825312614441 5.634862899780273 173 173 173
0.6935444474220276 1.0002785921096802 5.419727325439453 61 61 61
1.5487507581710815 1.276625394821167 4.795803070068359 2 2 2
-1.0174365043640137 -0.9153701066970825 4.80496072769165 19 19 19
-0.5078027248382568 0.00780282961204648 5.616665363311768 147 147 147
-1.2024763822555542 1.3015875816345215 4.818224906921387 37 37 37
-0.3029635548591614 -2.4873476028442383 5.694695949554443 104 104 104
1.0137922763824463 1.3952535390853882 5.13930082321167 127 127 127
-0.598366916179657 -2.2267918586730957 5.1126203536987305 60 60 60
1.3580902814865112 0.42491036653518677 5.246710300445557 172 172 172
-0.9466714262962341 1.4155912399291992 5.111335277557373 101 101 101
1.8404041528701782 -1.2388113737106323 4.621321678161621 153 153 153
-0.49959251284599304 -2.163365125656128 5.246280670166016 42 42 42
-1.2021291255950928 1.1129990816116333 4.78313684463501 141 141 141
-0.9674463272094727 1.447029948234558 5.123198986053467 142 142 142
-0.49958980083465576 -2.1633195877075195 5.2461676597595215 42 42 42
1.7630702257156372 1.5104033946990967 4.635922431945801 132 132 132
-0.9722495675086975 -0.13093964755535126 4.951499938964844 26 26 26
-0.9263956546783447 -0.1286928355693817 4.830451965332031 56 56 56
1.1207728385925293 1.4601935148239136 5.149104118347168 164 164 164
-0.18605805933475494 -2.1994850635528564 5.485373497009277 95 95 95
-0.9694488644599915 1.2599217891693115 5.097815990447998 34 34 34
1.8099466562271118 -1.1410415172576904 4.751659393310547 17 17 17
1.2632277011871338 -1.9731965065002441 4.957003116607666 91 91 91
1.4595630168914795 -1.2679822444915771 4.887322425842285 160 160 160
-0.622869610786438 0.6343356370925903 5.671069622039795 91 91 91
-0.4662383496761322 0.7822880148887634 5.6349196434021 173 173 173
1.3418265581130981 -1.2851788997650146 4.987719535827637 145 145 145
-1.014112949371338 1.0794785022735596 4.991763114929199 155 155 155
-1.060970425605774 -0.3682076930999756 4.760934829711914 188 188 188
-1.1686275005340576 -1.6812355518341064 4.4476318359375 116 116 116
-0.9571425914764404 0.4786589741706848 4.975681304931641 32 32 32
1.3444405794143677 0.4357002377510071 5.4200639724731445 205 205 205
-0.9293114542961121 1.6023575067520142 4.997758865356445 66 66 66
1.6179163455963135 -1.0926710367202759 4.835202693939209 72 72 72
1.7523306608200073 1.8912135362625122 4.6446967124938965 92 92 92
1.5615839958190918 0.4258505403995514 5.645717620849609 79 79 79
-0.4306126534938812 -1.9417325258255005 5.379340171813965 118 118 118
1.4460651874542236 0.4213467538356781 5.596994876861572 209 209 209
-0.8066112399101257 0.04530152678489685 5.179553508758545 173 173 173
1.5485073328018188 1.6842085123062134 4.807828903198242 144 144 144
1.112091064453125 1.6293458938598633 5.1361823081970215 68 68 68
-0.5145899653434753 0.4074592888355255 5.571841716766357 29 29 29
-1.3835400342941284 0.3599669635295868 4.827395439147949 144 144 144
-1.0282059907913208 0.6949666738510132 4.9308671951293945 5 5 5
2.145355224609375 0.27182671427726746 5.804208755493164 226 226 226
-1.373900055885315 -1.1076629161834717 4.66164493560791 116 116 116
-0.9865626096725464 -0.47731879353523254 4.703567981719971 57 57 57
2.0006766319274902 0.3987887501716614 5.805812358856201 209 209 209
0.9798555970191956 -1.8630965948104858 5.428703784942627 163 163 163
1.7069461345672607 1.6611939668655396 4.541791915893555 90 90 90
-1.1884956359863281 0.9135150909423828 4.768437385559082 150 150 150
-0.18781450390815735 0.5592942237854004 6.055069446563721 16 16 16
1.0509350299835205 0.5593895316123962 5.38525915145874 96 96 96
1.7941263914108276 1.5266799926757812 4.668500900268555 30 30 30
1.3732346296310425 0.4469618499279022 5.642859935760498 4 4 4
-0.824194073677063 -0.7554419636726379 5.183884143829346 86 86 86
1.5456080436706543 1.6655017137527466 4.8261260986328125 88 88 88
1.0259227752685547 0.5775983929634094 5.407878398895264 5 5 5
-1.0600892305374146 -0.36967143416404724 4.756690502166748 183 183 183
-0.633259117603302 0.4568217396736145 5.441378593444824 92 92 92
-1.3774527311325073 -0.5132111310958862 4.747877597808838 53 53 53
-0.4763333797454834 -0.4076571464538574 5.538544178009033 61 61 61
-0.4688948392868042 -0.38179826736450195 5.5011773109436035 170 170 170
-0.4688909947872162 -0.3817911446094513 5.501162528991699 170 170 170
-0.6285572052001953 0.6077487468719482 5.407043933868408 25 25 25
-0.7916955351829529 0.2912769317626953 5.19697904586792 184 184 184
-1.0172902345657349 -1.5008167028427124 4.70529317855835 132 132 132
-0.5757778882980347 2.7003989219665527 5.31289005279541 83 83 83
-1.0026769638061523 0.2749357223510742 4.938568115234375 147 147 147
-1.2104003429412842 0.9172044992446899 4.769464492797852 151 151 151
-1.5404932498931885 -1.8450428247451782 4.542550563812256 79 79 79
-0.6561867594718933 -0.1753237545490265 5.521572113037109 58 58 58
-0.9564075469970703 0.26195862889289856 4.955470561981201 135 135 135
-0.9823080897331238 1.065273404121399 5.081079959869385 136 136 136
-0.7995219826698303 0.45021361112594604 5.16079044342041 123 123 123
-0.7869170904159546 0.26512080430984497 5.164306163787842 183 183 183
-1.3529982566833496 -0.4923088848590851 4.745306968688965 5 5 5
2.204528331756592 -0.3759221136569977 5.691381931304932 12 12 12
-1.0482702255249023 1.8707436323165894 5.091513156890869 37 37 37
-1.3482105731964111 -0.2931866943836212 4.747257709503174 160 160 160
1.9702564477920532 -0.3310231566429138 5.5257248878479 207 207 207
1.7744156122207642 1.7276077270507812 4.641720294952393 140 140 140
1.3111859560012817 -0.7770344614982605 5.308819770812988 190 190 190
-0.9564173817634583 0.8705862760543823 5.044881820678711 160 160 160
0.4161786437034607 1.3734686374664307 5.619589328765869 141 141 141
1.095993161201477 2.0337905883789062 5.200236797332764 84 84 84
1.9372684955596924 0.4897827208042145 5.014714241027832 161 161 161
-0.48977333307266235 -0.7769526243209839 5.522186756134033 66 66 66
-0.9879148602485657 -0.941095769405365 4.947080135345459 76 76 76
-0.6149899959564209 0.2278054654598236 5.388200759887695 28 28 28
-0.6416499018669128 0.2322043478488922 5.362131118774414 72 72 72
1.2786498069763184 -0.8095078468322754 5.322457790374756 218 218 218
-0.7963600754737854 0.4318125247955322 5.224878787994385 144 144 144
1.5735723972320557 -0.7977553009986877 5.18851900100708 129 129 129
1.0754482746124268 1.8521320819854736 5.190854072570801 130 130 130
-1.1609444618225098 -0.7060613632202148 4.557473182678223 137 137 137
1.8062461614608765 -0.7292835712432861 4.6870622634887695 171 171 171
1.2689751386642456 -0.8329614996910095 5.302175045013428 140 140 140
0.4305773079395294 1.179782748222351 5.59837007522583 61 61 61
-0.7878226637840271 1.0604277849197388 5.283999919891357 64 64 64
1.807537317276001 -0.7760899662971497 4.957067966461182 241 241 241
-1.3879307508468628 0.9017025828361511 4.919045448303223 121 121 121
0.9469407200813293 1.8254039287567139 5.296488285064697 48 48 48
1.222867727279663 0.5191117525100708 5.292614459991455 170 170 170
1.6612581014633179 -0.25534364581108093 5.7787184715271 135 135 135
-0.8049229383468628 0.6454743146896362 5.234095573425293 34 34 34
1.4855817556381226 -1.4458104372024536 4.971731185913086 17 17 17
1.6006097793579102 1.6825745105743408 4.777392387390137 165 165 165
-1.3907179832458496 0.6834937334060669 4.870855808258057 75 75 75
1.7571369409561157 1.5053075551986694 4.620713233947754 131 131 131
-1.0284485816955566 0.29723599553108215 4.886085033416748 45 45 45
2.032886266708374 -0.6722493767738342 5.660810470581055 58 58 58
-0.7752243280410767 0.649439811706543 5.203813076019287 133 133 133
1.1442999839782715 -0.7775947451591492 5.087795734405518 82 82 82
-1.0194429159164429 1.0859289169311523 5.02032470703125 188 188 188
1.2175599336624146 0.511486828327179 5.417139530181885 6 6 6
1.2093850374221802 1.6160755157470703 5.042469024658203 78 78 78
-0.8189160227775574 0.05753011256456375 5.128514766693115 62 62 62
-1.3838642835617065 0.2918895184993744 4.835866451263428 9 9 9
-0.982348620891571 1.0653067827224731 5.081203937530518 136 136 136
2.039172649383545 -0.7231450080871582 5.670902729034424 198 198 198
1.8154489994049072 0.419182151556015 5.684546947479248 172 172 172
-1.0307245254516602 -0.32512304186820984 4.791248321533203 126 126 126
-1.033792495727539 -1.9045578241348267 4.6598286628723145 29 29 29
-1.5404927730560303 -1.8450437784194946 4.5425496101379395 79 79 79
-0.7967671155929565 -0.12495192885398865 5.113712310791016 131 131 131
-0.6311977505683899 0.6084557771682739 5.4132866859436035 25 25 25
-1.5405073165893555 -1.8450618982315063 4.542577266693115 79 79 79
-0.18878936767578125 -2.206080675125122 5.492999076843262 134 134 134
1.3161962032318115 -1.978281021118164 4.919533729553223 81 81 81
-1.0716862678527832 0.901832640171051 5.088568687438965 60 60 60
-0.18032939732074738 -2.1816091537475586 5.44882345199585 75 75 75
-0.9603657722473145 1.0330497026443481 5.064635276794434 125 125 125
-0.7995235323905945 0.4502112567424774 5.160805702209473 123 123 123
-0.7845810055732727 0.42323747277259827 5.174126148223877 124 124 124
1.3397800922393799 0.4340484142303467 5.402980327606201 211 211 211
1.5707212686538696 1.6717435121536255 4.755697727203369 22 22 22
1.5487511157989502 1.2766250371932983 4.795801639556885 2 2 2
-0.8106066584587097 0.25960689783096313 5.154419422149658 114 114 114
-0.9674363732337952 1.4470198154449463 5.123170375823975 142 142 142
-0.6230087876319885 0.6255026459693909 5.526498794555664 202 202 202
-0.8260891437530518 -1.5398492813110352 5.060035228729248 37 37 37
1.5597283840179443 1.6938482522964478 4.794262409210205 139 139 139
1.4489833116531372 -0.32808682322502136 3.5313870906829834 150 150 150
-0.793850302696228 0.2703631520271301 5.1887640953063965 206 206 206
-0.9229342937469482 1.2218585014343262 4.972174644470215 106 106 106
-0.799831748008728 0.2810075879096985 5.136630535125732 117 117 117
1.3298187255859375 1.4547219276428223 4.931938171386719 61 61 61
-0.7819879651069641 0.6416516304016113 5.2502264976501465 22 22 22
1.7183517217636108 -0.5918192267417908 5.922055721282959 32 32 32
-1.0104155540466309 1.047238826751709 4.850370407104492 32 32 32
1.5662857294082642 1.6719692945480347 4.79756498336792 155 155 155
1.3296321630477905 1.462587833404541 5.005013942718506 87 87 87
-1.1565415859222412 -0.7050848603248596 4.548136234283447 137 137 137
1.923746109008789 -0.3832257091999054 5.55157470703125 127 127 127
-0.9366225004196167 1.4003328084945679 5.0830583572387695 99 99 99
1.7736365795135498 -1.5764375925064087 4.7298903465271 17 17 17
1.5226422548294067 1.6366374492645264 4.761359214782715 116 116 116
-0.20680087804794312 0.930286169052124 6.062191963195801 22 22 22
-1.1760590076446533 1.259320855140686 4.776261329650879 68 68 68
-0.7815459370613098 0.8073805570602417 5.241603374481201 120 120 120
-1.0260697603225708 -0.08290210366249084 4.834108352661133 16 16 16
1.1179202795028687 1.246794581413269 5.1481828689575195 123 123 123
-1.028175711631775 0.6949539184570312 4.930791854858398 5 5 5
-1.3793309926986694 -0.5128105878829956 4.754377841949463 21 21 21
1.117909550666809 1.246766448020935 5.148094177246094 123 123 123
1.268996238708496 -0.8329828977584839 5.302303314208984 110 110 110
0.8467064499855042 2.1573543548583984 5.343551158905029 83 83 83
1.2475831508636475 1.4206156730651855 4.976909637451172 103 103 103
-0.1462969332933426 -1.1721569299697876 5.709666728973389 42 42 42
-1.3716421127319336 -0.9132322669029236 4.701913833618164 53 53 53
-1.1798633337020874 1.0739140510559082 4.76310920715332 89 89 89
-1.0112406015396118 -0.49269869923591614 4.821147441864014 166 166 166
-0.3029400110244751 -2.4872617721557617 5.6945013999938965 104 104 104
-0.5983754396438599 -2.2268154621124268 5.112668514251709 60 60 60
-0.4733560085296631 -2.236877679824829 5.168172359466553 140 140 140
1.025919795036316 0.5775948762893677 5.407834529876709 5 5 5
1.3278343677520752 -2.023592948913574 5.055765151977539 74 74 74
-0.7893556356430054 1.0637222528457642 5.29062032699585 53 53 53
1.120746374130249 1.4601521492004395 5.148993968963623 164 164 164
1.0953279733657837 2.2403881549835205 5.209612846374512 16 16 16
-1.0600820779800415 -0.36967507004737854 4.756667137145996 183 183 183
-1.0261276960372925 -0.08290122449398041 4.8342437744140625 16 16 16
1.6918648481369019 -0.8692561388015747 4.754356384277344 114 114 114
1.804800271987915 -1.6214605569839478 4.695240020751953 28 28 28
1.7570366859436035 1.505234718322754 4.6204986572265625 131 131 131
2.100951671600342 -0.18960832059383392 5.767511367797852 177 177 177
1.6273298263549805 -0.8756699562072754 4.829854965209961 13 13 13
2.1144938468933105 0.2645476460456848 5.703342914581299 239 239 239
-0.942654550075531 1.2287527322769165 4.961756706237793 80 80 80
1.8028484582901 -1.2591438293457031 4.723901748657227 138 138 138
-1.3351539373397827 -1.4989571571350098 4.628850936889648 64 64 64
1.2997967004776 0.43046125769615173 5.488394737243652 133 133 133
-0.6090043187141418 0.42647692561149597 5.450693607330322 151 151 151
-1.1611664295196533 1.4771078824996948 4.793853759765625 163 163 163
-0.8169569969177246 -0.1157173290848732 5.104152202606201 4 4 4
-0.489769846200943 -0.7769489288330078 5.522171497344971 66 66 66
-1.0039750337600708 1.7005314826965332 5.2707085609436035 56 56 56
1.6818873882293701 -0.796843945980072 5.269036293029785 122 122 122
-1.3769406080245972 0.31027981638908386 4.809331893920898 44 44 44
0.8454383015632629 1.3851860761642456 5.285123825073242 57 57 57
1.5258796215057373 -1.3733773231506348 4.901460647583008 29 29 29
-0.46624240279197693 0.7822999954223633 5.634988307952881 173 173 173
-1.1879358291625977 1.6518380641937256 4.8504509925842285 100 100 100
0.6984336376190186 1.2077046632766724 5.46947717666626 5 5 5
-1.1062191724777222 -2.102649688720703 4.468197345733643 163 163 163
1.5397990942001343 -1.4130980968475342 4.904806613922119 20 20 20
-0.07109906524419785 1.1328917741775513 5.963745594024658 58 58 58
1.6769347190856934 -0.9220210909843445 5.0367021560668945 71 71 71
-0.4687078297138214 0.7902233004570007 5.673534870147705 158 158 158
-0.3234966993331909 0.5388686656951904 5.805785655975342 103 103 103
1.744960904121399 1.8688234090805054 4.666750907897949 104 104 104
-0.6323419809341431 0.794010579586029 5.424335956573486 50 50 50
1.797269582748413 -0.8617633581161499 4.710813999176025 31 31 31
1.5965250730514526 -1.5132310390472412 4.811800956726074 68 68 68
1.0489156246185303 0.556056022644043 5.366874694824219 96 96 96
1.4030712842941284 -1.2810975313186646 4.951601982116699 147 147 147
0.7173143029212952 0.9700058102607727 5.359564781188965 32 32 32
1.90057373046875 0.4856995642185211 5.046029090881348 52 52 52
1.611430287361145 -1.1501702070236206 4.7496819496154785 69 69 69
-0.6144777536392212 0.22885945439338684 5.395497798919678 19 19 19
1.3031672239303589 -0.7699058651924133 5.257089614868164 129 129 129
1.5833741426467896 1.4172111749649048 4.609551906585693 114 114 114
0.4898346960544586 1.1781604290008545 5.575590133666992 4 4 4
1.7450666427612305 1.8781992197036743 4.619032382965088 76 76 76
1.7314289808273315 1.869530439376831 4.660844802856445 118 118 118
2.0642151832580566 -0.17495210468769073 5.795129299163818 254 254 254
1.3700060844421387 -2.1145904064178467 4.693744659423828 83 83 83
1.218183994293213 -2.1124653816223145 4.71999979019165 103 103 103
-0.6337407827377319 -0.16441236436367035 5.336549282073975 5 5 5
-0.2863382399082184 -2.45676851272583 5.57213020324707 55 55 55
-0.4013316333293915 -2.276371717453003 5.185329437255859 59 59 59
-1.3285562992095947 0.2817491292953491 4.7237229347229 80 80 80
-1.432515025138855 -1.916540265083313 4.4946136474609375 82 82 82
-1.3342487812042236 -1.895080327987671 4.560422420501709 27 27 27
-1.04429030418396 -1.9160088300704956 4.684487342834473 29 29 29
-1.5404912233352661 -1.8450406789779663 4.542545318603516 79 79 79
-1.5404977798461914 -1.8450533151626587 4.5425591468811035 79 79 79
-0.21734821796417236 -2.2789981365203857 5.666524410247803 112 112 112
-0.3247419595718384 -0.20541147887706757 5.949357032775879 32 32 32
-0.1860531121492386 -2.1994736194610596 5.485373020172119 95 95 95
-1.5137202739715576 -1.8155792951583862 4.545050621032715 154 154 154
0.9184051156044006 0.35596880316734314 5.435705184936523 188 188 188
-0.5337992906570435 0.4197903871536255 5.774206161499023 71 71 71
1.0727914571762085 1.8592658042907715 5.206485748291016 77 77 77
1.6694854497909546 -0.2694702744483948 5.9428181648254395 209 209 209
2.02993106842041 -0.34843379259109497 5.790775299072266 252 252 252
1.5822817087173462 1.6932188272476196 4.798440456390381 19 19 19
1.84249746799469 0.42931464314460754 5.796842575073242 155 155 155
1.2784111499786377 -0.7571001052856445 5.249053478240967 88 88 88
1.1371289491653442 -0.7387338876724243 5.110497951507568 234 234 234
-0.26969683170318604 -1.9790760278701782 5.619075775146484 101 101 101
1.7725744247436523 -1.6357121467590332 4.6894145011901855 64 64 64
1.6941258907318115 -0.3787941038608551 5.9630231857299805 208 208 208
1.757037878036499 1.5052359104156494 4.620502948760986 131 131 131
1.772096037864685 1.5054608583450317 4.6051716804504395 24 24 24
1.294079065322876 -0.8223698735237122 5.384591102600098 188 188 188
1.2207000255584717 1.642897129058838 5.088428974151611 58 58 58
-1.3482117652893066 -0.2931863069534302 4.747284889221191 160 160 160
1.253193974494934 1.612591028213501 5.006720542907715 167 167 167
-0.6316701173782349 0.6098759174346924 5.419030666351318 122 122 122
1.1962270736694336 1.6348191499710083 5.084137439727783 134 134 134
1.588624119758606 1.5287584066390991 4.791259288787842 132 132 132
1.2722845077514648 1.6051586866378784 5.041732311248779 121 121 121
1.0924274921417236 1.6007068157196045 5.050195693969727 53 53 53
1.6480863094329834 -1.5465495586395264 4.750208854675293 92 92 92
1.2926212549209595 -0.7970114350318909 5.102993011474609 150 150 150
1.608627200126648 1.463260531425476 4.724021911621094 72 72 72
1.268993616104126 -0.8329786062240601 5.302274703979492 110 110 110
1.9955036640167236 -0.3694112300872803 5.698275566101074 162 162 162
-1.1652729511260986 1.481927752494812 4.80394172668457 163 163 163
1.8749884366989136 -0.3857818841934204 5.692764759063721 247 247 247
1.593665599822998 1.4286489486694336 4.69227409362793 36 36 36
-0.5867259502410889 0.6139025092124939 5.528591156005859 88 88 88
1.2211453914642334 0.5853674411773682 5.429664611816406 74 74 74
-0.8122778534889221 0.6645645499229431 5.1932373046875 143 143 143
1.7042317390441895 -1.4811793565750122 4.7782721519470215 151 151 151
-1.0015003681182861 0.6885367631912231 4.918185234069824 178 178 178
1.632947325706482 -0.8830468058586121 4.862008571624756 40 40 40
1.360677719116211 1.529292345046997 5.184675693511963 67 67 67
-1.078513264656067 0.7184944152832031 5.057782173156738 78 78 78
-1.0063667297363281 1.471100091934204 5.061417579650879 116 116 116
-1.06573486328125 1.4923274517059326 5.120818614959717 18 18 18
1.1207472085952759 1.460176706314087 5.149066925048828 164 164 164
-0.973090648651123 1.43148672580719 5.024508953094482 125 125 125
-0.8465200662612915 -0.5428975820541382 4.993704319000244 113 113 113
1.0761834383010864 1.416204571723938 5.144232273101807 153 153 153
-1.3793326616287231 -0.5128098130226135 4.75438117980957 21 21 21
-1.202476143836975 1.3015835285186768 4.81821346282959 37 37 37
1.2151038646697998 0.5117123126983643 5.236608982086182 170 170 170
-0.4003715515136719 0.19571568071842194 5.539834022521973 0 0 0
-1.1774133443832397 1.2639826536178589 4.794140815734863 119 119 119
-1.0170025825500488 0.8479219675064087 4.956653594970703 158 158 158
0.8335819244384766 1.3698755502700806 5.240110874176025 101 101 101
1.6775901317596436 -0.609924852848053 5.87168025970459 138 138 138
-0.6574385166168213 0.4565409719944 5.439696788787842 147 147 147
-1.01603364944458 0.48342493176460266 4.884335994720459 88 88 88
-0.7995048761367798 0.45020896196365356 5.160745143890381 123 123 123
-0.6255109310150146 0.4606548547744751 5.391317844390869 51 51 51
1.577512502670288 0.46230220794677734 5.270294666290283 44 44 44
1.4771124124526978 -1.2427263259887695 4.948392868041992 26 26 26
1.921754002571106 0.42423808574676514 5.757153511047363 84 84 84
-0.8135688304901123 1.0536208152770996 5.386727809906006 42 42 42
0.7790990471839905 -0.43005871772766113 1.739606261253357 31 31 31
0.6996465921401978 1.2100685834884644 5.468883514404297 7 7 7
-1.01041579246521 1.0472383499145508 4.850370407104492 32 32 32
-0.7913706302642822 1.0680409669876099 5.278226375579834 108 108 108
-1.373907208442688 -1.1076594591140747 4.661652565002441 116 116 116
-0.960801362991333 1.0328322649002075 5.0820207595825195 125 125 125
-1.0089143514633179 1.079345464706421 4.993674278259277 179 179 179
-1.3729113340377808 -0.09759768843650818 4.782123565673828 22 22 22
-0.7806383371353149 0.2732778489589691 5.147271633148193 138 138 138
-0.9514659643173218 0.25521793961524963 4.9516682624816895 113 113 113
-1.0110349655151367 -0.0877154991030693 4.890517711639404 107 107 107
2.1091854572296143 0.2695017158985138 5.775659084320068 178 178 178
-0.5060106515884399 -0.0027725480031222105 5.515162944793701 139 139 139
1.5141396522521973 2.0583841800689697 4.851929664611816 28 28 28
1.0953149795532227 2.240351915359497 5.209559440612793 16 16 16
0.1229684129357338 2.738109827041626 5.305429935455322 71 71 71
-1.0325018167495728 -1.107555866241455 4.733895778656006 26 26 26
-0.3158726096153259 -0.2024509161710739 5.782007694244385 14 14 14
-0.4774678647518158 -0.1675788015127182 5.584597110748291 53 53 53
1.5446590185165405 0.4165624976158142 5.407615661621094 198 198 198
1.2369780540466309 1.9840974807739258 4.943999290466309 51 51 51
-0.9181994199752808 -0.5299251079559326 4.859237194061279 116 116 116
1.2066376209259033 0.4766896963119507 5.383055686950684 36 36 36
1.7129555940628052 -0.8901385068893433 4.886903762817383 36 36 36
1.2057806253433228 1.6061123609542847 5.00926399230957 111 111 111
1.6208007335662842 -0.885340690612793 4.872685432434082 72 72 72
1.6869335174560547 -0.9195961952209473 4.832986831665039 134 134 134
1.7047053575515747 -0.8687160611152649 4.775609016418457 94 94 94
1.1175707578659058 1.516192078590393 5.100390434265137 135 135 135
-1.0600672960281372 -0.36967703700065613 4.756634712219238 183 183 183
-0.9516856074333191 1.640021562576294 5.123419761657715 121 121 121
0.24673248827457428 1.1679519414901733 5.78956413269043 24 24 24
-0.4015304446220398 -1.939161777496338 5.417126655578613 50 50 50
1.5780398845672607 1.7078771591186523 4.984078884124756 120 120 120
-1.0035918951034546 1.465518593788147 5.051857948303223 147 147 147
-1.16755211353302 -2.0517125129699707 4.413310527801514 121 121 121
1.1512508392333984 -0.5190866589546204 5.250208854675293 132 132 132
-0.5424534678459167 0.4276054799556732 5.869846343994141 6 6 6
-0.48560604453086853 -2.2689075469970703 5.173762798309326 43 43 43
1.9139164686203003 0.43115928769111633 5.835297107696533 208 208 208
-1.4325134754180908 -1.91653573513031 4.4946112632751465 82 82 82
-1.1574116945266724 -1.8451695442199707 4.437388896942139 121 121 121
-0.19419753551483154 -2.2836802005767822 5.67920446395874 100 100 100
-0.2235570102930069 -2.292302370071411 5.699899196624756 114 114 114
-0.5348192453384399 0.4329611659049988 5.583785057067871 176 176 176
-1.1686652898788452 -1.681269645690918 4.447709083557129 116 116 116
1.2183499336242676 -2.1127562522888184 4.720714092254639 103 103 103
-1.0028098821640015 0.8293468952178955 4.901319980621338 105 105 105
-0.7833865284919739 0.4136706590652466 5.214332103729248 128 128 128
1.2152677774429321 1.6933945417404175 5.253416061401367 107 107 107
-0.8552039861679077 -0.11059390753507614 5.161979675292969 124 124 124
1.2734856605529785 1.64603853225708 5.119672775268555 141 141 141
-0.7995110750198364 0.4502134323120117 5.160775184631348 123 123 123
1.7704036235809326 1.5237542390823364 4.766485214233398 111 111 111
1.6778497695922852 -0.7848274111747742 5.0078887939453125 207 207 207
1.7362037897109985 -0.8961911797523499 5.609267234802246 23 23 23
1.2595834732055664 0.5299279093742371 5.404236793518066 170 170 170
1.7561957836151123 1.485170602798462 4.709962368011475 120 120 120
1.609026551246643 1.4398021697998047 4.683314323425293 137 137 137
-0.9618897438049316 0.6737378835678101 5.038745880126953 163 163 163
-0.8259932994842529 0.670599639415741 5.228811740875244 142 142 142
1.844279170036316 -0.08934351801872253 5.628509521484375 175 175 175
-1.0134217739105225 0.6952938437461853 4.9550981521606445 180 180 180
-1.184868335723877 1.4854848384857178 4.801795959472656 47 47 47
-1.0087363719940186 -0.08450715988874435 4.885529041290283 122 122 122
