ply
format ascii 1.0
element vertex 723
property float x
property float y
property float z
property uchar red
property uchar green
property uchar blue
end_header
-1.444804310798645 0.5640214085578918 5.712395191192627 163 163 163
-1.4439829587936401 0.5631086230278015 5.708895206451416 145 145 145
-1.4629846811294556 1.8699482679367065 5.815678596496582 75 75 75
-1.4135745763778687 0.37277519702911377 5.650147438049316 110 110 110
-1.444746732711792 1.3002036809921265 5.7989301681518555 64 64 64
-1.4444777965545654 1.8285207748413086 5.809087753295898 62 62 62
-1.3994574546813965 -0.0010431925766170025 5.631516456604004 96 96 96
-1.4109575748443604 1.1678115129470825 5.683016777038574 82 82 82
-1.3984712362289429 -0.49595537781715393 5.64685583114624 120 120 120
-1.375974178314209 -2.5857834815979004 5.5865397453308105 38 38 38
-1.4491609334945679 1.165471076965332 5.898640155792236 70 70 70
-1.426007866859436 2.3980116844177246 5.80166482925415 55 55 55
-1.4229462146759033 2.202383279800415 5.835639476776123 65 65 65
-1.3342945575714111 -3.0337555408477783 5.477850914001465 65 65 65
-1.4170949459075928 -0.4754246473312378 5.782554626464844 108 108 108
-1.4004682302474976 -0.04717224836349487 5.795562744140625 102 102 102
-1.3972207307815552 1.1659244298934937 5.833255767822266 83 83 83
-1.385366439819336 0.90345698595047 5.830321311950684 78 78 78
-1.374741792678833 2.3788039684295654 5.832149505615234 78 78 78
-1.3897522687911987 0.40340733528137207 5.892708778381348 48 48 48
-1.3897522687911987 0.40340733528137207 5.892708778381348 48 48 48
-1.3056418895721436 -2.5366203784942627 5.610876083374023 41 41 41
-1.3498504161834717 1.0952783823013306 5.878002166748047 69 69 69
-1.3602887392044067 3.002579927444458 6.008216857910156 11 11 11
-1.3781960010528564 2.824256181716919 6.038214206695557 6 6 6
-1.3476848602294922 0.8423833250999451 5.978604316711426 67 67 67
-1.3416156768798828 2.3431897163391113 5.991238594055176 31 31 31
-1.3153162002563477 2.7404234409332275 5.8762030601501465 68 68 68
-1.3477345705032349 2.568178176879883 6.0232253074646 109 109 109
-1.3260116577148438 1.8973238468170166 6.003509044647217 15 15 15
-1.3415669202804565 3.0795342922210693 6.061699867248535 45 45 45
-1.3702070713043213 2.1665992736816406 6.168682098388672 43 43 43
-1.3632967472076416 2.1544930934906006 6.1363525390625 43 43 43
-1.272639274597168 -0.19779714941978455 5.7693071365356445 77 77 77
-1.2700567245483398 -0.5059764981269836 5.789894104003906 85 85 85
-1.2865145206451416 -0.5620822310447693 5.863302230834961 49 49 49
-1.2858198881149292 0.04584203287959099 5.873697280883789 90 90 90
-1.2818869352340698 0.7848122715950012 5.96110725402832 127 127 127
-1.2705230712890625 -0.29912808537483215 5.873655796051025 111 111 111
-1.2418384552001953 0.3204769492149353 5.8140692710876465 37 37 37
-1.2418384552001953 0.3204769492149353 5.8140692710876465 37 37 37
-1.306205153465271 3.034614324569702 6.1277875900268555 20 20 20
-1.2336231470108032 0.014203527942299843 5.902563571929932 78 78 78
-1.226916790008545 -0.7694191932678223 5.893326759338379 33 33 33
-1.2760684490203857 -0.12574809789657593 6.068112373352051 44 44 44
-1.2162753343582153 -0.23527474701404572 5.965704917907715 80 80 80
-1.1802510023117065 -3.024695634841919 5.80609655380249 36 36 36
-1.2609710693359375 3.5631158351898193 6.2249956130981445 56 56 56
-1.1806796789169312 -2.8045287132263184 5.853461742401123 33 33 33
-1.1967805624008179 -0.47796833515167236 5.9841485023498535 99 99 99
-1.2434800863265991 2.6205766201019287 6.236427307128906 53 53 53
-1.243744969367981 2.0695548057556152 6.253610134124756 59 59 59
-1.243744969367981 2.0695548057556152 6.253610134124756 59 59 59
-1.2241981029510498 3.559892177581787 6.258955478668213 53 53 53
-1.1931325197219849 -0.5210787653923035 6.053183555603027 81 81 81
-1.2260169982910156 3.241295337677002 6.254031181335449 41 41 41
-1.2260169982910156 3.241295337677002 6.254031181335449 41 41 41
-1.1964261531829834 0.6099699139595032 6.107437610626221 69 69 69
-1.1715620756149292 1.5713313817977905 6.142092227935791 61 61 61
-1.2022218704223633 2.5842738151550293 6.302913188934326 28 28 28
-1.2022218704223633 2.5842738151550293 6.302913188934326 28 28 28
-1.2022218704223633 2.5842738151550293 6.302913188934326 28 28 28
-1.155672311782837 0.45273032784461975 6.067595958709717 66 66 66
-1.1819260120391846 1.2148734331130981 6.184847354888916 30 30 30
-1.2000025510787964 0.7992545962333679 6.267309188842773 79 79 79
-1.1816784143447876 3.024606704711914 6.3103461265563965 15 15 15
-1.1848115921020508 3.02803373336792 6.318443775177002 15 15 15
-1.2065610885620117 -1.5016758441925049 6.597070693969727 115 115 115
-1.2065610885620117 -1.5016758441925049 6.597070693969727 115 115 115
-1.160792350769043 1.9403890371322632 6.363430500030518 60 60 60
-1.1068179607391357 -0.05754692107439041 6.133862018585205 73 73 73
-1.067517876625061 -2.576521635055542 5.959673881530762 59 59 59
-1.1372673511505127 3.3164191246032715 6.372100830078125 44 44 44
-1.0941036939620972 0.3264286518096924 6.205169200897217 10 10 10
-1.163279414176941 -1.8772958517074585 6.604106903076172 40 40 40
-1.0481557846069336 0.7475720643997192 6.087597370147705 42 42 42
-1.1328599452972412 -1.1096110343933105 6.507214546203613 31 31 31
-1.1195456981658936 2.769456148147583 6.560551643371582 55 55 55
-1.0674996376037598 0.39555129408836365 6.275063991546631 68 68 68
-1.0816073417663574 1.9523816108703613 6.388261795043945 59 59 59
-1.030663251876831 -0.03653199225664139 6.193698406219482 75 75 75
-1.0278397798538208 -0.03644505515694618 6.184353351593018 75 75 75
-1.054418683052063 2.2199573516845703 6.392000198364258 67 67 67
-1.054418683052063 2.2199573516845703 6.392000198364258 67 67 67
-0.9926636219024658 -3.0026650428771973 6.037214279174805 36 36 36
-1.0930911302566528 -1.4985815286636353 6.612176895141602 64 64 64
-1.0357753038406372 2.2984471321105957 6.405552864074707 34 34 34
-1.044779658317566 2.796746015548706 6.545815944671631 9 9 9
-0.9968400001525879 3.4461166858673096 6.260518550872803 55 55 55
-1.013577938079834 1.2692736387252808 6.398364543914795 61 61 61
-1.0325820446014404 2.7335264682769775 6.5360283851623535 49 49 49
-1.0334663391113281 -1.7646281719207764 6.5646796226501465 77 77 77
-0.9978849291801453 2.326291799545288 6.542081832885742 89 89 89
-1.005261778831482 2.913567304611206 6.546423435211182 68 68 68
-0.9693089723587036 0.4076889455318451 6.376911163330078 66 66 66
-0.8986583352088928 -2.49407696723938 6.072232723236084 34 34 34
-1.009582281112671 1.5256913900375366 6.706838130950928 68 68 68
-1.009582281112671 1.5256913900375366 6.706838130950928 68 68 68
-0.9492958188056946 -0.07128707319498062 6.353226184844971 80 80 80
-1.0046082735061646 3.3829352855682373 6.741938591003418 41 41 41
-0.9770703315734863 1.2270461320877075 6.634060859680176 17 17 17
-0.940772294998169 3.5047755241394043 6.6628642082214355 73 73 73
-0.9328956604003906 -1.6100454330444336 6.456298351287842 97 97 97
-0.9453180432319641 0.10612251609563828 6.525329113006592 0 0 0
-0.9263466000556946 1.483275294303894 6.523080348968506 53 53 53
-0.9266518354415894 -0.12997250258922577 6.532406330108643 34 34 34
-0.911343514919281 -1.1294615268707275 6.428004264831543 98 98 98
-0.924910306930542 1.1379550695419312 6.5496039390563965 59 59 59
-0.9516247510910034 3.0219976902008057 6.738523483276367 52 52 52
-0.9323853254318237 0.9858942627906799 6.5883989334106445 5 5 5
-0.9188213348388672 -0.24380157887935638 6.55178165435791 101 101 101
-0.9188213348388672 -0.24380157887935638 6.55178165435791 101 101 101
-0.9029902219772339 -0.2026216834783554 6.442960739135742 93 93 93
-0.8960625529289246 1.328332781791687 6.460947513580322 63 63 63
-0.9229329228401184 3.571977138519287 6.604851722717285 58 58 58
-0.8994255661964417 -1.8249186277389526 6.462786674499512 87 87 87
-0.8946474194526672 -1.706372857093811 6.45369815826416 39 39 39
-0.8990963697433472 2.801786184310913 6.603291034698486 53 53 53
-0.8883756995201111 -1.4796863794326782 6.447479248046875 49 49 49
-0.8883756995201111 -1.4796863794326782 6.447479248046875 49 49 49
-0.9065162539482117 3.4071638584136963 6.747082710266113 57 57 57
-0.8176246285438538 -0.027735261246562004 6.2376909255981445 80 80 80
-0.8717836141586304 0.21498040854930878 6.5368170738220215 58 58 58
-0.8634629249572754 -1.0308997631072998 6.497838973999023 30 30 30
-0.8634629249572754 -1.0308997631072998 6.497838973999023 30 30 30
-0.8501241207122803 -1.9558676481246948 6.47036075592041 30 30 30
-0.8501241207122803 -1.9558676481246948 6.47036075592041 30 30 30
-0.8839936256408691 2.0410449504852295 6.742959022521973 61 61 61
-0.8322034478187561 -0.2422475963830948 6.412949085235596 67 67 67
-0.8370271921157837 -0.6914694309234619 6.480687141418457 71 71 71
-0.8529922366142273 0.07459645718336105 6.623237609863281 71 71 71
-0.8281517624855042 -1.3474059104919434 6.44033145904541 74 74 74
-0.8413763642311096 0.37355440855026245 6.574504375457764 63 63 63
-0.795697033405304 -1.7900031805038452 6.3695268630981445 66 66 66
-0.8584491610527039 3.352055311203003 6.8462677001953125 39 39 39
-0.8413776755332947 0.8274222612380981 6.726347923278809 58 58 58
-0.8267796635627747 0.5757604837417603 6.6273722648620605 104 104 104
-0.8187929391860962 3.603172540664673 6.694247245788574 104 104 104
-0.8247700333595276 0.8710514307022095 6.675411701202393 55 55 55
-0.8094598650932312 1.646852970123291 6.752621173858643 27 27 27
-0.816584050655365 2.803459405899048 6.820271015167236 54 54 54
-0.8043776154518127 2.9780290126800537 6.886578559875488 26 26 26
-0.7638295292854309 0.739772379398346 6.578278064727783 8 8 8
-0.7795632481575012 -0.29808375239372253 6.656679153442383 71 71 71
-0.7767678499221802 0.46937498450279236 6.700210094451904 80 80 80
-0.788016676902771 2.6384291648864746 6.915319442749023 51 51 51
-0.7620794177055359 -1.5154601335525513 6.762538433074951 12 12 12
-0.769510805606842 0.53769850730896 6.784305572509766 21 21 21
-0.7500079870223999 0.1283884048461914 6.762571334838867 77 77 77
-0.7553114891052246 0.8514126539230347 6.846996784210205 57 57 57
-0.751335620880127 1.720159649848938 6.8145222663879395 53 53 53
-0.7491543889045715 0.8467081785202026 6.819035530090332 58 58 58
-0.7073507905006409 -2.549685478210449 6.5653910636901855 34 34 34
-0.6969523429870605 2.7519304752349854 6.820396900177002 64 64 64
-0.7469854354858398 3.140789270401001 7.128294467926025 41 41 41
-0.6913665533065796 -1.932860016822815 6.653672218322754 40 40 40
-0.6984705328941345 3.5856776237487793 6.760932445526123 55 55 55
-0.704230010509491 2.799464702606201 6.836006164550781 66 66 66
-0.7156974673271179 0.2607414722442627 7.092449188232422 54 54 54
-0.6726784110069275 2.879718542098999 6.850972652435303 32 32 32
-0.7033872008323669 -1.7493884563446045 6.837573528289795 30 30 30
-0.6397590041160583 -0.16884879767894745 6.6436285972595215 68 68 68
-0.6527762413024902 1.0148401260375977 6.894437789916992 74 74 74
-0.6534701585769653 0.6400852799415588 6.921473026275635 59 59 59
-0.5337377190589905 -2.4619946479797363 6.582890033721924 25 25 25
-0.6092818379402161 2.490872859954834 7.507695198059082 59 59 59
-0.5116626024246216 -2.854933738708496 6.432127952575684 32 32 32
-0.5587459802627563 0.42405909299850464 7.026059150695801 59 59 59
-0.5644253492355347 -1.8660541772842407 7.036077499389648 64 64 64
-0.5230295062065125 3.560337781906128 6.4373579025268555 137 137 137
-0.5682598352432251 1.7201993465423584 7.170070171356201 55 55 55
-0.5682598352432251 1.7201993465423584 7.170070171356201 55 55 55
-0.5503957867622375 3.5642268657684326 7.337915897369385 50 50 50
-0.5238089561462402 0.3961790204048157 7.026069641113281 72 72 72
-0.541750431060791 3.0520224571228027 7.455350875854492 58 58 58
-0.49805307388305664 -1.9604517221450806 7.131944179534912 44 44 44
-0.4627474248409271 1.4840598106384277 7.219508647918701 52 52 52
-0.47774726152420044 2.8232131004333496 7.474527359008789 46 46 46
-0.46902233362197876 2.6323418617248535 7.415225505828857 52 52 52
-0.44277796149253845 0.11907893419265747 7.220829963684082 49 49 49
-0.44579827785491943 2.836470603942871 7.540419101715088 54 54 54
-0.43775323033332825 0.08340489119291306 7.329687595367432 33 33 33
-0.4082352817058563 0.21781903505325317 7.448977470397949 57 57 57
-0.4079643785953522 -0.3573544919490814 7.263003349304199 31 31 31
-0.3722090423107147 -2.793200731277466 7.001728057861328 49 49 49
-0.38901567459106445 2.549325704574585 7.480287075042725 54 54 54
-0.3835621476173401 0.5144174098968506 7.4069437980651855 9 9 9
-0.3645703196525574 2.7229373455047607 7.544133186340332 12 12 12
-0.3555518388748169 0.5939809679985046 7.604889869689941 59 59 59
-0.3538142740726471 -1.046057939529419 7.4453229904174805 16 16 16
-0.3264489471912384 0.1771104633808136 7.377739906311035 50 50 50
-0.281936377286911 3.555986166000366 6.700918674468994 59 59 59
-0.31016165018081665 3.02107834815979 7.473069667816162 55 55 55
-0.2709506154060364 1.7583798170089722 7.5481696128845215 58 58 58
-0.25531646609306335 0.0921320989727974 7.463918685913086 104 104 104
-0.26332777738571167 1.428084373474121 7.549992084503174 51 51 51
-0.2421410083770752 -1.1863905191421509 7.301490783691406 51 51 51
-0.2435576617717743 -0.5869007706642151 7.6433305740356445 6 6 6
-0.23779800534248352 0.41113561391830444 7.539445877075195 58 58 58
-0.21199433505535126 0.7366953492164612 7.746926784515381 0 0 0
-0.21199433505535126 0.7366953492164612 7.746926784515381 0 0 0
-0.2086784690618515 2.571054697036743 7.787981986999512 47 47 47
-0.20568525791168213 3.53725528717041 7.4184956550598145 86 86 86
-0.1955796629190445 -0.08221185207366943 7.617334842681885 51 51 51
-0.19209511578083038 3.5343658924102783 7.514760494232178 70 70 70
-0.202607199549675 3.6419169902801514 8.047706604003906 90 90 90
-0.19005808234214783 0.803600549697876 7.591039657592773 53 53 53
-0.1786000281572342 1.8617087602615356 7.765038967132568 71 71 71
-0.17753183841705322 0.8972025513648987 7.706693172454834 68 68 68
-0.1756153553724289 2.0448758602142334 7.804935455322266 1 1 1
-0.1478060483932495 0.38106614351272583 7.743795394897461 51 51 51
-0.09981581568717957 1.6905407905578613 7.841470241546631 46 46 46
-0.09527789056301117 3.4807848930358887 7.526115417480469 105 105 105
-0.08899257332086563 2.8714864253997803 8.027978897094727 47 47 47
-0.07841683179140091 1.5651962757110596 8.053695678710938 49 49 49
-0.05311917886137962 2.7368035316467285 8.118385314941406 18 18 18
-0.040044646710157394 1.4626582860946655 7.91203498840332 47 47 47
-0.040044646710157394 1.4626582860946655 7.91203498840332 47 47 47
-0.015814349055290222 0.41940632462501526 7.907015800476074 50 50 50
-0.015814349055290222 0.41940632462501526 7.907015800476074 50 50 50
0.025331934913992882 1.0819634199142456 8.06108283996582 61 61 61
0.03679335117340088 3.5117344856262207 7.25241756439209 71 71 71
0.05281661078333855 3.4684011936187744 8.083672523498535 54 54 54
0.059400156140327454 -0.707239031791687 7.933783054351807 50 50 50
0.0845705196261406 1.3137831687927246 8.147294044494629 52 52 52
0.08613846451044083 0.4586268663406372 8.081901550292969 75 75 75
0.08613846451044083 0.4586268663406372 8.081901550292969 75 75 75
0.08643757551908493 -0.5348835587501526 8.000306129455566 59 59 59
0.09576757252216339 0.32667428255081177 8.060256958007812 77 77 77
0.11950532346963882 0.1267819106578827 8.02540397644043 46 46 46
0.11762173473834991 3.534449577331543 7.544946670532227 62 62 62
0.13495728373527527 0.5638781189918518 8.100730895996094 45 45 45
0.12497184425592422 3.5583550930023193 7.440349102020264 59 59 59
0.1379992514848709 0.7989467978477478 8.189112663269043 48 48 48
0.13753604888916016 0.5574458837509155 8.056076049804688 45 45 45
0.13028810918331146 2.9973299503326416 8.581684112548828 21 21 21
0.16029605269432068 0.39571213722229004 8.224387168884277 49 49 49
0.16694775223731995 -0.4860890507698059 8.266357421875 48 48 48
0.13993123173713684 3.5902984142303467 6.664477348327637 116 116 116
0.1791471242904663 0.14082004129886627 8.24848747253418 47 47 47
0.20406968891620636 -0.09367093443870544 8.228671073913574 71 71 71
0.1811612844467163 3.5818748474121094 6.406312942504883 135 135 135
0.2451656013727188 1.9485759735107422 8.657865524291992 48 48 48
0.25288984179496765 1.7668440341949463 8.553598403930664 42 42 42
0.25288984179496765 1.7668440341949463 8.553598403930664 42 42 42
0.239995077252388 3.4987761974334717 7.988229751586914 88 88 88
0.2524288296699524 -0.07689785957336426 8.646614074707031 51 51 51
0.2693263590335846 0.7928853631019592 8.30451488494873 46 46 46
0.314895361661911 0.15895578265190125 8.430425643920898 43 43 43
0.314895361661911 0.15895578265190125 8.430425643920898 43 43 43
0.3128291368484497 -1.32930588722229 8.319438934326172 50 50 50
0.34115371108055115 1.6038728952407837 8.352508544921875 58 58 58
0.3672436773777008 0.49803051352500916 8.605437278747559 23 23 23
0.37498849630355835 -0.006481800694018602 8.270430564880371 63 63 63
0.4112343192100525 1.757552981376648 8.833446502685547 46 46 46
0.398370623588562 -1.588901162147522 8.358528137207031 42 42 42
0.4548487365245819 1.377160906791687 8.378849983215332 47 47 47
0.4485563337802887 0.33172857761383057 8.61703109741211 49 49 49
0.4669705331325531 2.7767138481140137 8.989364624023438 38 38 38
0.4672452211380005 -1.7389066219329834 8.621225357055664 33 33 33
0.33198121190071106 -2.1510653495788574 5.6937174797058105 59 59 59
0.5285129547119141 1.4211814403533936 8.929496765136719 67 67 67
0.3919496536254883 3.604332685470581 6.532166481018066 90 90 90
0.5391750931739807 2.7505600452423096 8.786665916442871 50 50 50
0.5895200371742249 3.440951108932495 8.9521484375 72 72 72
0.5958974361419678 1.5120786428451538 9.319555282592773 44 44 44
0.5574842095375061 3.524498224258423 7.975850582122803 55 55 55
0.6423501372337341 -1.931410312652588 8.702436447143555 23 23 23
0.6609033942222595 -0.868735671043396 8.942119598388672 49 49 49
0.6685301065444946 0.08844659477472305 8.991620063781738 53 53 53
0.5933199524879456 3.5360941886901855 7.252894878387451 68 68 68
0.7803117036819458 1.0893617868423462 9.258991241455078 39 39 39
0.7862695455551147 0.7922667264938354 9.308469772338867 42 42 42
0.7834863662719727 0.7796835899353027 9.190759658813477 41 41 41
0.6783101558685303 3.5369486808776855 8.00590705871582 58 58 58
0.7967954874038696 1.594933271408081 9.266755104064941 35 35 35
0.8322889804840088 0.5510427355766296 9.336005210876465 39 39 39
0.7378158569335938 3.488497257232666 8.283352851867676 100 100 100
0.7378158569335938 3.488497257232666 8.283352851867676 100 100 100
0.8043774962425232 -0.711497962474823 8.949715614318848 45 45 45
0.8641916513442993 3.308988094329834 9.492980003356934 42 42 42
0.9157158136367798 1.1832551956176758 9.529218673706055 62 62 62
1.0168288946151733 3.657339334487915 10.389874458312988 39 39 39
0.9602015614509583 -4.0356526374816895 9.28067684173584 56 56 56
0.9125950932502747 3.4919612407684326 8.608972549438477 139 139 139
1.0605205297470093 3.1442697048187256 9.806941986083984 48 48 48
1.0263251066207886 2.149629831314087 9.681173324584961 59 59 59
0.9781174063682556 -1.1630998849868774 9.196391105651855 46 46 46
0.9781174063682556 -1.1630998849868774 9.196391105651855 46 46 46
0.7057168483734131 3.4841978549957275 6.351236820220947 74 74 74
1.0575031042099 1.2920951843261719 9.827792167663574 39 39 39
1.1044002771377563 3.251542329788208 10.00943374633789 58 58 58
1.0526001453399658 -0.17216499149799347 9.519762992858887 3 3 3
1.1265045404434204 3.5215349197387695 9.989593505859375 83 83 83
0.8107595443725586 3.5867738723754883 6.974650859832764 80 80 80
1.148945689201355 -1.4630866050720215 9.911964416503906 46 46 46
0.7691937685012817 3.6080973148345947 6.581521511077881 110 110 110
0.8028097748756409 3.599485158920288 6.503378868103027 67 67 67
1.1652096509933472 -4.208705425262451 9.535601615905762 70 70 70
1.1886183023452759 -1.0595117807388306 9.691217422485352 21 21 21
1.1886183023452759 -1.0595117807388306 9.691217422485352 21 21 21
1.2585556507110596 2.550818920135498 10.173563003540039 71 71 71
1.2585556507110596 2.550818920135498 10.173563003540039 71 71 71
1.263585090637207 -4.205441951751709 10.003129005432129 62 62 62
1.263585090637207 -4.205441951751709 10.003129005432129 62 62 62
1.303572177886963 -4.319289207458496 10.086281776428223 53 53 53
1.3459192514419556 1.3463901281356812 10.334802627563477 15 15 15
1.3307892084121704 0.7440655827522278 10.178534507751465 42 42 42
0.9507250189781189 3.567944049835205 7.1215105056762695 101 101 101
1.3785747289657593 0.3295324742794037 10.190084457397461 41 41 41
1.394782304763794 3.0560102462768555 10.267912864685059 45 45 45
1.4886780977249146 3.033811330795288 10.377197265625 51 51 51
1.4947998523712158 2.764051675796509 10.574713706970215 45 45 45
1.4707999229431152 -4.187706470489502 10.132923126220703 76 76 76
1.4707999229431152 -4.187706470489502 10.132923126220703 76 76 76
1.2081876993179321 3.5318126678466797 8.344815254211426 75 75 75
1.535733699798584 1.3930281400680542 10.524582862854004 46 46 46
1.611738681793213 1.8688379526138306 10.827617645263672 42 42 42
1.6448734998703003 3.427976131439209 10.447178840637207 54 54 54
1.5944863557815552 -0.597895622253418 10.107455253601074 19 19 19
1.8557331562042236 3.7635602951049805 11.803814888000488 73 73 73
1.705331802368164 -1.1221768856048584 10.562371253967285 45 45 45
1.717145562171936 -0.48179829120635986 10.630293846130371 47 47 47
1.7557626962661743 1.8109725713729858 10.856155395507812 59 59 59
1.7557626962661743 1.8109725713729858 10.856155395507812 59 59 59
1.7582107782363892 0.09106230735778809 10.852484703063965 40 40 40
1.740341305732727 -0.045099999755620956 10.710884094238281 60 60 60
1.7617567777633667 0.06965629756450653 10.797398567199707 42 42 42
1.828404188156128 2.771684408187866 11.176384925842285 51 51 51
1.7924989461898804 0.965104341506958 10.866607666015625 72 72 72
1.4838873147964478 3.563920736312866 8.963425636291504 68 68 68
1.66871178150177 -1.6615737676620483 10.040728569030762 25 25 25
1.2161811590194702 3.368530750274658 7.112550735473633 99 99 99
1.7984795570373535 0.3042255938053131 10.716157913208008 45 45 45
1.846778154373169 0.5404120683670044 10.975848197937012 51 51 51
1.8275893926620483 2.207594156265259 10.821796417236328 40 40 40
1.8337655067443848 1.2240147590637207 10.863378524780273 41 41 41
1.8866766691207886 3.3115878105163574 11.16691780090332 36 36 36
1.6685556173324585 3.3738486766815186 9.829928398132324 65 65 65
1.8802038431167603 1.2038977146148682 11.050884246826172 42 42 42
1.8716927766799927 3.35355806350708 11.0036039352417 65 65 65
1.835544228553772 0.9553068280220032 10.763525009155273 48 48 48
1.8859472274780273 -0.5367904305458069 10.934179306030273 41 41 41
1.9095720052719116 1.9995816946029663 11.020220756530762 63 63 63
1.9095720052719116 1.9995816946029663 11.020220756530762 63 63 63
1.9095720052719116 1.9995816946029663 11.020220756530762 63 63 63
1.2090606689453125 3.6747119426727295 6.924739360809326 74 74 74
1.2090606689453125 3.6747119426727295 6.924739360809326 74 74 74
1.960815668106079 0.5009952187538147 11.10335922241211 59 59 59
2.0391428470611572 3.2843573093414307 11.417579650878906 38 38 38
1.962183952331543 -1.9731998443603516 10.870233535766602 21 21 21
2.0286154747009277 -0.650336503982544 11.251118659973145 31 31 31
2.1671364307403564 3.169609785079956 11.537181854248047 46 46 46
2.1671364307403564 3.169609785079956 11.537181854248047 46 46 46
2.155848741531372 3.146559000015259 11.468701362609863 46 46 46
2.1546874046325684 0.9334790110588074 11.569714546203613 49 49 49
2.3176474571228027 3.6292080879211426 12.394186019897461 66 66 66
2.231431007385254 2.8330702781677246 11.836715698242188 17 17 17
2.177616834640503 -1.5929116010665894 11.543582916259766 20 20 20
1.2417577505111694 3.6036579608917236 6.496480464935303 62 62 62
2.209860324859619 2.2049081325531006 11.55894660949707 39 39 39
2.040548086166382 -2.476431369781494 10.619754791259766 22 22 22
1.407731294631958 3.560725212097168 7.217692852020264 82 82 82
2.109349250793457 -0.4703071713447571 10.801198959350586 56 56 56
2.314882755279541 2.7399184703826904 11.85390853881836 57 57 57
2.2921624183654785 -0.13535262644290924 11.692259788513184 66 66 66
2.3380751609802246 2.4699509143829346 11.888258934020996 47 47 47
2.3892886638641357 2.93310284614563 12.016761779785156 56 56 56
2.350687026977539 2.6726298332214355 11.726399421691895 53 53 53
2.350687026977539 2.6726298332214355 11.726399421691895 53 53 53
1.5768859386444092 3.561250925064087 7.816483020782471 74 74 74
2.355844736099243 -0.0715683102607727 11.686748504638672 78 78 78
2.308718204498291 -1.9804071187973022 11.397858619689941 18 18 18
2.462562084197998 2.907289743423462 11.967833518981934 43 43 43
1.7095892429351807 3.558194637298584 8.208248138427734 69 69 69
2.466315984725952 -1.797146201133728 11.8859281539917 11 11 11
2.4581189155578613 -1.9884058237075806 11.67647647857666 20 20 20
2.4804956912994385 -1.8804731369018555 11.723316192626953 59 59 59
2.4951977729797363 -1.6549253463745117 11.74968147277832 88 88 88
2.617448568344116 -0.8227977752685547 12.237699508666992 58 58 58
2.692195177078247 0.3674871325492859 12.36906909942627 82 82 82
1.7119828462600708 3.6207847595214844 7.717817783355713 80 80 80
2.764132261276245 3.404823064804077 12.444673538208008 49 49 49
2.5072720050811768 -0.9429886937141418 11.252852439880371 92 92 92
2.7910497188568115 -0.566718578338623 12.409648895263672 92 92 92
1.830284595489502 3.5649218559265137 8.101470947265625 70 70 70
2.690638780593872 -0.7488532066345215 11.8058443069458 100 100 100
2.9015696048736572 0.0669737160205841 12.790629386901855 72 72 72
2.8469083309173584 -0.4557711184024811 12.537489891052246 14 14 14
2.873939275741577 2.1525471210479736 12.526840209960938 58 58 58
2.9248952865600586 3.3584580421447754 12.748085975646973 73 73 73
3.037580728530884 1.2930206060409546 13.02169418334961 15 15 15
2.8120930194854736 -1.266067385673523 12.068039894104004 20 20 20
2.8102970123291016 -2.242957353591919 12.17712688446045 49 49 49
2.949300765991211 -1.7755872011184692 12.633834838867188 18 18 18
3.098475694656372 3.2223095893859863 13.163978576660156 44 44 44
3.098475694656372 3.2223095893859863 13.163978576660156 44 44 44
3.0014102458953857 -1.0220452547073364 12.624122619628906 105 105 105
3.0357799530029297 3.4077649116516113 12.766039848327637 74 74 74
3.0947766304016113 1.5905282497406006 12.953539848327637 71 71 71
3.0457661151885986 2.3408474922180176 12.745811462402344 47 47 47
2.973949432373047 -2.685715913772583 12.39598560333252 53 53 53
2.973949432373047 -2.685715913772583 12.39598560333252 53 53 53
3.0397071838378906 -0.6467366814613342 12.491795539855957 8 8 8
3.2462852001190186 2.6803297996520996 13.224242210388184 49 49 49
3.1299643516540527 0.1299564093351364 12.905717849731445 95 95 95
3.1299643516540527 0.1299564093351364 12.905717849731445 95 95 95
3.080313205718994 -2.3628122806549072 12.732105255126953 65 65 65
2.784208297729492 3.164057970046997 11.448519706726074 85 85 85
3.11376690864563 2.2993903160095215 12.796830177307129 53 53 53
3.2659568786621094 2.5930888652801514 13.409600257873535 56 56 56
3.2494595050811768 2.467947244644165 13.18702220916748 13 13 13
2.217352867126465 3.582491636276245 9.002963066101074 108 108 108
3.14024019241333 3.448512077331543 12.761114120483398 79 79 79
3.3448710441589355 1.3163058757781982 13.398118019104004 69 69 69
3.381605386734009 1.3476375341415405 13.554651260375977 65 65 65
3.2133703231811523 -2.370032548904419 12.860377311706543 102 102 102
3.2812187671661377 -0.3345668613910675 13.036637306213379 106 106 106
3.3328115940093994 -1.2559363842010498 13.196703910827637 128 128 128
3.1589603424072266 -2.969276189804077 12.48971939086914 34 34 34
3.4333598613739014 -1.492538332939148 13.508451461791992 136 136 136
3.6880016326904297 2.617633104324341 14.431626319885254 12 12 12
3.3865551948547363 -0.3622739017009735 13.231491088867188 101 101 101
3.7812681198120117 2.474510908126831 14.727877616882324 79 79 79
3.384817123413086 -1.0039137601852417 13.173996925354004 148 148 148
3.450296401977539 -0.1203199177980423 13.408050537109375 121 121 121
3.5863728523254395 2.107816696166992 13.79798412322998 134 134 134
3.3491456508636475 -1.8875936269760132 12.986580848693848 116 116 116
3.631152391433716 3.2231926918029785 14.001415252685547 91 91 91
4.018388271331787 3.2686355113983154 15.135295867919922 49 49 49
2.9756429195404053 3.3757619857788086 11.252824783325195 96 96 96
3.7245681285858154 -1.8106766939163208 13.984601020812988 46 46 46
3.4400277137756348 -2.346536159515381 12.76927661895752 115 115 115
4.269164085388184 -4.5212297439575195 15.748125076293945 72 72 72
3.964773178100586 -3.2873756885528564 14.609126091003418 16 16 16
3.794602155685425 -2.7093794345855713 13.736940383911133 96 96 96
4.264132022857666 1.4431114196777344 15.408275604248047 92 92 92
3.954890012741089 -2.1932642459869385 14.158248901367188 138 138 138
4.317266941070557 1.9739530086517334 15.33693790435791 13 13 13
3.7350194454193115 -1.673248291015625 13.153332710266113 90 90 90
4.37529993057251 1.0310899019241333 15.446020126342773 115 115 115
4.472220420837402 0.7459624409675598 15.692699432373047 6 6 6
4.327315807342529 1.8818281888961792 15.218008995056152 61 61 61
4.460086345672607 0.5356560945510864 15.617809295654297 39 39 39
4.3813676834106445 0.4479769170284271 15.358630180358887 134 134 134
4.4605607986450195 0.11452854424715042 15.50732707977295 71 71 71
4.386699199676514 0.047311943024396896 15.317143440246582 142 142 142
4.369672775268555 2.2416207790374756 15.207708358764648 47 47 47
4.4106035232543945 0.8354582786560059 15.297318458557129 54 54 54
4.516179084777832 -0.9611641764640808 15.588804244995117 158 158 158
4.459100723266602 2.186234474182129 15.419402122497559 37 37 37
4.46277379989624 1.7184977531433105 15.363268852233887 65 65 65
4.497663497924805 3.244194269180298 15.518728256225586 60 60 60
4.497663497924805 3.244194269180298 15.518728256225586 60 60 60
4.504578590393066 -1.0450376272201538 15.388596534729004 122 122 122
4.23837947845459 -2.700928211212158 14.425825119018555 140 140 140
4.520862579345703 0.4600529968738556 15.361549377441406 58 58 58
4.5667290687561035 1.7847145795822144 15.482706069946289 43 43 43
4.493760585784912 1.4748809337615967 15.221131324768066 85 85 85
4.493760585784912 1.4748809337615967 15.221131324768066 85 85 85
4.479773998260498 0.5752773284912109 15.119535446166992 100 100 100
4.616919994354248 -0.005236347671598196 15.564289093017578 78 78 78
4.54703426361084 2.603010416030884 15.294732093811035 103 103 103
4.5157270431518555 1.2579089403152466 15.131328582763672 42 42 42
4.5348334312438965 -0.8284422755241394 15.177570343017578 105 105 105
4.586620330810547 -1.2197729349136353 15.332326889038086 98 98 98
4.524929523468018 0.8278708457946777 15.11330795288086 57 57 57
4.723931312561035 -3.4411556720733643 15.755495071411133 79 79 79
4.723931312561035 -3.4411556720733643 15.755495071411133 79 79 79
4.428864479064941 -3.0820674896240234 14.856910705566406 25 25 25
4.579460620880127 1.662184715270996 15.182751655578613 97 97 97
4.548217296600342 -0.603906512260437 14.998172760009766 125 125 125
4.634302139282227 -1.0448631048202515 15.279796600341797 147 147 147
4.634302139282227 -1.0448631048202515 15.279796600341797 147 147 147
4.654591083526611 -2.762385845184326 15.186260223388672 109 109 109
4.617146968841553 0.587792158126831 15.013307571411133 73 73 73
4.949100971221924 0.025617390871047974 15.836895942687988 94 94 94
4.9569172859191895 1.4315290451049805 15.796442985534668 69 69 69
4.955190658569336 -1.2739238739013672 15.667830467224121 113 113 113
3.4288501739501953 -0.4995673596858978 10.082836151123047 102 102 102
5.314371585845947 -0.2495126575231552 15.576075553894043 69 69 69
3.7147247791290283 3.4903011322021484 10.263676643371582 83 83 83
-0.7447595000267029 3.579434871673584 6.670412063598633 108 108 108
-0.8155983686447144 1.210017442703247 6.749157905578613 29 29 29
4.721949100494385 -2.4757795333862305 14.822182655334473 4 4 4
4.686346530914307 -0.08084274083375931 15.292552947998047 1 1 1
2.770780086517334 -0.6500584483146667 12.145683288574219 31 31 31
2.570997953414917 -1.1259071826934814 12.10135269165039 24 24 24
4.475058078765869 -0.5198462009429932 15.498942375183105 103 103 103
0.005768053233623505 2.9650778770446777 8.260732650756836 11 11 11
-0.5093549489974976 3.586556911468506 7.143266677856445 36 36 36
-1.0923813581466675 -0.11517497152090073 6.202337265014648 13 13 13
3.6115846633911133 1.8606771230697632 14.766162872314453 11 11 11
3.538726329803467 -1.7914069890975952 13.513849258422852 52 52 52
3.514678955078125 -0.7078930735588074 13.73148250579834 32 32 32
-1.1818405389785767 1.2148065567016602 6.184540748596191 30 30 30
-1.2155441045761108 1.2524453401565552 6.363491058349609 22 22 22
2.4164984226226807 -0.21505820751190186 11.683747291564941 36 36 36
4.503485679626465 0.33336445689201355 15.657702445983887 95 95 95
-1.343813180923462 2.120995044708252 6.045848369598389 95 95 95
4.761875629425049 -2.029376983642578 15.364418983459473 62 62 62
4.160832405090332 -2.5032405853271484 14.038871765136719 7 7 7
-1.0727851390838623 3.0396156311035156 6.556603908538818 13 13 13
-1.664302945137024 1.9230791330337524 5.466125011444092 15 15 15
-1.6386840343475342 1.034463882446289 5.4513750076293945 6 6 6
3.3426785469055176 0.09616952389478683 13.141478538513184 184 184 184
4.33634090423584 2.4951789379119873 15.278968811035156 35 35 35
4.761973857879639 -2.0294201374053955 15.36477279663086 62 62 62
4.459532737731934 0.11436604708433151 15.503898620605469 71 71 71
4.761899471282959 -2.0293850898742676 15.36451530456543 62 62 62
4.550608158111572 -0.7522109746932983 15.758269309997559 149 149 149
2.9216556549072266 0.3936319649219513 12.411849021911621 162 162 162
-1.5878541469573975 -0.6861556768417358 5.500532150268555 135 135 135
-1.874104380607605 2.387392997741699 5.232749938964844 99 99 99
-0.945310652256012 0.10612769424915314 6.525303840637207 0 0 0
3.218179941177368 -1.557637095451355 12.976238250732422 4 4 4
4.350008964538574 2.505342960357666 16.131046295166016 125 125 125
4.6268630027771 -1.8901209831237793 15.863739967346191 147 147 147
3.492924928665161 -1.5587079524993896 13.402422904968262 17 17 17
4.462375164031982 -1.8239328861236572 15.2986478805542 128 128 128
4.213902950286865 -2.6770946979522705 14.637126922607422 4 4 4
-0.09208407253026962 3.6577165126800537 7.207348346710205 140 140 140
4.457964897155762 -0.9498462677001953 15.367624282836914 158 158 158
3.9630956649780273 -2.9873464107513428 15.210328102111816 6 6 6
4.6284098625183105 -1.890742540359497 15.869073867797852 147 147 147
3.2371695041656494 -2.0167076587677 13.018715858459473 15 15 15
3.5834264755249023 -2.0581133365631104 13.72060775756836 25 25 25
5.063495635986328 -1.834668755531311 16.00986099243164 2 2 2
-1.5882331132888794 -0.5413839221000671 5.380819797515869 149 149 149
4.395758152008057 -1.775551676750183 15.55370807647705 136 136 136
5.063614368438721 -1.8347151279449463 16.010269165039062 2 2 2
2.898952007293701 -0.010301031172275543 12.421419143676758 28 28 28
-1.7696622610092163 -0.3223441243171692 5.164283275604248 129 129 129
-1.4622960090637207 1.0101250410079956 5.716678142547607 132 132 132
-1.7078876495361328 -1.9471149444580078 5.066110134124756 60 60 60
3.2694740295410156 -1.7984435558319092 13.116214752197266 12 12 12
-1.3781770467758179 2.8242337703704834 6.038168907165527 6 6 6
3.9339025020599365 2.3944599628448486 14.580158233642578 178 178 178
-1.2506648302078247 0.11103740334510803 5.892382621765137 13 13 13
4.395770072937012 -1.775560975074768 15.553776741027832 136 136 136
-0.5386960506439209 3.537200689315796 7.013868808746338 103 103 103
0.16152524948120117 1.6044358015060425 8.354657173156738 15 15 15
4.553041934967041 2.52799391746521 15.078145027160645 120 120 120
-1.5944914817810059 -1.9194411039352417 5.2486748695373535 46 46 46
-1.6077240705490112 -0.09447265416383743 5.477052688598633 59 59 59
-0.6565239429473877 1.8479514122009277 7.015314102172852 3 3 3
-0.8241198062896729 1.859323263168335 6.788535118103027 16 16 16
-1.527295470237732 -1.8990416526794434 5.287776947021484 71 71 71
-0.9047654867172241 -0.15829026699066162 6.470160484313965 22 22 22
-0.8831383585929871 -1.0327308177947998 6.441370010375977 25 25 25
-0.7140064835548401 2.7823336124420166 7.110657691955566 13 13 13
2.9436326026916504 -0.6614969968795776 12.550063133239746 17 17 17
-0.8830976486206055 -1.0327059030532837 6.44120454788208 25 25 25
-1.4799189567565918 1.4547580480575562 5.744801998138428 111 111 111
-0.6129473447799683 0.9580457210540771 6.9235358238220215 70 70 70
-0.9815963506698608 1.655391812324524 6.558600425720215 2 2 2
3.3372230529785156 1.2809038162231445 13.584638595581055 48 48 48
-0.01721164584159851 3.508087396621704 7.028937339782715 122 122 122
0.3191261291503906 3.66231369972229 7.754597187042236 128 128 128
-0.9766150116920471 0.9991617202758789 6.555841445922852 3 3 3
-1.6247435808181763 -1.0076048374176025 5.347415447235107 58 58 58
4.460330963134766 0.5356984734535217 15.618764877319336 39 39 39
3.747791051864624 2.1512064933776855 13.90481185913086 107 107 107
4.500781059265137 -1.5846906900405884 15.439009666442871 177 177 177
4.214893817901611 2.31701922416687 14.919252395629883 185 185 185
-1.5259548425674438 2.596261739730835 5.751141548156738 50 50 50
4.260127067565918 2.4444332122802734 15.726165771484375 200 200 200
3.2209339141845703 -1.3501392602920532 13.062050819396973 1 1 1
3.3258237838745117 2.1352243423461914 13.562925338745117 53 53 53
4.491380214691162 -2.869778871536255 14.995219230651855 20 20 20
3.642099618911743 -2.518643856048584 13.263582229614258 67 67 67
3.642096996307373 -2.518641948699951 13.263570785522461 67 67 67
-1.0930836200714111 -1.49857497215271 6.612136363983154 64 64 64
4.285652160644531 2.3682360649108887 15.152790069580078 202 202 202
4.485641956329346 0.525445282459259 14.775036811828613 83 83 83
-1.7405364513397217 -0.520113468170166 5.083325386047363 119 119 119
-1.156276822090149 1.4489870071411133 6.305265426635742 48 48 48
3.8328285217285156 -2.09562349319458 14.212709426879883 133 133 133
3.394951820373535 -1.3636800050735474 13.386846542358398 10 10 10
-1.7848526239395142 0.8118749260902405 5.140772819519043 23 23 23
-1.8188122510910034 0.8273043632507324 5.238687038421631 74 74 74
4.501246929168701 -1.5849578380584717 15.440730094909668 177 177 177
3.2015421390533447 0.18813589215278625 12.905472755432129 9 9 9
-0.6199867129325867 1.629103422164917 7.050893783569336 9 9 9
3.5484888553619385 -2.0233280658721924 13.53790283203125 19 19 19
-0.8831343650817871 -1.0327285528182983 6.4413533210754395 25 25 25
-1.549105167388916 -1.7177417278289795 5.342583656311035 90 90 90
2.3012442588806152 -0.21003369987010956 11.520746231079102 19 19 19
4.488180160522461 2.5393199920654297 15.78365707397461 168 168 168
3.578622579574585 -1.1810874938964844 13.899227142333984 56 56 56
2.8610055446624756 -1.0875862836837769 12.425674438476562 99 99 99
-1.4985010623931885 1.8977251052856445 5.766341209411621 158 158 158
-0.47809651494026184 1.6142597198486328 7.226312637329102 7 7 7
3.6556100845336914 -1.5239484310150146 14.832633018493652 102 102 102
3.6139090061187744 -1.977120041847229 13.400043487548828 110 110 110
-1.5928492546081543 -0.5417104363441467 5.390322685241699 149 149 149
3.1376850605010986 -0.8638023138046265 12.63090991973877 23 23 23
3.9659881591796875 -2.558195114135742 13.298624038696289 19 19 19
3.2891650199890137 -0.9355491399765015 13.460404396057129 12 12 12
-1.6129517555236816 0.12678426504135132 5.416116714477539 29 29 29
-0.868937611579895 1.865805983543396 6.730191707611084 1 1 1
4.485641956329346 0.525445282459259 14.775036811828613 83 83 83
3.5838868618011475 -2.0584042072296143 13.722526550292969 25 25 25
-1.750274419784546 -1.2348004579544067 5.114966869354248 16 16 16
-1.7376185655593872 -0.9860225319862366 5.107686519622803 30 30 30
-1.7410728931427002 -1.2585259675979614 5.19504451751709 81 81 81
-1.151003360748291 2.2978742122650146 6.198333740234375 73 73 73
3.4915122985839844 -1.3538397550582886 13.45457649230957 21 21 21
4.460892677307129 -0.7385329604148865 15.417342185974121 149 149 149
-1.716498851776123 -1.254154920578003 5.080593585968018 30 30 30
-0.6421452760696411 1.20053231716156 7.054872035980225 104 104 104
4.501374244689941 -1.159580111503601 15.513319969177246 143 143 143
3.3402397632598877 -0.025543615221977234 13.650279998779297 1 1 1
-0.4527466297149658 0.7517358660697937 7.318429946899414 97 97 97
3.210296392440796 -1.9453554153442383 12.92646598815918 36 36 36
-0.05306382104754448 2.7364723682403564 8.117535591125488 18 18 18
4.553034782409668 -1.401053786277771 15.664828300476074 132 132 132
0.26962098479270935 3.515552520751953 7.526617527008057 112 112 112
2.678081750869751 -0.6647233963012695 12.179374694824219 14 14 14
-1.7467926740646362 -0.9909406900405884 5.124887466430664 49 49 49
4.629664897918701 -1.9292739629745483 15.261239051818848 51 51 51
-0.7674455642700195 0.5359359979629517 6.761781215667725 37 37 37
-1.521044135093689 -0.6664227843284607 5.363534450531006 172 172 172
4.406534194946289 -2.1476104259490967 15.29790210723877 135 135 135
4.368342399597168 1.1650124788284302 15.368709564208984 90 90 90
-0.27887246012687683 3.5344364643096924 7.325294494628906 106 106 106
2.9470036029815674 0.5986926555633545 12.301146507263184 69 69 69
-1.2025425434112549 2.8251147270202637 6.378256797790527 116 116 116
-0.6058909296989441 3.4924402236938477 6.652609348297119 59 59 59
-0.9014648795127869 0.532089114189148 6.2905426025390625 72 72 72
3.4901206493377686 -0.2495461106300354 13.714151382446289 48 48 48
0.006209998857229948 2.9630119800567627 8.255417823791504 11 11 11
-1.0924251079559326 -0.11519268900156021 6.202538013458252 13 13 13
-1.7414658069610596 1.9138089418411255 5.343222618103027 36 36 36
1.907135009765625 2.2209434509277344 11.327278137207031 14 14 14
-0.7987220883369446 1.2019824981689453 6.748715877532959 68 68 68
0.01741897314786911 3.5337259769439697 7.1663432121276855 28 28 28
-0.1321999430656433 1.3740782737731934 7.707520008087158 136 136 136
-1.1443976163864136 1.247030258178711 6.233661651611328 30 30 30
0.3075833320617676 3.5260043144226074 7.799948215484619 96 96 96
-1.4622992277145386 1.0101262331008911 5.7166852951049805 132 132 132
-1.5330709218978882 1.2297886610031128 5.551097393035889 109 109 109
-0.21074897050857544 3.5750620365142822 7.575334548950195 105 105 105
-1.8357714414596558 0.11107292771339417 4.936488628387451 41 41 41
3.0593819618225098 -2.0107526779174805 12.636431694030762 135 135 135
-0.8565853238105774 -1.0077884197235107 6.449629306793213 78 78 78
-1.7979943752288818 0.5682042241096497 5.188282012939453 112 112 112
-1.4626668691635132 0.965755045413971 5.709751129150391 79 79 79
0.7952834367752075 1.5796456336975098 9.386429786682129 14 14 14
-1.4935252666473389 2.121769905090332 5.727097034454346 9 9 9
-0.6182940602302551 1.1576710939407349 6.999922752380371 102 102 102
-0.8500758409500122 -1.9558123350143433 6.470182418823242 30 30 30
-1.2351086139678955 -0.3287641108036041 5.891012668609619 25 25 25
-1.543426275253296 -1.6468617916107178 5.316184997558594 43 43 43
-1.5867838859558105 -0.09202355146408081 5.36520528793335 1 1 1
2.976741313934326 1.150719165802002 12.110448837280273 81 81 81
3.097731113433838 1.2334452867507935 12.83171558380127 13 13 13
2.9699440002441406 0.19135339558124542 12.3136625289917 1 1 1
-1.0565152168273926 -0.342507004737854 6.173772811889648 33 33 33
4.455417633056641 2.4239468574523926 15.291507720947266 169 169 169
-0.0264402125030756 3.5558228492736816 7.031679630279541 29 29 29
3.5463573932647705 0.20148232579231262 14.15758991241455 85 85 85
-0.5724973082542419 -0.14807088673114777 6.979293346405029 18 18 18
-1.8747081756591797 2.388157844543457 5.234429359436035 99 99 99
-0.7953213453292847 0.7562384009361267 6.711452484130859 23 23 23
3.01436185836792 2.3604812622070312 13.040229797363281 23 23 23
-1.5645971298217773 -0.1149626150727272 5.412718772888184 70 70 70
-1.3782752752304077 2.8243396282196045 6.038384437561035 6 6 6
4.158464431762695 2.6886203289031982 14.764509201049805 142 142 142
0.731881320476532 3.584747314453125 7.108453273773193 69 69 69
3.0147438049316406 2.3608334064483643 13.042150497436523 23 23 23
-1.7077653408050537 -1.9470020532608032 5.065759181976318 60 60 60
-1.7747873067855835 -0.043026961386203766 5.155953407287598 33 33 33
3.306366205215454 -2.2888073921203613 14.093799591064453 54 54 54
-0.5629845261573792 -0.8091256618499756 7.12332820892334 49 49 49
-0.8494806885719299 -1.0350565910339355 6.433475494384766 12 12 12
-1.5276345014572144 0.7924549579620361 5.579014778137207 15 15 15
3.3575949668884277 0.4022262990474701 13.322961807250977 58 58 58
-0.8043994903564453 2.9781441688537598 6.886828422546387 26 26 26
0.18074512481689453 3.4937918186187744 7.109382629394531 63 63 63
-1.1587556600570679 2.9527711868286133 6.1694254875183105 63 63 63
3.2970383167266846 0.8706920742988586 13.614336013793945 6 6 6
0.24392691254615784 3.5343973636627197 7.108956813812256 147 147 147
3.281052589416504 0.6367747783660889 13.418742179870605 91 91 91
4.370983123779297 0.11741181463003159 14.399494171142578 6 6 6
-0.0883404016494751 3.582918167114258 7.194693088531494 30 30 30
4.507918834686279 1.7048447132110596 14.800677299499512 89 89 89
0.08941442519426346 3.5624284744262695 7.484866619110107 138 138 138
0.49280253052711487 1.5447100400924683 8.67989730834961 17 17 17
-1.6986830234527588 2.823634624481201 5.470490455627441 19 19 19
-0.3381235599517822 3.731762170791626 6.863809108734131 55 55 55
0.32173803448677063 3.5722556114196777 7.777316570281982 25 25 25
-1.1574971675872803 2.7323880195617676 6.248310089111328 77 77 77
-1.6967885494232178 1.05367910861969 5.375695705413818 135 135 135
-1.6503348350524902 1.6711775064468384 5.468358039855957 83 83 83
-0.3764304220676422 2.9835739135742188 7.6400322914123535 120 120 120
4.239727020263672 -3.168802499771118 15.45141887664795 82 82 82
-1.3825680017471313 -0.8265302181243896 5.633255481719971 55 55 55
-1.8364460468292236 0.1194566860795021 4.927995681762695 61 61 61
1.2038897275924683 2.629136562347412 10.04175853729248 3 3 3
-1.6304746866226196 1.19796884059906 5.432706832885742 10 10 10
0.08041657507419586 0.06320500373840332 7.992985725402832 2 2 2
2.0834999084472656 1.9556282758712769 11.472862243652344 18 18 18
-0.04834951087832451 3.562455892562866 7.098039150238037 86 86 86
-1.1528449058532715 1.2554017305374146 6.261300563812256 40 40 40
4.472766399383545 3.3055551052093506 15.510169982910156 68 68 68
4.874802112579346 -1.5982054471969604 15.615440368652344 12 12 12
-0.8449238538742065 2.1040327548980713 6.813931941986084 1 1 1
-1.8088281154632568 1.0193860530853271 5.197658538818359 12 12 12
-1.158817172050476 1.6537941694259644 6.196691513061523 147 147 147
3.289001703262329 -0.9355120658874512 13.4597806930542 12 12 12
-0.2724873721599579 0.7095428109169006 7.576039791107178 93 93 93
3.4936423301696777 -1.5590580701828003 13.405153274536133 17 17 17
-1.6130127906799316 0.1268092542886734 5.416325569152832 29 29 29
3.008344888687134 -0.8203957676887512 12.027838706970215 11 11 11
-0.9865886569023132 1.2269803285598755 6.604417324066162 13 13 13
-0.8448944091796875 2.1039857864379883 6.813785076141357 1 1 1
-0.7638333439826965 0.7397748827934265 6.578303337097168 8 8 8
3.5938591957092285 -0.4966104328632355 14.209571838378906 30 30 30
-1.7077974081039429 -1.9470309019088745 5.06584358215332 60 60 60
-1.5487807989120483 -1.9061800241470337 5.129764080047607 81 81 81
-1.5774941444396973 -1.9317225217819214 5.222052097320557 54 54 54
-1.0941029787063599 0.32643502950668335 6.205167293548584 10 10 10
