ply
format ascii 1.0
element vertex 718
property float x
property float y
property float z
property uchar red
property uchar green
property uchar blue
end_header
1.3579634428024292 1.2706468105316162 4.111974716186523 48 48 48
1.3613032102584839 0.3986704647541046 4.042831897735596 8 8 8
1.3546956777572632 0.17955204844474792 4.018129825592041 39 39 39
1.3708707094192505 0.006706437095999718 4.003871440887451 30 30 30
1.3685871362686157 -0.17692555487155914 3.950732946395874 13 13 13
1.3708068132400513 0.0067006503231823444 4.003738880157471 30 30 30
1.3983020782470703 0.30182012915611267 4.036758899688721 38 38 38
1.389950156211853 -0.3857281804084778 3.9675023555755615 11 11 11
1.4614421129226685 1.3010363578796387 4.146486759185791 33 33 33
1.4861422777175903 1.6353042125701904 4.153466701507568 35 35 35
1.466179370880127 -0.09281469136476517 4.036462306976318 23 23 23
1.4271966218948364 -0.9497963786125183 3.916191816329956 11 11 11
1.5141123533248901 0.8775250911712646 4.102131366729736 44 44 44
1.5141123533248901 0.8775250911712646 4.102131366729736 44 44 44
1.4435619115829468 -1.1954478025436401 3.9002957344055176 10 10 10
1.5561697483062744 1.6767022609710693 4.192697525024414 18 18 18
1.5345358848571777 0.8636794090270996 4.125243186950684 53 53 53
1.530922770500183 0.7655128836631775 4.096445083618164 56 56 56
1.465126395225525 -1.3891239166259766 3.9145736694335938 18 18 18
1.561285376548767 1.3592040538787842 4.15772819519043 33 33 33
1.5429797172546387 0.6520117521286011 4.097599506378174 42 42 42
1.5562230348587036 0.8611087799072266 4.110557556152344 53 53 53
1.507193922996521 -0.8319852948188782 3.973668336868286 29 29 29
1.6260030269622803 0.6171448826789856 4.150576114654541 4 4 4
1.6187293529510498 0.3826892077922821 4.068810939788818 40 40 40
1.655989646911621 0.05523351579904556 4.1002702713012695 12 12 12
1.7008033990859985 1.3095649480819702 4.16433572769165 24 24 24
1.7008033990859985 1.3095649480819702 4.16433572769165 24 24 24
1.5592584609985352 -1.901837706565857 3.8094305992126465 26 26 26
1.654592514038086 0.04290203005075455 4.043168544769287 46 46 46
1.6404255628585815 -0.7458797097206116 4.0000176429748535 25 25 25
1.6793986558914185 0.24058891832828522 4.088986873626709 46 46 46
1.629271388053894 -1.3952664136886597 3.952483892440796 22 22 22
1.6017799377441406 -1.2034380435943604 3.883270740509033 34 34 34
1.6386271715164185 -1.2827162742614746 3.9122700691223145 34 34 34
1.6806663274765015 -0.7611382603645325 3.987011194229126 20 20 20
1.7175371646881104 0.24498791992664337 4.081087589263916 25 25 25
1.7175874710083008 0.2466685026884079 4.081048488616943 27 27 27
1.776846170425415 0.45543181896209717 4.132408142089844 25 25 25
1.7403640747070312 0.002741121454164386 4.055881023406982 47 47 47
1.7069849967956543 -1.6061334609985352 3.9695215225219727 15 15 15
1.818084955215454 1.0840672254562378 4.19545841217041 37 37 37
1.773005723953247 -0.07473986595869064 4.0591139793396 42 42 42
1.7799561023712158 -0.09799154102802277 4.067470550537109 83 83 83
1.8407729864120483 1.1960046291351318 4.204090118408203 9 9 9
1.8545660972595215 0.6266258358955383 4.162109375 10 10 10
1.8190468549728394 0.34856849908828735 4.071260452270508 37 37 37
1.8718721866607666 0.7858356237411499 4.172476291656494 43 43 43
1.8847382068634033 0.648249626159668 4.160583972930908 60 60 60
1.8675130605697632 -0.084845170378685 4.098180294036865 22 22 22
1.9274405241012573 1.0847907066345215 4.214723110198975 28 28 28
1.8922451734542847 0.2289269119501114 4.126145362854004 20 20 20
1.904860019683838 0.6673359870910645 4.17566442489624 47 47 47
1.8884965181350708 -0.07838276028633118 4.05126953125 17 17 17
1.8972508907318115 -0.1280977427959442 4.082042694091797 16 16 16
1.9074690341949463 -0.15844832360744476 4.118076801300049 24 24 24
1.8879892826080322 -0.3798397481441498 4.001022815704346 24 24 24
1.938162922859192 -0.12827567756175995 4.111771106719971 34 34 34
1.9756067991256714 1.0449415445327759 4.167708396911621 48 48 48
1.9874353408813477 1.040337324142456 4.204061031341553 39 39 39
1.9816797971725464 0.6322543621063232 4.182814598083496 56 56 56
1.9273189306259155 -0.8116362690925598 4.036391735076904 27 27 27
1.9624148607254028 -0.7792266607284546 4.067510604858398 12 12 12
2.0375280380249023 0.6554573178291321 4.200601577758789 29 29 29
0.8363914489746094 0.0008971436182036996 3.883906364440918 74 74 74
-1.3565216064453125 1.155360460281372 3.5419018268585205 17 17 17
-1.0493320226669312 0.13039454817771912 3.516007661819458 90 90 90
0.03259124979376793 0.5630545616149902 3.788353681564331 101 101 101
1.0794775485992432 1.1958601474761963 4.052192211151123 43 43 43
0.0295458622276783 0.16325801610946655 3.765117883682251 31 31 31
-1.0277290344238281 -0.23692582547664642 3.498575210571289 31 31 31
0.5457619428634644 0.800505518913269 3.92227840423584 30 30 30
-0.2690379023551941 0.7585489749908447 3.7418339252471924 86 86 86
-0.7129790782928467 -1.4400120973587036 3.4543299674987793 46 46 46
-1.3795663118362427 0.9843611717224121 3.517716884613037 10 10 10
-1.027816891670227 -0.2534070611000061 3.480459213256836 83 83 83
1.3124033212661743 1.3918588161468506 4.12101936340332 13 13 13
-1.3579775094985962 0.9674704670906067 3.514734983444214 99 99 99
-0.7648290991783142 0.1722256988286972 3.5797760486602783 6 6 6
-0.49924349784851074 0.18096666038036346 3.5864510536193848 101 101 101
-0.5094562768936157 0.5599177479743958 3.6631622314453125 102 102 102
-0.23349587619304657 0.19137151539325714 3.701669454574585 22 22 22
0.049314435571432114 -0.3921675384044647 3.700746536254883 42 42 42
-0.49925920367240906 0.18097780644893646 3.586568593978882 101 101 101
-0.8308351635932922 1.5361930131912231 3.68025279045105 75 75 75
-1.313781976699829 -0.03405418619513512 3.4581806659698486 103 103 103
-0.6135565042495728 2.3921329975128174 3.8121960163116455 12 12 12
-0.23339277505874634 0.19122150540351868 3.7013823986053467 22 22 22
-0.8379949331283569 0.9856213927268982 3.642934799194336 65 65 65
-0.9236403703689575 1.5374042987823486 3.659846305847168 128 128 128
-0.812113881111145 0.9855383038520813 3.634702444076538 34 34 34
-0.8379888534545898 0.9856182932853699 3.6429245471954346 65 65 65
-0.8379634022712708 0.9856081008911133 3.6428492069244385 65 65 65
-1.0305390357971191 -0.825238823890686 3.427863836288452 40 40 40
-1.107378363609314 -0.23225931823253632 3.4795525074005127 11 11 11
-0.7831001877784729 -0.409801721572876 3.460782289505005 91 91 91
-1.1163551807403564 -0.42177122831344604 3.45989727973938 116 116 116
-1.0911221504211426 -0.4342924952507019 3.4638020992279053 36 36 36
-1.105954647064209 -0.4305797815322876 3.44433856010437 80 80 80
-0.5067965388298035 0.97792649269104 3.701500654220581 119 119 119
0.03368046134710312 0.48229506611824036 3.779448986053467 66 66 66
-0.46686041355133057 -0.8204255104064941 3.5643110275268555 98 98 98
-0.5094274878501892 0.2558480501174927 3.6194424629211426 37 37 37
-0.5094398260116577 0.255863755941391 3.619551420211792 37 37 37
0.34230101108551025 1.7740527391433716 3.9510459899902344 4 4 4
-0.8601373434066772 2.1821341514587402 3.740065813064575 18 18 18
-1.2270338535308838 0.3910674452781677 3.4857840538024902 20 20 20
-0.508050262928009 1.7645400762557983 3.7771871089935303 3 3 3
-1.2270801067352295 0.3910790979862213 3.485917806625366 20 20 20
-1.4117872714996338 0.5737608671188354 3.4898786544799805 99 99 99
0.03673126548528671 0.38927343487739563 3.775916814804077 44 44 44
-1.3812586069107056 1.7632344961166382 3.581876754760742 60 60 60
-1.0536422729492188 0.5495301485061646 3.558335065841675 98 98 98
-1.3116875886917114 -0.6206624507904053 3.391897678375244 101 101 101
-1.0777651071548462 0.7823776006698608 3.5740509033203125 74 74 74
-0.5201444625854492 0.38764068484306335 3.648096799850464 26 26 26
-1.0583043098449707 0.3778414726257324 3.543436050415039 37 37 37
-1.242181658744812 0.36775630712509155 3.507061243057251 88 88 88
-1.0911248922348022 -0.43429264426231384 3.4638073444366455 36 36 36
-1.074143409729004 0.7653427720069885 3.5660693645477295 17 17 17
-1.0088540315628052 -0.6478726267814636 3.443488359451294 71 71 71
-0.48275262117385864 -0.011037543416023254 3.5512866973876953 65 65 65
0.257136732339859 0.5937838554382324 3.84102201461792 64 64 64
-0.2292117327451706 -0.01787612773478031 3.688706874847412 28 28 28
0.8307175040245056 0.20937113463878632 3.915400981903076 41 41 41
-1.00841224193573 -0.41348931193351746 3.4791858196258545 91 91 91
-0.44693541526794434 -1.052258849143982 3.539278030395508 21 21 21
-0.44692811369895935 -1.0522502660751343 3.5392584800720215 21 21 21
0.017738856375217438 0.558999240398407 3.78877854347229 68 68 68
-0.47881120443344116 -0.6820513010025024 3.5549683570861816 11 11 11
-0.478812038898468 -0.6820525527000427 3.554969310760498 11 11 11
-0.7065028548240662 -1.6647497415542603 3.4189937114715576 18 18 18
0.2639874815940857 0.7956907749176025 3.8681187629699707 86 86 86
0.8143656253814697 1.3769056797027588 3.9869861602783203 45 45 45
-1.1147772073745728 1.1767833232879639 3.5943052768707275 25 25 25
-0.2924981117248535 0.7581737637519836 3.7065091133117676 76 76 76
-1.2400330305099487 1.5861358642578125 3.5887677669525146 74 74 74
1.0930333137512207 0.4186515808105469 3.9851090908050537 24 24 24
-0.6746653914451599 -0.6432196497917175 3.516207695007324 59 59 59
-1.0060313940048218 -0.066868856549263 3.494065523147583 82 82 82
-1.1806594133377075 -0.4417872726917267 3.470689058303833 64 64 64
1.0755739212036133 0.8047174215316772 4.015874862670898 16 16 16
-0.1854971945285797 -0.826070249080658 3.597317934036255 66 66 66
-0.15212763845920563 0.3914106488227844 3.7441890239715576 95 95 95
-0.6746670603752136 -0.6432203650474548 3.5162124633789062 59 59 59
0.7777338624000549 0.598125159740448 3.935138702392578 83 83 83
1.6054850816726685 0.8169062733650208 4.124903678894043 9 9 9
-1.0781059265136719 0.7853278517723083 3.5746078491210938 70 70 70
-1.3137768507003784 -0.03405320271849632 3.4581663608551025 103 103 103
-0.8599705100059509 -1.0227835178375244 3.439521074295044 64 64 64
-1.2811490297317505 -0.6141641139984131 3.3953230381011963 118 118 118
0.834965705871582 -0.18445612490177155 3.868107318878174 76 76 76
0.011737929657101631 -0.004250180907547474 3.7264277935028076 18 18 18
-0.742127001285553 -1.0290504693984985 3.4835116863250732 99 99 99
-0.8071500062942505 1.1660152673721313 3.6628429889678955 97 97 97
0.2087053507566452 -0.003598196431994438 3.7639386653900146 81 81 81
-0.44208574295043945 -1.2247815132141113 3.525439739227295 42 42 42
-0.7819405794143677 -0.18969997763633728 3.5427651405334473 38 38 38
-0.23989540338516235 -0.19710399210453033 3.6181910037994385 41 41 41
-0.807859480381012 1.1247955560684204 3.628092050552368 79 79 79
-0.16820663213729858 0.38264286518096924 3.712022066116333 70 70 70
0.5244863033294678 1.2140611410140991 3.996432304382324 57 57 57
0.04898829013109207 -0.22175173461437225 3.7184393405914307 26 26 26
0.1658415049314499 0.5827345848083496 3.7939982414245605 106 106 106
-0.2886110246181488 -0.40749162435531616 3.619544267654419 49 49 49
-1.0646593570709229 -0.2302173674106598 3.471662759780884 18 18 18
-1.0646576881408691 -0.230216845870018 3.4716601371765137 18 18 18
-1.027732253074646 -0.23692341148853302 3.4985783100128174 31 31 31
-0.4800271689891815 -0.24054467678070068 3.5906808376312256 23 23 23
-1.0277371406555176 -0.23692020773887634 3.4985835552215576 31 31 31
1.3016862869262695 0.9927979111671448 4.037211894989014 43 43 43
0.5509355664253235 0.9686992168426514 3.9187722206115723 71 71 71
-0.5762225985527039 1.3665947914123535 3.7062747478485107 49 49 49
0.5106616020202637 1.5884966850280762 3.9688963890075684 63 63 63
-0.6740004420280457 0.5686130523681641 3.597364664077759 3 3 3
0.06954342126846313 -0.7884422540664673 3.654881715774536 36 36 36
-0.6356444358825684 0.18909211456775665 3.600186347961426 34 34 34
-1.1520572900772095 -0.3813823461532593 3.442640542984009 85 85 85
-0.7266696095466614 0.19545020163059235 3.5774307250976562 101 101 101
0.08916211873292923 0.7988108396530151 3.808819055557251 94 94 94
-1.3147636651992798 -0.46142804622650146 3.4033732414245605 30 30 30
-0.7046506404876709 0.1989898681640625 3.5934014320373535 24 24 24
-1.105668306350708 -0.8308125734329224 3.4070563316345215 12 12 12
-1.0150606632232666 -0.7665923833847046 3.442600727081299 57 57 57
-0.7139155864715576 0.20007312297821045 3.611875057220459 61 61 61
-0.6355953812599182 0.2017037272453308 3.5997366905212402 115 115 115
-0.5535746216773987 -1.871014952659607 3.4526777267456055 21 21 21
-0.9747238159179688 -1.6553072929382324 3.374274253845215 26 26 26
0.011888105422258377 0.5663087368011475 3.788388252258301 64 64 64
-0.9738954901695251 -1.4711145162582397 3.3806822299957275 25 25 25
-0.05308781564235687 0.56709885597229 3.777024030685425 72 72 72
1.8545442819595337 0.6266112923622131 4.162021636962891 10 10 10
-1.1008530855178833 -0.03193138167262077 3.4949378967285156 5 5 5
-1.345733880996704 -0.05413533374667168 3.43239426612854 24 24 24
-1.0813357830047607 0.546118974685669 3.558312177658081 46 46 46
0.5209431648254395 0.9641451239585876 3.900538682937622 62 62 62
-0.610928475856781 2.419734477996826 3.8068976402282715 25 25 25
-0.8067123293876648 -0.04005098715424538 3.5484046936035156 70 70 70
-0.6964216828346252 2.3651421070098877 3.759850025177002 33 33 33
-0.86163729429245 2.3786635398864746 3.7639479637145996 42 42 42
-0.47625815868377686 -0.6560665369033813 3.5654406547546387 68 68 68
0.08855760097503662 1.7952216863632202 3.9075164794921875 13 13 13
-1.0094778537750244 -0.18936890363693237 3.4940927028656006 52 52 52
1.6250511407852173 0.4168182611465454 4.0953264236450195 7 7 7
-0.6547597050666809 0.260574072599411 3.590012550354004 72 72 72
-0.6555274128913879 0.21408069133758545 3.584791660308838 53 53 53
-0.28808802366256714 1.5673919916152954 3.806546211242676 19 19 19
-0.31554511189460754 1.5431572198867798 3.7754786014556885 56 56 56
0.22006167471408844 -0.7942847013473511 3.695192575454712 23 23 23
-0.8321657776832581 2.147218704223633 3.686722993850708 79 79 79
-1.1215535402297974 1.6092915534973145 3.6199748516082764 23 23 23
-0.7917486429214478 0.35474082827568054 3.583251476287842 22 22 22
-0.9200323224067688 -1.0306499004364014 3.443474292755127 6 6 6
-1.026878833770752 -0.848473310470581 3.432706117630005 21 21 21
-0.6303349733352661 0.24379639327526093 3.574965000152588 62 62 62
-0.5629432797431946 0.25204241275787354 3.6180264949798584 46 46 46
-1.240032434463501 1.586135983467102 3.5887668132781982 74 74 74
-1.1435898542404175 -0.43592941761016846 3.447429656982422 35 35 35
0.05314585193991661 0.45792749524116516 3.7779836654663086 17 17 17
-1.0269341468811035 -0.8485103249549866 3.432795286178589 21 21 21
-1.029522180557251 -0.8493660688400269 3.4369022846221924 30 30 30
-0.4367847442626953 0.21890126168727875 3.6308202743530273 65 65 65
-0.014179105870425701 0.5825629830360413 3.7761688232421875 114 114 114
-0.7445728182792664 1.5754092931747437 3.693856716156006 88 88 88
0.8334550857543945 0.22519990801811218 3.907857656478882 3 3 3
-1.0443934202194214 -0.4455306828022003 3.4656982421875 20 20 20
-1.2595429420471191 1.5934747457504272 3.5985076427459717 88 88 88
-0.15370537340641022 -0.809347927570343 3.6114885807037354 47 47 47
-1.150301456451416 -0.40091150999069214 3.408403158187866 79 79 79
-1.3033640384674072 0.401141881942749 3.4659876823425293 63 63 63
1.8918781280517578 0.22871600091457367 4.124635696411133 20 20 20
-0.039112694561481476 1.7491990327835083 3.8646671772003174 57 57 57
-0.10455399006605148 0.20336250960826874 3.7175230979919434 70 70 70
-1.3033851385116577 0.40114733576774597 3.466017723083496 63 63 63
-0.31994205713272095 -0.4050430357456207 3.5990607738494873 52 52 52
-1.3033976554870605 0.40113818645477295 3.466047525405884 63 63 63
-0.6840447783470154 1.586532473564148 3.7259273529052734 9 9 9
1.8501132726669312 1.025977373123169 4.202971458435059 12 12 12
-0.4838988780975342 0.16212093830108643 3.650177240371704 29 29 29
1.5927157402038574 0.9908565878868103 4.152481555938721 59 59 59
-1.3814811706542969 0.823922872543335 3.496185064315796 57 57 57
-1.1899832487106323 -0.5781816244125366 3.4254133701324463 74 74 74
-0.37344470620155334 -0.6147383451461792 3.587496280670166 35 35 35
-0.017895422875881195 0.8736851811408997 3.796893358230591 68 68 68
-1.128535270690918 1.789246678352356 3.647631883621216 34 34 34
-0.8932825326919556 0.0694894939661026 3.5333540439605713 80 80 80
-0.2568188011646271 0.03100961074233055 3.6431360244750977 83 83 83
-1.3794363737106323 1.964957356452942 3.615978717803955 43 43 43
-1.2564154863357544 -0.19183729588985443 3.4337193965911865 88 88 88
-0.7439502477645874 0.3920191824436188 3.5932509899139404 88 88 88
-0.9470614194869995 -0.0036865095607936382 3.5114269256591797 63 63 63
0.32850292325019836 -0.1925867348909378 3.7792270183563232 39 39 39
-0.5361451506614685 1.3767207860946655 3.749933958053589 86 86 86
1.7403491735458374 0.002740102354437113 4.055844306945801 47 47 47
0.8363809585571289 0.0008890741155482829 3.883856773376465 74 74 74
-0.9470486044883728 -0.0036845076829195023 3.511406421661377 63 63 63
1.3710318803787231 0.006722021382302046 4.004369735717773 30 30 30
-1.0223017930984497 -0.1680336445569992 3.500917434692383 80 80 80
-1.2861878871917725 -0.008924787864089012 3.451392412185669 27 27 27
-0.9608100652694702 -0.6318631768226624 3.4656169414520264 9 9 9
-0.8849422931671143 -1.0189061164855957 3.4428048133850098 41 41 41
-0.9690667390823364 0.9777292013168335 3.5850555896759033 14 14 14
-1.1169074773788452 1.778184175491333 3.6288044452667236 33 33 33
-0.9057232737541199 1.1463234424591064 3.622898817062378 65 65 65
-0.6547238230705261 0.2605639398097992 3.5899386405944824 72 72 72
-1.0483613014221191 -0.2283458411693573 3.485447883605957 60 60 60
1.9017146825790405 0.026757773011922836 4.128443241119385 45 45 45
0.4118632376194 0.5452578067779541 3.8564658164978027 71 71 71
1.1276953220367432 -0.5854976773262024 3.909780740737915 36 36 36
-0.2540709674358368 0.7970203757286072 3.7378673553466797 21 21 21
-0.726057767868042 -1.2610015869140625 3.455038547515869 45 45 45
-1.3593145608901978 0.7898635864257812 3.475802183151245 51 51 51
0.528515100479126 0.8811772465705872 3.9114389419555664 54 54 54
-0.6820083260536194 1.97042715549469 3.730745553970337 4 4 4
-1.1508541107177734 -1.9009926319122314 3.3210272789001465 12 12 12
-1.1372932195663452 1.8048583269119263 3.666869878768921 89 89 89
1.8922369480133057 0.2289240062236786 4.126112937927246 20 20 20
-0.15375922620296478 -0.8094354271888733 3.6117467880249023 47 47 47
0.08598348498344421 1.7331409454345703 3.9072861671447754 69 69 69
-0.15980109572410583 -0.2202516496181488 3.6527082920074463 53 53 53
-1.010660171508789 -0.2318035364151001 3.5057778358459473 61 61 61
-0.2967565357685089 0.032238949090242386 3.6661274433135986 64 64 64
-0.6587607860565186 -0.6440985798835754 3.527904748916626 61 61 61
-1.027732014656067 -0.23692429065704346 3.4985785484313965 31 31 31
-0.7648279070854187 0.17222242057323456 3.579768180847168 6 6 6
-0.4992446005344391 0.18096688389778137 3.586453676223755 101 101 101
-0.827041745185852 1.380118727684021 3.6720030307769775 106 106 106
-0.7053418755531311 0.1799679845571518 3.593843936920166 62 62 62
-0.5762256979942322 1.3665975332260132 3.706282377243042 49 49 49
-1.3154081106185913 0.16577866673469543 3.469447135925293 16 16 16
-0.4420858323574066 -1.2247815132141113 3.525439739227295 42 42 42
0.830713152885437 0.2093636393547058 3.915395975112915 41 41 41
-0.7363885045051575 0.1945958435535431 3.5811502933502197 25 25 25
1.3626629114151 0.22181639075279236 4.017178058624268 9 9 9
1.362665057182312 0.2218187153339386 4.017198085784912 9 9 9
-1.366491675376892 -1.221100091934204 3.5973589420318604 58 58 58
-1.3596209287643433 -1.217373013496399 3.5875282287597656 40 40 40
-0.7299882769584656 0.1979997754096985 3.582688808441162 89 89 89
0.6974083781242371 1.360207438468933 3.918619394302368 46 46 46
-0.6344907283782959 0.2030303031206131 3.5936169624328613 107 107 107
0.8296264410018921 1.4027519226074219 4.061715602874756 26 26 26
-1.0865378379821777 1.2133386135101318 3.6064507961273193 95 95 95
-1.082995891571045 1.19044828414917 3.595052480697632 101 101 101
-0.5094253420829773 0.25584858655929565 3.619445323944092 37 37 37
-0.5094348192214966 0.25585150718688965 3.6194658279418945 37 37 37
-0.5094367265701294 0.25585946440696716 3.6195216178894043 37 37 37
-1.3860126733779907 1.139469861984253 3.5253381729125977 56 56 56
-0.8071498274803162 1.1660137176513672 3.6628386974334717 97 97 97
-0.25082269310951233 0.35322511196136475 3.6982827186584473 52 52 52
-1.3597468137741089 1.1068161725997925 3.5269935131073 39 39 39
-0.8148839473724365 1.1360887289047241 3.6471664905548096 83 83 83
-1.3597471714019775 1.1068159341812134 3.526994228363037 39 39 39
0.5460453033447266 1.213296890258789 3.944526433944702 84 84 84
0.8997348546981812 -0.9845336675643921 3.8162152767181396 40 40 40
-1.2710239887237549 -0.8527840971946716 3.36979079246521 83 83 83
-1.0284098386764526 -0.8490419387817383 3.435136318206787 21 21 21
-1.0268748998641968 -0.8484669923782349 3.432685613632202 21 21 21
-1.3737378120422363 0.9891603589057922 3.5193474292755127 102 102 102
0.5787675380706787 0.3898703455924988 3.861034631729126 11 11 11
-1.030533790588379 -0.8252376317977905 3.427854061126709 40 40 40
-1.378821849822998 0.9832553863525391 3.5158138275146484 10 10 10
1.625054955482483 0.4168204367160797 4.095328330993652 7 7 7
-0.7492443919181824 -0.8300662040710449 3.5027828216552734 74 74 74
-0.7492439150810242 -0.8300652503967285 3.5027811527252197 74 74 74
-0.4662652313709259 -0.8193727135658264 3.559767961502075 98 98 98
-0.43549075722694397 -0.813386082649231 3.546595811843872 39 39 39
-0.8123525977134705 0.9874036312103271 3.6351895332336426 31 31 31
0.03673243895173073 0.38928326964378357 3.7759690284729004 44 44 44
0.06954371929168701 -0.7884430885314941 3.6548891067504883 36 36 36
0.5787559747695923 0.38988324999809265 3.861164093017578 11 11 11
-0.8379837870597839 0.9856217503547668 3.642890453338623 65 65 65
-0.8379762768745422 0.9856193661689758 3.6428704261779785 65 65 65
-0.4788132905960083 -0.6820512413978577 3.554978847503662 11 11 11
1.0930393934249878 0.4186505079269409 3.9851293563842773 24 24 24
-1.3105250597000122 -0.6200953722000122 3.390287160873413 101 101 101
-0.9918612241744995 -0.6309245228767395 3.449463129043579 48 48 48
0.01146865077316761 0.9831658601760864 3.8191092014312744 95 95 95
-1.2854479551315308 -0.6145800948143005 3.391278028488159 104 104 104
-0.5378510355949402 0.9481878876686096 3.6928822994232178 28 28 28
1.092990517616272 0.4186519384384155 3.984934091567993 24 24 24
-1.058298110961914 0.37783917784690857 3.543422222137451 37 37 37
0.07808252424001694 -0.6173953413963318 3.670764446258545 36 36 36
-0.5201296806335449 0.38765016198158264 3.6480908393859863 26 26 26
0.874228298664093 -0.5836341977119446 3.836866855621338 42 42 42
-1.075961947441101 0.7848131060600281 3.5711348056793213 70 70 70
-1.074142575263977 0.7653440237045288 3.5660688877105713 17 17 17
-1.291394829750061 -0.44253140687942505 3.4349632263183594 25 25 25
-1.0741312503814697 0.7653350830078125 3.566047191619873 17 17 17
-1.0945193767547607 0.7659523487091064 3.5451953411102295 126 126 126
-1.1106367111206055 -0.43004247546195984 3.4505484104156494 58 58 58
-1.0911248922348022 -0.434293270111084 3.463806390762329 36 36 36
-1.0984362363815308 -0.420857310295105 3.4425923824310303 9 9 9
-1.113315463066101 -0.4185039699077606 3.4487040042877197 110 110 110
-1.0988508462905884 -0.4174014627933502 3.4541635513305664 110 110 110
0.02699427865445614 0.5497625470161438 3.7724664211273193 6 6 6
0.034306615591049194 0.5614655613899231 3.781872034072876 102 102 102
-0.2982105016708374 0.760336697101593 3.726238250732422 65 65 65
0.26619142293930054 0.7837576270103455 3.855468273162842 43 43 43
-0.2675054371356964 0.7567433714866638 3.7374792098999023 83 83 83
1.0755845308303833 0.8047186136245728 4.015872955322266 16 16 16
1.854544758796692 0.6266117691993713 4.162023544311523 10 10 10
1.60548734664917 0.8169098496437073 4.124918460845947 9 9 9
0.32903826236724854 -0.4111517667770386 3.7468485832214355 64 64 64
1.6054753065109253 0.8169073462486267 4.124885559082031 9 9 9
-1.3649479150772095 0.5817273259162903 3.488564968109131 15 15 15
0.5978743433952332 -0.3982738256454468 3.812106132507324 5 5 5
-1.228440523147583 0.5668354034423828 3.51554536819458 129 129 129
0.257136732339859 0.5937834978103638 3.84102201461792 64 64 64
-0.8215780854225159 0.5771985650062561 3.601289987564087 109 109 109
0.25713610649108887 0.593783974647522 3.8410096168518066 64 64 64
-0.30771973729133606 2.381366729736328 3.8734796047210693 56 56 56
-0.06682593375444412 2.3824238777160645 3.9077892303466797 35 35 35
-1.3960424661636353 2.1686792373657227 3.6105101108551025 44 44 44
-1.107383370399475 -0.2322622388601303 3.4795775413513184 11 11 11
-1.0948681831359863 -0.2035950869321823 3.4633450508117676 101 101 101
-0.8601384162902832 2.182136058807373 3.74006986618042 18 18 18
-1.0944445133209229 -0.20278368890285492 3.462265729904175 101 101 101
-0.23925358057022095 -0.19683919847011566 3.6084375381469727 42 42 42
-0.7819603681564331 -0.18971985578536987 3.5428030490875244 38 38 38
0.7496984601020813 2.199805974960327 4.075295925140381 16 16 16
-1.1119179725646973 1.9746509790420532 3.6593291759490967 65 65 65
0.7267438173294067 2.213263988494873 4.105044364929199 47 47 47
0.8310333490371704 -0.1660604476928711 3.8596560955047607 25 25 25
-0.8437120914459229 1.9731389284133911 3.73437237739563 60 60 60
-0.29526519775390625 1.9736297130584717 3.8488121032714844 18 18 18
1.7751309871673584 -0.1212199330329895 4.055665493011475 72 72 72
1.7730066776275635 -0.07473868876695633 4.059117794036865 42 42 42
-1.0060100555419922 -0.06686900556087494 3.4940297603607178 82 82 82
-0.8066178560256958 -0.039794813841581345 3.550443172454834 70 70 70
-1.1999903917312622 1.7822426557540894 3.612494707107544 83 83 83
-1.3813992738723755 1.7633641958236694 3.582076072692871 60 60 60
-1.3137925863265991 -0.03405653312802315 3.458188533782959 103 103 103
-1.0633374452590942 -0.023898055776953697 3.4979920387268066 40 40 40
-1.0270836353302002 1.7582964897155762 3.6408653259277344 95 95 95
-0.8362659215927124 1.7812334299087524 3.6959969997406006 93 93 93
0.8162215948104858 -0.022264689207077026 3.8752644062042236 46 46 46
-1.2516945600509644 -0.012535820715129375 3.4648971557617188 109 109 109
0.23335687816143036 1.787109613418579 3.9422967433929443 8 8 8
-0.5091181397438049 -0.010736002586781979 3.611149311065674 10 10 10
1.7657227516174316 -0.0031166160479187965 4.114459991455078 59 59 59
1.7441655397415161 0.00418017478659749 4.074215412139893 36 36 36
-0.9470579624176025 -0.0036879375111311674 3.5114169120788574 63 63 63
-0.25682124495506287 0.03101165033876896 3.6431729793548584 83 83 83
-0.5535793900489807 -1.8710318803787231 3.4527008533477783 21 21 21
-1.3611466884613037 2.2176873683929443 3.604989528656006 62 62 62
-0.7527855038642883 -1.4410855770111084 3.424769401550293 53 53 53
-0.7248422503471375 -1.281100869178772 3.446091651916504 74 74 74
-0.7267277240753174 -1.26244056224823 3.4553110599517822 44 44 44
-0.5668753385543823 -1.2229132652282715 3.4624404907226562 44 44 44
-1.3441911935806274 -0.18560032546520233 3.427415609359741 90 90 90
0.36948564648628235 -1.237639307975769 3.693251848220825 22 22 22
-1.022299885749817 -0.16801974177360535 3.50091814994812 80 80 80
1.8583626747131348 0.7948073744773865 4.1825947761535645 15 15 15
1.8766918182373047 -0.15465325117111206 4.051624774932861 38 38 38
-1.1307120323181152 0.9409924149513245 3.554469585418701 60 60 60
-1.1074713468551636 0.9433357119560242 3.5690035820007324 21 21 21
0.7284125089645386 0.7767786979675293 3.9312455654144287 59 59 59
-0.9531741142272949 1.8036108016967773 3.6370608806610107 75 75 75
-1.1214998960494995 1.7936666011810303 3.643393039703369 90 90 90
-0.2306070327758789 1.8620659112930298 3.815678596496582 81 81 81
-1.1299582719802856 1.742104411125183 3.626988410949707 46 46 46
-0.6526374816894531 1.7901536226272583 3.735905170440674 82 82 82
-0.633603572845459 -0.9988160133361816 3.4783289432525635 46 46 46
-0.2065306454896927 -1.0129934549331665 3.588792562484741 44 44 44
0.6356471180915833 -1.0201793909072876 3.7605721950531006 15 15 15
0.012966161593794823 0.5636591911315918 3.7823452949523926 62 62 62
1.8950949907302856 -0.0010783568723127246 4.116413116455078 8 8 8
1.3708242177963257 0.006701333913952112 4.0037360191345215 30 30 30
1.6401349306106567 0.03125663101673126 4.068213939666748 12 12 12
-0.29676222801208496 0.03224046900868416 3.666198253631592 64 64 64
1.077786922454834 0.5691223740577698 3.947331428527832 26 26 26
1.6269885301589966 0.5888214111328125 4.115992546081543 61 61 61
-0.4354774057865143 -0.8133609890937805 3.5465354919433594 39 39 39
-0.35651829838752747 -0.8181931376457214 3.5797481536865234 21 21 21
0.8955670595169067 -0.8082877993583679 3.828378438949585 15 15 15
-1.1560639142990112 0.14674334228038788 3.48995041847229 10 10 10
-0.46109339594841003 -0.7073416709899902 3.5558393001556396 72 72 72
-1.368954062461853 1.4201265573501587 3.5568203926086426 16 16 16
1.034625768661499 1.6196550130844116 4.080283164978027 27 27 27
0.9769387245178223 1.5846104621887207 4.061575412750244 5 5 5
-0.4351349174976349 -0.6002895832061768 3.4768598079681396 38 38 38
-1.1899899244308472 -0.5781769156455994 3.4254226684570312 74 74 74
1.1276966333389282 -0.5854970216751099 3.909792423248291 36 36 36
0.815973699092865 0.20691895484924316 3.845795154571533 73 73 73
0.37253737449645996 0.82753586769104 3.870891571044922 18 18 18
1.9118622541427612 0.234256312251091 4.207624435424805 41 41 41
-0.6555270552635193 0.21407945454120636 3.5847909450531006 53 53 53
-0.7455873489379883 0.3928442597389221 3.592883825302124 61 61 61
-0.01895947754383087 0.8720568418502808 3.781805992126465 73 73 73
-0.3199380338191986 -0.40503910183906555 3.5990476608276367 52 52 52
-0.1983799934387207 -0.4097249507904053 3.6466634273529053 37 37 37
-1.3814871311187744 0.8239168524742126 3.4961938858032227 57 57 57
-1.3814818859100342 0.8239238858222961 3.4961862564086914 57 57 57
-0.4529705047607422 0.241698756814003 3.635376453399658 73 73 73
-1.2364134788513184 1.160097599029541 3.566509962081909 50 50 50
0.049234405159950256 0.26040685176849365 3.759280204772949 55 55 55
-0.5744706988334656 0.2829206883907318 3.623302936553955 61 61 61
0.2997244894504547 0.2999102771282196 3.8247008323669434 17 17 17
-1.0859897136688232 0.44620728492736816 3.5825138092041016 29 29 29
-1.3439174890518188 0.47948452830314636 3.472606658935547 63 63 63
1.5050760507583618 0.864958643913269 4.127308368682861 42 42 42
-0.0508783794939518 2.177473306655884 3.895859718322754 56 56 56
-0.17096033692359924 1.279527187347412 3.805449962615967 62 62 62
-0.6505473852157593 -1.0287511348724365 3.5142130851745605 44 44 44
0.9913193583488464 0.18552201986312866 3.950486660003662 50 50 50
-0.05081542208790779 0.8712558150291443 3.7781248092651367 77 77 77
-0.8151168823242188 1.1077308654785156 3.6329309940338135 63 63 63
0.12844865024089813 0.055264320224523544 3.753824472427368 75 75 75
1.9017207622528076 0.026755504310131073 4.128468036651611 45 45 45
-1.3713774681091309 0.7950412631034851 3.4924590587615967 48 48 48
-0.47677671909332275 -0.789440929889679 3.5676956176757812 25 25 25
0.01930135488510132 0.38794252276420593 3.773928165435791 90 90 90
-1.0947518348693848 0.7640841603279114 3.5456862449645996 125 125 125
-0.712978184223175 -1.4400112628936768 3.454328775405884 46 46 46
-0.7280212044715881 -1.2821333408355713 3.452025890350342 55 55 55
-1.3453565835952759 0.7415741682052612 3.512690782546997 92 92 92
1.093037486076355 0.41865113377571106 3.985111951828003 24 24 24
-1.0583021640777588 0.3778417408466339 3.543433666229248 37 37 37
-1.2421839237213135 0.3677569329738617 3.507067918777466 88 88 88
0.26675280928611755 0.7823976278305054 3.8524930477142334 39 39 39
-0.510672390460968 0.4053182005882263 3.6477980613708496 21 21 21
1.6302415132522583 0.8289973139762878 4.188605785369873 40 40 40
1.580531120300293 0.8010110259056091 4.061383247375488 50 50 50
-0.44693121314048767 -1.0522561073303223 3.5392630100250244 21 21 21
-0.8599776029586792 -1.022786259651184 3.4395341873168945 64 64 64
0.03218776732683182 0.5608615279197693 3.7845613956451416 101 101 101
-1.2725096940994263 -0.8542737364768982 3.371910810470581 89 89 89
-0.824806272983551 0.5777363181114197 3.603628396987915 100 100 100
-0.5084977746009827 0.5565690994262695 3.660851240158081 96 96 96
-1.0371410846710205 0.5641545653343201 3.54682993888855 56 56 56
-1.030538558959961 -0.8252447247505188 3.427861452102661 40 40 40
-0.26730871200561523 0.5837540626525879 3.6972930431365967 97 97 97
0.3533309996128082 -0.8222916722297668 3.7153806686401367 27 27 27
0.06954251974821091 -0.7884466052055359 3.6549038887023926 36 36 36
-1.4216009378433228 2.17475962638855 3.61533522605896 33 33 33
-1.0419044494628906 -0.6508271098136902 3.4501829147338867 61 61 61
-1.1330069303512573 2.1728618144989014 3.681525468826294 42 42 42
-0.5648633241653442 2.1616334915161133 3.7887585163116455 66 66 66
-0.7749806642532349 -0.6215648055076599 3.5249128341674805 46 46 46
-0.7532802224159241 -0.6134359836578369 3.521629571914673 26 26 26
-0.2080705612897873 -0.6055865287780762 3.6385691165924072 57 57 57
-1.3794200420379639 1.9649388790130615 3.615941047668457 43 43 43
-0.8437532186508179 1.9732489585876465 3.734565019607544 60 60 60
-1.2913942337036133 -0.4425312578678131 3.434962034225464 25 25 25
-0.8450099229812622 1.9404808282852173 3.710754871368408 69 69 69
-1.2021828889846802 -0.4448414146900177 3.48712420463562 54 54 54
-1.3040931224822998 -0.43212810158729553 3.4250102043151855 31 31 31
0.2333601862192154 1.7871017456054688 3.9422802925109863 8 8 8
-0.01899099536240101 1.7348657846450806 3.8540406227111816 50 50 50
0.4910861551761627 1.7567776441574097 3.981855869293213 34 34 34
-1.3677699565887451 1.529934287071228 3.5610454082489014 35 35 35
-0.4800351858139038 -0.24054457247257233 3.5907013416290283 23 23 23
-0.9186829924583435 1.5537617206573486 3.659782886505127 2 2 2
-1.1073740720748901 -0.23225951194763184 3.4795546531677246 11 11 11
-1.2894328832626343 -0.2225261628627777 3.4373602867126465 99 99 99
-1.1056535243988037 -0.21677736937999725 3.47963547706604 48 48 48
-0.31567680835723877 1.542832612991333 3.7700319290161133 35 35 35
-0.7895615696907043 -0.2089925855398178 3.530620813369751 15 15 15
0.23823119699954987 1.5310527086257935 3.882398843765259 51 51 51
-0.2567715346813202 -0.19928087294101715 3.6551575660705566 75 75 75
-0.24337337911128998 -0.20113183557987213 3.6710376739501953 7 7 7
0.30302533507347107 -0.1905033141374588 3.8030970096588135 29 29 29
0.8304977416992188 -0.1670503169298172 3.874044895172119 16 16 16
-1.3279516696929932 -0.056435950100421906 3.4447686672210693 73 73 73
-0.7801651358604431 -0.042431075125932693 3.548203945159912 79 79 79
-1.0826009511947632 1.3595869541168213 3.625028133392334 75 75 75
-0.8270770311355591 1.3801429271697998 3.672069787979126 106 106 106
-1.0633354187011719 -0.023901108652353287 3.497964382171631 40 40 40
-0.5091295838356018 -0.01073622889816761 3.611175298690796 10 10 10
1.371050238609314 0.006721253041177988 4.004426956176758 30 30 30
0.03435998409986496 0.0023328065872192383 3.7465157508850098 41 41 41
0.5132580995559692 1.3665802478790283 3.94796085357666 39 39 39
0.5699978470802307 0.006962120998650789 3.8577880859375 21 21 21
-0.48891961574554443 0.021219367161393166 3.608160972595215 76 76 76
0.5393567681312561 1.3616303205490112 3.9429919719696045 63 63 63
1.3083964586257935 1.4333171844482422 4.2047505378723145 41 41 41
1.1079559326171875 0.18581080436706543 3.979401111602783 14 14 14
0.28129613399505615 0.19224222004413605 3.813974142074585 100 100 100
0.25838223099708557 1.156079888343811 3.858157157897949 34 34 34
-0.6119954586029053 0.18835033476352692 3.5920350551605225 3 3 3
-0.23336327075958252 0.19122552871704102 3.7012927532196045 22 22 22
-1.3703347444534302 0.9921255707740784 3.5057482719421387 61 61 61
-0.6554940342903137 0.5574522018432617 3.60870361328125 17 17 17
-0.7341163158416748 0.1923285722732544 3.576759099960327 29 29 29
-1.3794364929199219 0.9837476015090942 3.518864631652832 21 21 21
-0.8379950523376465 0.9856219291687012 3.6429340839385986 65 65 65
-0.8379822373390198 0.9856210947036743 3.6428871154785156 65 65 65
-0.25154849886894226 0.3502904772758484 3.70027756690979 54 54 54
-0.685693085193634 0.35045909881591797 3.606449604034424 20 20 20
0.29935798048973083 0.3674609363079071 3.826171636581421 98 98 98
0.9528143405914307 0.3857261836528778 3.9472920894622803 98 98 98
0.548969566822052 0.9665019512176514 3.9187090396881104 73 73 73
1.8501042127609253 1.025967001914978 4.202942848205566 12 12 12
1.076333999633789 0.9715964794158936 4.027733325958252 59 59 59
-0.4373118579387665 -1.627474069595337 3.4879140853881836 21 21 21
-1.232169270515442 1.5760027170181274 3.565986394882202 71 71 71
0.6356470584869385 -1.020187497138977 3.760575294494629 15 15 15
1.179585576057434 -1.0136449337005615 3.866910934448242 25 25 25
-1.0268701314926147 -0.8484640717506409 3.43267822265625 21 21 21
-1.0269273519515991 -0.8485020995140076 3.432769536972046 21 21 21
-1.208964467048645 0.5480539798736572 3.5069310665130615 61 61 61
-1.1921941041946411 0.5491251945495605 3.5156097412109375 97 97 97
-1.027734637260437 -0.23692436516284943 3.4985830783843994 31 31 31
0.0792948380112648 0.5665726065635681 3.799419403076172 79 79 79
1.6263948678970337 0.588307797908783 4.112542152404785 61 61 61
-0.9184996485710144 1.5069278478622437 3.65451979637146 83 83 83
-1.3033884763717651 0.4011463224887848 3.466024160385132 63 63 63
-0.8761980533599854 0.7645903825759888 3.5775833129882812 128 128 128
0.37295350432395935 0.8283370733261108 3.8753037452697754 17 17 17
1.3046410083770752 1.5637528896331787 4.134281635284424 49 49 49
-0.20947915315628052 1.434470534324646 3.805365562438965 71 71 71
-1.2807903289794922 0.34677061438560486 3.4768707752227783 107 107 107
-0.9470779895782471 -0.0036834257189184427 3.511451244354248 63 63 63
-0.6065924167633057 0.3565870225429535 3.608151912689209 43 43 43
-1.107477068901062 0.9433269500732422 3.569004535675049 21 21 21
0.5508961081504822 0.006207091733813286 3.839042901992798 71 71 71
-0.5094380378723145 0.2558600902557373 3.6195266246795654 37 37 37
0.04923195764422417 0.26052770018577576 3.7592930793762207 55 55 55
-0.2961583733558655 0.031794268637895584 3.6587021350860596 57 57 57
-0.25754639506340027 0.030453721061348915 3.6533730030059814 80 80 80
-0.8448154926300049 0.19605587422847748 3.551816463470459 65 65 65
0.09364515542984009 0.193010151386261 3.7739920616149902 110 110 110
-0.4992600977420807 0.18097800016403198 3.5865707397460938 101 101 101
-0.7053223252296448 0.17896001040935516 3.593846321105957 60 60 60
-1.043743371963501 0.1645447313785553 3.5391316413879395 50 50 50
-0.8407531380653381 1.143028974533081 3.6371922492980957 45 45 45
-0.316140353679657 1.152796745300293 3.67215633392334 93 93 93
0.2970625162124634 0.174564927816391 3.7960569858551025 85 85 85
-1.1520713567733765 -0.3813839554786682 3.4426844120025635 85 85 85
-1.1364424228668213 1.8060520887374878 3.667569875717163 89 89 89
-1.201467514038086 1.7837681770324707 3.61478853225708 66 66 66
0.19931836426258087 1.9860920906066895 3.951876163482666 69 69 69
-1.2321467399597168 -0.43782299757003784 3.4199676513671875 67 67 67
-1.0443824529647827 -0.44553014636039734 3.4656763076782227 20 20 20
1.1276969909667969 -0.5854988098144531 3.9097983837127686 36 36 36
-1.1899845600128174 -0.5781807899475098 3.425415277481079 74 74 74
-0.9642642736434937 -0.6329696178436279 3.4713497161865234 9 9 9
-0.15376068651676178 -0.8093989491462708 3.6116578578948975 47 47 47
-1.0150604248046875 -0.7665935754776001 3.442600965499878 57 57 57
-0.17863963544368744 -0.01033687498420477 3.6765520572662354 82 82 82
-1.1962097883224487 -0.4329532980918884 3.3816349506378174 68 68 68
-0.12742145359516144 0.38366129994392395 3.720447301864624 103 103 103
-0.1923869550228119 0.3872295618057251 3.762608051300049 90 90 90
-0.966491162776947 0.17053277790546417 3.509338140487671 89 89 89
-0.6247062087059021 0.18984130024909973 3.618858814239502 3 3 3
-0.7667995095252991 0.9861029386520386 3.7159454822540283 59 59 59
-0.6542207598686218 1.3546808958053589 3.6561295986175537 82 82 82
-0.6739790439605713 0.568611204624176 3.597325086593628 3 3 3
-0.37430378794670105 0.7644355893135071 3.7198638916015625 80 80 80
-0.9529090523719788 1.1518900394439697 3.582529067993164 136 136 136
-0.5663343667984009 0.5732601881027222 3.6479299068450928 11 11 11
-0.9747275710105896 -1.655305027961731 3.3742804527282715 26 26 26
-0.43730929493904114 -1.62747061252594 3.487907886505127 21 21 21
-0.7129817008972168 -1.4400135278701782 3.4543354511260986 46 46 46
-0.1691516786813736 -1.4268114566802979 3.5761256217956543 32 32 32
-0.8599758148193359 -1.02278733253479 3.4395341873168945 64 64 64
-1.016839623451233 -0.8197837471961975 3.447890043258667 58 58 58
-0.749247670173645 -0.8300628066062927 3.5027897357940674 74 74 74
0.06954241544008255 -0.7884437441825867 3.6548852920532227 36 36 36
0.8955671191215515 -0.80828857421875 3.828378438949585 15 15 15
-0.49157506227493286 -0.6589865684509277 3.5564277172088623 56 56 56
0.07744337618350983 -0.6213864684104919 3.6733622550964355 48 48 48
0.3052988350391388 -0.5922703742980957 3.730013847351074 62 62 62
-1.2913954257965088 -0.4425312280654907 3.4349634647369385 25 25 25
-1.2660071849822998 -0.4439542889595032 3.4685709476470947 49 49 49
-1.2035958766937256 -0.4499392807483673 3.5380795001983643 32 32 32
-1.1004247665405273 -0.4259882867336273 3.448478937149048 28 28 28
-1.0911245346069336 -0.4342927932739258 3.4638051986694336 36 36 36
-1.1260267496109009 -0.4224468469619751 3.455631971359253 26 26 26
-1.1175990104675293 -0.4204014539718628 3.458595037460327 101 101 101
-0.19837906956672668 -0.40972334146499634 3.6466588973999023 37 37 37
0.32838112115859985 -0.4146880805492401 3.763704776763916 62 62 62
-0.9737074971199036 -0.225899800658226 3.4783411026000977 66 66 66
-1.0827112197875977 -0.19532009959220886 3.4689815044403076 24 24 24
-0.2584158480167389 -0.20050117373466492 3.655104160308838 59 59 59
0.8349716663360596 -0.18445828557014465 3.8681392669677734 76 76 76
1.3905550241470337 -0.17802873253822327 4.014188766479492 28 28 28
-1.0633496046066284 -0.02390356920659542 3.4980194568634033 40 40 40
-0.4341627359390259 -0.017438698559999466 3.639273166656494 77 77 77
-0.19513565301895142 -0.00896451249718666 3.6713154315948486 99 99 99
1.7401278018951416 0.002649653935804963 4.054709434509277 47 47 47
0.03436015546321869 0.0023328945972025394 3.7465152740478516 41 41 41
1.1085286140441895 0.017167871817946434 3.9495396614074707 7 7 7
-0.2961602210998535 0.03179386630654335 3.658705234527588 57 57 57
-0.8990952968597412 0.08998649567365646 3.532351016998291 61 61 61
-0.5022028684616089 0.1567893773317337 3.6210899353027344 20 20 20
0.5755298733711243 0.17315274477005005 3.853621244430542 68 68 68
1.1079508066177368 0.1858116239309311 3.979372262954712 14 14 14
-1.3397431373596191 0.1668388396501541 3.470611572265625 66 66 66
-0.612737774848938 0.1871286928653717 3.5917978286743164 9 9 9
-0.037268150597810745 0.19411081075668335 3.745776653289795 90 90 90
-0.8448145985603333 0.19605472683906555 3.551806688308716 65 65 65
-0.5094435811042786 0.2558622360229492 3.6195406913757324 37 37 37
1.3729445934295654 0.3852234184741974 4.041491985321045 52 52 52
1.6232510805130005 0.5829008221626282 4.094925880432129 49 49 49
0.5654982328414917 0.5719653367996216 3.884680986404419 1 1 1
1.8429542779922485 0.6237930059432983 4.1793694496154785 62 62 62
1.8545585870742798 0.6266218423843384 4.1620774269104 10 10 10
0.771786093711853 0.6014885306358337 3.9254727363586426 53 53 53
-0.6561805605888367 0.5584569573402405 3.617304801940918 14 14 14
1.5880968570709229 0.8131237030029297 4.1325907707214355 65 65 65
1.6191978454589844 0.814065158367157 4.112509727478027 61 61 61
0.5457683801651001 0.800518810749054 3.9223456382751465 30 30 30
-0.003797815414145589 0.7898262739181519 3.794177532196045 87 87 87
-0.8761942982673645 0.7645887136459351 3.5775766372680664 128 128 128
-1.1009403467178345 0.7654958367347717 3.5555429458618164 53 53 53
1.8287928104400635 1.0192285776138306 4.198293209075928 37 37 37
1.8575209379196167 1.0121707916259766 4.173919200897217 76 76 76
1.2952207326889038 1.0032905340194702 4.0715012550354 74 74 74
1.3235650062561035 1.008326768875122 4.105369567871094 8 8 8
-1.0777298212051392 0.9361701607704163 3.573596477508545 80 80 80
-0.8306687474250793 0.9975941777229309 3.632988691329956 18 18 18
1.323203206062317 1.1680018901824951 4.089993000030518 49 49 49
0.0021378672681748867 1.1888689994812012 3.835792303085327 25 25 25
-0.5410596132278442 1.1629939079284668 3.6589717864990234 59 59 59
-0.5488437414169312 1.184775471687317 3.71698260307312 13 13 13
-1.0959548950195312 1.1769554615020752 3.6007728576660156 29 29 29
1.7935439348220825 1.3883976936340332 4.1489129066467285 36 36 36
0.5396987199783325 1.3521199226379395 3.9322516918182373 48 48 48
0.7741009593009949 1.3972169160842896 4.013895034790039 34 34 34
0.21967138350009918 1.4483230113983154 3.9045298099517822 73 73 73
-0.8465111255645752 1.36457097530365 3.658503532409668 50 50 50
-0.8270748257637024 1.380141258239746 3.672065496444702 106 106 106
-1.082600712776184 1.3595876693725586 3.625028610229492 75 75 75
0.7710859775543213 1.549047827720642 4.0038557052612305 75 75 75
1.0375087261199951 1.591799259185791 4.083568572998047 9 9 9
0.5106589198112488 1.5885038375854492 3.9689159393310547 63 63 63
-0.3175966143608093 1.5432682037353516 3.775132417678833 39 39 39
-1.1086336374282837 1.5656590461730957 3.630979061126709 20 20 20
1.3118561506271362 1.7943049669265747 4.167092323303223 60 60 60
0.48591020703315735 1.7448668479919434 3.970590591430664 43 43 43
0.7677161693572998 1.9578125476837158 4.055261611938477 17 17 17
-1.097503662109375 1.762963891029358 3.6594324111938477 78 78 78
0.500145435333252 2.145329475402832 4.000442981719971 59 59 59
-1.1119171380996704 1.9746485948562622 3.6593260765075684 65 65 65
0.7653515338897705 2.1890547275543213 4.060197353363037 57 57 57
-0.03333567455410957 2.142970323562622 3.8948814868927 47 47 47
-0.8769857883453369 2.1742517948150635 3.7253646850585938 101 101 101
-1.1328996419906616 2.1727452278137207 3.6813478469848633 42 42 42
-1.1163291931152344 2.1628055572509766 3.6872668266296387 33 33 33
-1.396046757698059 2.1686809062957764 3.6105172634124756 44 44 44
-0.0630975142121315 2.373109817504883 3.8945088386535645 40 40 40
-0.09762829542160034 2.4071900844573975 3.9407706260681152 62 62 62
-0.9747226238250732 -1.6553049087524414 3.3742690086364746 26 26 26
-0.7129780054092407 -1.4400078058242798 3.4543304443359375 46 46 46
-0.7304809093475342 -1.2849467992782593 3.4503791332244873 61 61 61
-0.8599773049354553 -1.022788166999817 3.4395368099212646 64 64 64
0.09844668209552765 -1.0328433513641357 3.6485650539398193 35 35 35
0.3320963978767395 -0.9983416795730591 3.702803373336792 59 59 59
0.8997349739074707 -0.9845344424247742 3.816216468811035 40 40 40
-1.0168430805206299 -0.8197845220565796 3.447894334793091 58 58 58
-0.18420331180095673 -0.8359079360961914 3.594679832458496 52 52 52
-0.46687641739845276 -0.8209556937217712 3.5645995140075684 98 98 98
-0.4995770752429962 -0.8173427581787109 3.5600593090057373 67 67 67
1.1470259428024292 -0.7785491943359375 3.9060583114624023 34 34 34
-1.0411359071731567 -0.6555854678153992 3.443488836288452 58 58 58
-0.7532761693000793 -0.61341792345047 3.52160906791687 26 26 26
-0.20808830857276917 -0.6055900454521179 3.6386094093322754 57 57 57
