ply
format ascii 1.0
element vertex 712
property float x
property float y
property float z
property uchar red
property uchar green
property uchar blue
end_header
-1.3293551206588745 3.147481918334961 14.837545394897461 47 47 47
-1.3465837240219116 -4.47641134262085 15.19678783416748 84 84 84
-1.3091219663619995 1.086449146270752 14.782255172729492 100 100 100
-1.3140236139297485 -5.728294372558594 14.851872444152832 67 67 67
-1.2933900356292725 -3.76623797416687 14.973034858703613 101 101 101
-1.2891955375671387 1.6253420114517212 14.93005084991455 77 77 77
-1.296781301498413 -3.32918381690979 15.203817367553711 85 85 85
-1.3100095987319946 0.14034391939640045 15.010736465454102 94 94 94
-1.301605224609375 4.034485816955566 15.210664749145508 51 51 51
-1.2259715795516968 0.3122616708278656 14.846577644348145 65 65 65
-1.2022405862808228 -0.31861820816993713 14.781834602355957 74 74 74
-1.2028251886367798 -2.4449381828308105 14.569426536560059 98 98 98
-1.2191414833068848 2.6094131469726562 15.047003746032715 49 49 49
-1.2685003280639648 -0.9294989109039307 15.386938095092773 65 65 65
-1.2041890621185303 -5.382795333862305 15.164052963256836 79 79 79
-1.291035771369934 1.7936078310012817 15.680930137634277 132 132 132
-1.190639853477478 -5.497640609741211 15.112826347351074 63 63 63
-1.1642048358917236 0.1429266482591629 14.91012191772461 80 80 80
-1.0999767780303955 -2.55403733253479 14.80160140991211 77 77 77
-1.1461127996444702 -4.065387725830078 15.137923240661621 54 54 54
-1.1573566198349 -7.508946895599365 15.416579246520996 60 60 60
-1.2108272314071655 2.3626420497894287 16.271100997924805 86 86 86
-1.1052919626235962 1.802361249923706 14.89050579071045 71 71 71
-1.153327465057373 -7.874194145202637 15.578407287597656 79 79 79
-1.1050502061843872 -1.49106764793396 15.04423713684082 115 115 115
-1.0896625518798828 3.695507526397705 14.92849349975586 98 98 98
-1.0650548934936523 -0.05401833727955818 14.87623405456543 40 40 40
-1.03817617893219 0.17367905378341675 14.716839790344238 61 61 61
-1.1178408861160278 0.12031812965869904 15.382662773132324 72 72 72
-0.9970974922180176 -4.326504230499268 14.556446075439453 77 77 77
-1.0844417810440063 -4.257960319519043 14.989556312561035 130 130 130
-1.0856845378875732 1.759982705116272 15.488682746887207 146 146 146
-1.1959457397460938 2.721590518951416 16.552322387695312 54 54 54
-0.9972615838050842 -0.02837892435491085 15.048674583435059 103 103 103
-1.0144423246383667 -4.094984531402588 15.030742645263672 71 71 71
-0.9499314427375793 -5.036728858947754 14.71760082244873 51 51 51
-1.0421611070632935 -5.530348777770996 15.61597728729248 90 90 90
-1.0261120796203613 -4.371766090393066 15.436307907104492 92 92 92
-0.9825415015220642 3.1154446601867676 14.951066970825195 41 41 41
-0.9728642702102661 -1.3614681959152222 14.976838111877441 99 99 99
-0.87086021900177 -3.9432566165924072 14.337922096252441 83 83 83
-0.9558097124099731 2.0361480712890625 14.911006927490234 40 40 40
-0.9558097124099731 2.0361480712890625 14.911006927490234 40 40 40
-1.052051067352295 0.26578035950660706 15.672574043273926 81 81 81
-0.9507837295532227 1.8353132009506226 14.83012580871582 107 107 107
-1.0139439105987549 -0.7005242705345154 15.792531967163086 108 108 108
-0.8643950819969177 0.16705888509750366 14.644157409667969 100 100 100
-0.9149712920188904 -1.7361671924591064 15.28126049041748 55 55 55
-0.9036352038383484 -5.425895690917969 15.39561939239502 62 62 62
-0.9608158469200134 3.1197242736816406 15.78203296661377 90 90 90
-0.9019224047660828 -7.253619194030762 15.6365385055542 46 46 46
-0.8639183640480042 -2.58478045463562 15.12155532836914 60 60 60
-0.9520895481109619 -1.335402250289917 16.11017608642578 106 106 106
-0.8527457118034363 -4.493196487426758 15.295771598815918 63 63 63
-0.7932775020599365 1.5547068119049072 15.067181587219238 145 145 145
-0.8077624440193176 2.6644577980041504 14.883798599243164 118 118 118
-0.8390378355979919 -7.327353477478027 15.635162353515625 64 64 64
-0.8200087547302246 -2.0620455741882324 14.80987548828125 90 90 90
-0.7917060256004333 -1.8332817554473877 14.95991325378418 85 85 85
-0.7802141308784485 0.031216470524668694 14.864096641540527 66 66 66
-0.7654217481613159 -4.364719390869141 15.193366050720215 45 45 45
-0.8091813325881958 0.21358464658260345 15.622539520263672 86 86 86
-0.698483943939209 0.520867645740509 14.666141510009766 71 71 71
-0.698483943939209 0.520867645740509 14.666141510009766 71 71 71
-0.76753169298172 0.9501283764839172 14.955499649047852 43 43 43
-0.7842007875442505 -0.340542197227478 15.151302337646484 65 65 65
-0.7728462815284729 -3.4847726821899414 15.160134315490723 54 54 54
-0.6985229253768921 0.5208573341369629 14.666516304016113 71 71 71
-0.753021776676178 2.2326700687408447 14.990287780761719 68 68 68
-0.7507845163345337 -1.7861592769622803 15.006355285644531 79 79 79
-0.7507845163345337 -1.7861592769622803 15.006355285644531 79 79 79
-0.7917830348014832 -7.605839729309082 15.821233749389648 63 63 63
-0.7887215614318848 -7.592648506164551 15.794072151184082 63 63 63
-0.7145787477493286 1.1113735437393188 14.703019142150879 68 68 68
-0.7656715512275696 -5.206851005554199 15.586913108825684 51 51 51
-0.734475314617157 -0.4106537401676178 14.998468399047852 83 83 83
-0.7321138978004456 -2.719698429107666 15.232906341552734 71 71 71
-0.7166357040405273 2.451916456222534 15.038022994995117 98 98 98
-0.6848167777061462 2.0228474140167236 14.980600357055664 87 87 87
-0.7160894274711609 -7.514758110046387 15.711180686950684 28 28 28
-0.6916994452476501 -4.332859992980957 15.20251178741455 40 40 40
-0.6576687693595886 -1.8047010898590088 14.986001968383789 41 41 41
-0.6838496327400208 -7.155285835266113 15.636666297912598 96 96 96
-0.6392443180084229 0.5892130732536316 14.907622337341309 51 51 51
-0.6172612309455872 -2.2809791564941406 15.078959465026855 103 103 103
-0.6043546795845032 -1.1896744966506958 14.799210548400879 61 61 61
-0.5881258845329285 -3.4662983417510986 14.91081428527832 36 36 36
-0.5940826535224915 -1.6863658428192139 14.983183860778809 95 95 95
-0.5940826535224915 -1.6863658428192139 14.983183860778809 95 95 95
-0.5602428913116455 0.09622853249311447 15.101211547851562 83 83 83
-0.5497878789901733 1.2389768362045288 15.008598327636719 19 19 19
-0.5627424716949463 1.3797547817230225 15.217382431030273 39 39 39
-0.4812786281108856 -5.878174304962158 14.730270385742188 53 53 53
-0.5446857213973999 0.8269277215003967 15.081331253051758 85 85 85
-0.5399854183197021 -0.7258594632148743 15.363595962524414 60 60 60
-0.4800485670566559 2.345728874206543 15.112051010131836 21 21 21
-0.5351343154907227 -2.4565320014953613 15.262676239013672 60 60 60
-0.49665749073028564 1.6597678661346436 14.844648361206055 51 51 51
-0.497860312461853 -0.5559147000312805 15.020476341247559 50 50 50
-0.497860312461853 -0.5559147000312805 15.020476341247559 50 50 50
-0.4981384575366974 -0.27639317512512207 14.95158863067627 92 92 92
-0.4992271363735199 -3.4484386444091797 15.082847595214844 30 30 30
-0.5140146613121033 -6.0988030433654785 15.548619270324707 74 74 74
-0.48640912771224976 -0.018421484157443047 15.045539855957031 95 95 95
-0.4407501518726349 1.8540197610855103 15.075506210327148 68 68 68
-0.47352200746536255 -1.6909160614013672 15.18632698059082 88 88 88
-0.4751681685447693 2.6173176765441895 15.2900972366333 99 99 99
-0.4633709788322449 0.4879223704338074 15.028167724609375 48 48 48
-0.4433780014514923 4.198636054992676 14.430145263671875 76 76 76
-0.4482342302799225 2.2053723335266113 14.718700408935547 30 30 30
-0.511415958404541 -0.9016820192337036 16.107412338256836 131 131 131
-0.511415958404541 -0.9016820192337036 16.107412338256836 131 131 131
-0.511415958404541 -0.9016820192337036 16.107412338256836 131 131 131
-0.440856397151947 -0.2611440122127533 15.112364768981934 72 72 72
-0.43987879157066345 -0.6558191776275635 15.128470420837402 57 57 57
-0.43879279494285583 -6.111852645874023 15.537056922912598 107 107 107
-0.44075241684913635 1.8540314435958862 15.075501441955566 68 68 68
-0.3998347520828247 -0.7429580688476562 14.963724136352539 104 104 104
-0.3618583679199219 0.20291629433631897 14.997254371643066 58 58 58
-0.3710471987724304 -0.26931849122047424 15.170548439025879 50 50 50
-0.3297426402568817 2.805340528488159 15.018790245056152 98 98 98
-0.3103899359703064 0.08946896344423294 14.91779899597168 81 81 81
-0.28566378355026245 -3.1203620433807373 13.989519119262695 80 80 80
-0.2923639118671417 1.6231242418289185 14.683703422546387 79 79 79
-0.29584676027297974 2.385429859161377 15.056530952453613 52 52 52
-0.28980496525764465 1.4425358772277832 15.012202262878418 77 77 77
-0.25623801350593567 0.09855380654335022 15.140647888183594 66 66 66
-0.24887634813785553 -0.6746627688407898 15.221096992492676 49 49 49
-0.14881397783756256 -0.1886787861585617 14.226423263549805 48 48 48
-0.1805868297815323 -0.272857666015625 15.150062561035156 45 45 45
-0.1664728969335556 1.141835331916809 15.107303619384766 56 56 56
-0.1627352088689804 2.632439374923706 15.155921936035156 76 76 76
-0.15104398131370544 1.786264181137085 15.172234535217285 42 42 42
-0.14273031055927277 2.8168582916259766 15.091490745544434 75 75 75
-0.11065623164176941 2.8872227668762207 14.52334976196289 113 113 113
-0.12338267266750336 0.8256649374961853 15.190582275390625 101 101 101
-0.11940611153841019 -2.7520077228546143 15.347002983093262 38 38 38
-0.05790680646896362 2.167583465576172 14.25438117980957 17 17 17
-0.11240900307893753 2.94647216796875 14.863622665405273 122 122 122
-0.08505143970251083 -1.5688334703445435 15.163675308227539 44 44 44
-0.0838177502155304 0.08863094449043274 15.223954200744629 44 44 44
-0.0838177502155304 0.08863094449043274 15.223954200744629 44 44 44
-0.07803211361169815 -3.5945804119110107 15.38833236694336 61 61 61
0.0059783267788589 -4.171858787536621 14.619438171386719 55 55 55
-0.02286587655544281 -0.030673133209347725 15.08953857421875 50 50 50
-0.041259508579969406 -1.8046529293060303 15.270302772521973 54 54 54
-0.041413579136133194 1.0941853523254395 15.41334056854248 52 52 52
-3.0339577278937213e-05 2.146656036376953 15.160600662231445 30 30 30
0.036055199801921844 -1.7337664365768433 15.286745071411133 71 71 71
0.036055199801921844 -1.7337664365768433 15.286745071411133 71 71 71
0.05141747370362282 2.333017110824585 15.507406234741211 29 29 29
0.09800606220960617 0.9036847352981567 15.269017219543457 39 39 39
0.1353987604379654 2.733304738998413 15.299153327941895 69 69 69
0.15678317844867706 2.0769450664520264 15.25521469116211 114 114 114
0.20322760939598083 3.2653870582580566 14.927815437316895 50 50 50
0.3089388906955719 3.2834181785583496 15.460211753845215 85 85 85
0.6107736825942993 0.7582501173019409 1.4925181865692139 70 70 70
-1.3532700538635254 1.77567458152771 15.61181926727295 127 127 127
-0.6848339438438416 2.0228753089904785 14.980708122253418 87 87 87
-6.574607849121094 0.8264158368110657 14.791426658630371 132 132 132
-2.5413658618927 3.7613325119018555 14.655781745910645 126 126 126
-5.522610187530518 5.696234703063965 14.053901672363281 129 129 129
-2.3091506958007812 4.899032115936279 13.921451568603516 95 95 95
-3.456441640853882 2.858051300048828 13.719669342041016 88 88 88
-5.717334270477295 6.442197799682617 14.118338584899902 86 86 86
-4.647205352783203 3.6996970176696777 14.442084312438965 8 8 8
-1.5797779560089111 3.0240490436553955 14.68936538696289 40 40 40
-2.832063674926758 -1.7897125482559204 14.67701244354248 145 145 145
-2.431086301803589 4.426592826843262 14.793630599975586 15 15 15
-5.826610565185547 0.0484563410282135 13.886890411376953 145 145 145
-2.703188419342041 1.0418940782546997 14.697593688964844 91 91 91
-5.154563903808594 -4.045469284057617 14.15588092803955 80 80 80
-2.4645674228668213 -3.260251760482788 14.85030460357666 21 21 21
-3.6884939670562744 1.5917842388153076 14.484036445617676 12 12 12
-4.7614359855651855 0.7834216356277466 14.141026496887207 206 206 206
-6.519687175750732 -3.9759654998779297 13.912497520446777 33 33 33
-2.775761604309082 -1.7299020290374756 14.561898231506348 8 8 8
-5.6043596267700195 1.4754483699798584 13.892325401306152 11 11 11
-1.9315721988677979 -4.337892532348633 15.17141056060791 138 138 138
-6.2070441246032715 -4.6179938316345215 14.054939270019531 42 42 42
-5.97061014175415 -3.063758611679077 13.656648635864258 118 118 118
-1.5689404010772705 1.6162532567977905 14.765097618103027 200 200 200
-5.4322404861450195 4.966806411743164 14.088984489440918 2 2 2
-2.665147304534912 0.816131591796875 14.460607528686523 25 25 25
-1.811428427696228 -4.381015300750732 15.2941255569458 213 213 213
-2.57108211517334 3.013728141784668 14.859749794006348 25 25 25
-2.8590760231018066 -1.716910481452942 14.58284854888916 135 135 135
-2.8130881786346436 -1.7199329137802124 14.75867748260498 126 126 126
-3.6742937564849854 1.5733702182769775 14.423624992370605 50 50 50
-4.541588306427002 3.7411770820617676 14.213542938232422 25 25 25
-1.6624886989593506 0.7244821190834045 14.83662223815918 6 6 6
-2.0023515224456787 -4.365870952606201 15.159818649291992 181 181 181
-6.290123462677002 -1.5768295526504517 13.666353225708008 102 102 102
-6.011173725128174 0.7720515727996826 13.700908660888672 74 74 74
-2.856577157974243 -1.7149516344070435 14.569648742675781 135 135 135
-1.541712760925293 1.7204688787460327 14.845787048339844 28 28 28
-5.957325458526611 1.471960186958313 13.768141746520996 160 160 160
-6.499289512634277 -4.069534778594971 14.004562377929688 32 32 32
-1.5798075199127197 1.7403182983398438 14.871307373046875 162 162 162
-2.762861490249634 -0.028190087527036667 14.637158393859863 40 40 40
-1.9526461362838745 -1.6374567747116089 14.830926895141602 29 29 29
-1.5936639308929443 1.818621039390564 14.884415626525879 22 22 22
-1.7009987831115723 1.6289912462234497 15.60590934753418 138 138 138
-2.356842517852783 2.816514015197754 14.947892189025879 152 152 152
-6.380566596984863 -3.2574868202209473 14.453024864196777 123 123 123
-0.09758279472589493 1.5924959182739258 15.395020484924316 70 70 70
-0.596130907535553 -0.08183630555868149 14.851898193359375 2 2 2
-4.83306884765625 -0.04765443503856659 14.039215087890625 71 71 71
-1.6176151037216187 1.998407006263733 15.043150901794434 17 17 17
-3.8552961349487305 -1.586685299873352 14.551304817199707 37 37 37
-3.015507459640503 1.5163304805755615 14.939495086669922 5 5 5
-1.4763942956924438 1.955314040184021 14.877250671386719 166 166 166
-1.7253220081329346 -3.4000256061553955 14.938488006591797 115 115 115
-0.8884339928627014 2.692302942276001 14.87524127960205 192 192 192
-6.319352626800537 -3.1342661380767822 13.742134094238281 34 34 34
-5.877132892608643 -1.4959242343902588 13.892847061157227 149 149 149
-0.6848359704017639 2.022878885269165 14.98072338104248 87 87 87
-4.736021041870117 1.4576340913772583 14.11533260345459 46 46 46
-3.0153989791870117 1.5162855386734009 14.93885612487793 5 5 5
-0.8466383814811707 2.151723623275757 15.011317253112793 167 167 167
-0.802504301071167 2.039438009262085 14.229798316955566 157 157 157
-0.8465504050254822 2.151641368865967 15.010577201843262 167 167 167
-3.0281527042388916 -4.161940097808838 14.7299165725708 45 45 45
-2.8309412002563477 1.493033528327942 14.84584903717041 161 161 161
-1.6868778467178345 2.2713849544525146 15.415905952453613 67 67 67
-2.660269260406494 1.468510389328003 14.58085823059082 45 45 45
-4.616769790649414 2.4040775299072266 14.189013481140137 4 4 4
-4.342785835266113 5.04531717300415 14.144194602966309 13 13 13
-2.6653952598571777 0.8731663227081299 14.705615997314453 48 48 48
0.05140926316380501 2.3330626487731934 15.507173538208008 29 29 29
-3.67604398727417 2.218449115753174 14.55506420135498 21 21 21
-1.6623883247375488 0.7244383096694946 14.835885047912598 6 6 6
0.04836416617035866 2.227004051208496 14.765824317932129 64 64 64
0.048365820199251175 2.2270023822784424 14.765789031982422 64 64 64
0.05147312209010124 2.332911491394043 15.506114959716797 29 29 29
-6.4060893058776855 -0.6807771921157837 14.187838554382324 108 108 108
-3.7178478240966797 7.848791599273682 14.52686882019043 29 29 29
-1.5472229719161987 2.2835142612457275 14.95998477935791 142 142 142
-2.0843279361724854 2.428753614425659 14.798938751220703 67 67 67
-2.1901819705963135 2.2297449111938477 14.369163513183594 151 151 151
-3.937915325164795 -5.188988208770752 14.48306941986084 167 167 167
-0.6546056866645813 2.3267998695373535 15.108607292175293 119 119 119
-0.5792088508605957 2.341069221496582 15.12746524810791 128 128 128
-3.088221549987793 0.7376396656036377 14.383344650268555 148 148 148
-5.510843753814697 4.348876476287842 14.127280235290527 29 29 29
-0.5951411724090576 -3.469149589538574 14.916990280151367 65 65 65
-4.733285427093506 1.0605785846710205 14.056801795959473 19 19 19
-2.011627197265625 2.4373481273651123 15.038074493408203 73 73 73
-2.7029714584350586 1.0418579578399658 14.69672679901123 91 91 91
-1.662436604499817 0.7244665026664734 14.836275100708008 6 6 6
-2.1901769638061523 2.2297465801239014 14.36913776397705 151 151 151
-0.6314277648925781 -0.8180928230285645 15.066898345947266 83 83 83
-2.024444818496704 2.271188974380493 14.649648666381836 128 128 128
-5.94366979598999 0.7028165459632874 13.909361839294434 193 193 193
-3.450871467590332 4.457566738128662 14.563291549682617 158 158 158
-2.907383918762207 -5.111143112182617 14.632279396057129 18 18 18
-3.540985107421875 4.44615364074707 14.569456100463867 78 78 78
-1.935723066329956 -8.227224349975586 15.381359100341797 105 105 105
-2.59797739982605 2.2846202850341797 14.721634864807129 3 3 3
-0.11887522786855698 0.7970308661460876 15.16312313079834 117 117 117
-3.859581708908081 -0.800493061542511 14.658934593200684 147 147 147
-5.83626651763916 -0.7666786313056946 14.146286010742188 5 5 5
-5.794595718383789 -0.7918641567230225 13.907353401184082 40 40 40
-5.794220447540283 -0.7918137907981873 13.906405448913574 40 40 40
-5.4635796546936035 -7.627443790435791 14.401866912841797 53 53 53
-2.4152681827545166 2.342924118041992 14.654420852661133 175 175 175
-0.48003652691841125 2.3457114696502686 15.111862182617188 21 21 21
-2.8682403564453125 -0.8916976451873779 15.311360359191895 33 33 33
-6.441682815551758 -3.3258841037750244 13.82197380065918 53 53 53
-0.6181278824806213 0.8620909452438354 15.192866325378418 131 131 131
-0.5406103134155273 0.8445761799812317 15.049825668334961 108 108 108
-2.868317127227783 -0.8917075991630554 15.31165885925293 33 33 33
-2.4309756755828857 4.426406383514404 14.792978286743164 15 15 15
-2.540832757949829 3.8346474170684814 15.030401229858398 77 77 77
-5.539623737335205 2.884417772293091 13.880783081054688 11 11 11
-0.6217830181121826 0.7787556052207947 15.021528244018555 126 126 126
-3.508643865585327 3.6174659729003906 14.198598861694336 65 65 65
-5.455885887145996 5.748647212982178 14.148557662963867 17 17 17
-3.823420286178589 0.7322837710380554 14.55660629272461 25 25 25
-2.4723525047302246 3.8473174571990967 15.194116592407227 12 12 12
-3.223339557647705 0.7769593000411987 15.079019546508789 173 173 173
-5.586184024810791 -2.4337852001190186 14.060303688049316 88 88 88
-2.596672773361206 3.260871648788452 14.881937026977539 66 66 66
-6.743595123291016 -2.4098494052886963 14.555848121643066 89 89 89
-4.022330284118652 -2.5542027950286865 14.770304679870605 93 93 93
-0.9625105261802673 3.7261812686920166 15.221282958984375 85 85 85
-2.6771798133850098 0.9508234262466431 14.643573760986328 231 231 231
-2.947340488433838 -2.487217664718628 14.806856155395508 147 147 147
-2.61934494972229 3.417537212371826 14.732501983642578 16 16 16
-4.727784156799316 0.8521203398704529 14.041980743408203 179 179 179
-3.889939785003662 -2.412688970565796 14.462366104125977 123 123 123
-6.5951032638549805 -2.3431577682495117 13.942573547363281 78 78 78
-3.0392048358917236 -2.487053155899048 14.735827445983887 155 155 155
-5.925980567932129 -3.0435149669647217 13.57001781463623 124 124 124
-2.9471776485443115 -2.4871203899383545 14.806253433227539 147 147 147
-4.659470081329346 2.2351677417755127 14.099879264831543 180 180 180
-0.0937492847442627 0.8326126933097839 15.118812561035156 105 105 105
-2.618271589279175 1.5319894552230835 14.76522159576416 7 7 7
-2.094531536102295 2.8834099769592285 14.99162483215332 129 129 129
-1.7036550045013428 -4.3082075119018555 15.022380828857422 109 109 109
-4.19761848449707 1.5756975412368774 14.404623031616211 65 65 65
-1.0166183710098267 -2.4767603874206543 14.856109619140625 171 171 171
-0.4139466881752014 1.981019377708435 14.846321105957031 64 64 64
-2.6877782344818115 0.892647385597229 14.68002700805664 209 209 209
-5.572528839111328 4.993992805480957 13.990200996398926 104 104 104
-3.9383044242858887 -5.189357280731201 14.484201431274414 167 167 167
-6.54524040222168 -4.895173072814941 13.976272583007812 67 67 67
-2.9286246299743652 -5.1422929763793945 14.697898864746094 20 20 20
-4.747194290161133 0.849384605884552 14.091268539428711 181 181 181
-6.544018268585205 -4.8943190574646 13.973938941955566 67 67 67
-0.5403110384941101 0.8455255627632141 15.04544734954834 108 108 108
-0.5829027891159058 0.8478674292564392 15.045100212097168 20 20 20
-6.484210014343262 -4.851802825927734 13.863984107971191 95 95 95
-0.743307888507843 -5.386098384857178 15.47957706451416 36 36 36
-4.73757791519165 0.8784399032592773 14.18216323852539 177 177 177
-4.736390113830566 0.799094557762146 14.057647705078125 203 203 203
-5.604252815246582 1.4754304885864258 13.89210033416748 11 11 11
-6.0113325119018555 0.7720814347267151 13.701249122619629 74 74 74
-0.6296877264976501 0.7808722257614136 15.09665298461914 126 126 126
-3.143551826477051 0.7639591693878174 14.796218872070312 161 161 161
-0.512196958065033 0.8067750334739685 15.03300666809082 98 98 98
-0.11780979484319687 0.7943347692489624 15.051166534423828 117 117 117
-0.6218286156654358 0.778781533241272 15.021942138671875 126 126 126
-1.2035075426101685 1.6685863733291626 14.620128631591797 106 106 106
-1.527894377708435 1.7052087783813477 14.771681785583496 48 48 48
-3.1436209678649902 0.7640059590339661 14.796345710754395 161 161 161
-3.0155792236328125 1.5163685083389282 14.939752578735352 5 5 5
-3.823481321334839 0.7322769165039062 14.556807518005371 25 25 25
-0.6296716332435608 0.7808497548103333 15.096208572387695 126 126 126
-1.582931637763977 1.7411056756973267 14.88998794555664 152 152 152
-1.2030459642410278 1.6683099269866943 14.617148399353027 106 106 106
-3.088334798812866 0.737657368183136 14.383700370788574 148 148 148
-3.8233118057250977 0.7322676777839661 14.556278228759766 25 25 25
-1.6623808145523071 0.7244385480880737 14.83584213256836 6 6 6
-1.5700671672821045 1.5961631536483765 15.178890228271484 191 191 191
-1.7011988162994385 1.6291608810424805 15.607757568359375 138 138 138
-3.4656028747558594 -4.951871871948242 14.616188049316406 177 177 177
-1.847777247428894 -5.04020881652832 14.93956470489502 71 71 71
-1.8481252193450928 -5.041452884674072 14.942719459533691 71 71 71
-5.95809268951416 1.4720913171768188 13.769556045532227 160 160 160
-0.8466970324516296 2.1517693996429443 15.011972427368164 167 167 167
-0.7990829944610596 2.0328643321990967 14.16359806060791 144 144 144
-6.207149028778076 -4.618061065673828 14.055164337158203 42 42 42
-1.5597776174545288 2.1760544776916504 14.681148529052734 77 77 77
-6.206934928894043 -4.617948532104492 14.054730415344238 42 42 42
-2.8164310455322266 1.4715794324874878 14.562920570373535 29 29 29
-1.9357088804244995 -8.227213859558105 15.381292343139648 105 105 105
-3.015397787094116 1.5162849426269531 14.93885326385498 5 5 5
-5.720761299133301 6.445478916168213 14.12544059753418 86 86 86
-3.7127485275268555 2.2426717281341553 14.699668884277344 31 31 31
0.05142132565379143 2.3330063819885254 15.507219314575195 29 29 29
-1.8000178337097168 -3.3696584701538086 14.941815376281738 76 76 76
-5.271485805511475 6.335910797119141 13.98361873626709 115 115 115
-4.472514629364014 6.419829368591309 14.261536598205566 12 12 12
-6.1722235679626465 -4.168278694152832 14.059768676757812 148 148 148
-2.7604429721832275 -0.028456130996346474 14.624565124511719 40 40 40
-2.657241106033325 0.9480571746826172 14.58364200592041 218 218 218
-1.7865562438964844 2.2795655727386475 14.678099632263184 135 135 135
-0.5863767862319946 2.3558106422424316 15.139599800109863 139 139 139
-2.602595090866089 2.2871482372283936 14.74069881439209 3 3 3
-0.5953851342201233 -0.07960309833288193 14.838903427124023 2 2 2
-2.8976407051086426 -0.07101284712553024 14.697747230529785 27 27 27
-6.161032676696777 2.2685441970825195 14.093846321105957 169 169 169
-1.5445574522018433 -4.228744029998779 14.729279518127441 154 154 154
-5.921408176422119 2.2698261737823486 13.78219223022461 6 6 6
-2.516929864883423 2.5042409896850586 14.869439125061035 162 162 162
-1.9312134981155396 -4.33730411529541 15.169388771057129 138 138 138
-5.154908657073975 -4.045782089233398 14.156755447387695 80 80 80
-1.9898782968521118 -4.318271160125732 15.120931625366211 214 214 214
-5.189339637756348 4.1041259765625 13.30128002166748 119 119 119
-5.69234561920166 -0.7459362149238586 13.850473403930664 6 6 6
-2.8338968753814697 1.490843415260315 14.859328269958496 143 143 143
-0.8885248899459839 2.6924240589141846 14.875946044921875 192 192 192
-5.794928550720215 -0.7919062972068787 13.908096313476562 40 40 40
-5.510880470275879 4.348897457122803 14.127376556396484 29 29 29
-6.519711494445801 -3.9759814739227295 13.912542343139648 33 33 33
-3.829833507537842 -0.875476062297821 14.474462509155273 51 51 51
-3.0281639099121094 -4.161952495574951 14.729957580566406 45 45 45
-1.9248347282409668 -4.182339191436768 14.83857250213623 24 24 24
-1.5851823091506958 -0.9031092524528503 14.410970687866211 74 74 74
-2.3568687438964844 2.816534996032715 14.948007583618164 152 152 152
-3.02795147895813 -4.161673069000244 14.729094505310059 45 45 45
-5.188146114349365 -3.934499979019165 14.14112663269043 155 155 155
-3.451878786087036 4.458597183227539 14.566556930541992 158 158 158
-3.9404945373535156 -1.5515320301055908 14.475184440612793 152 152 152
-2.5710484981536865 3.013719320297241 14.859552383422852 25 25 25
-5.7917985916137695 4.293369770050049 13.94386100769043 95 95 95
-4.437317371368408 2.860583782196045 13.950026512145996 28 28 28
-3.5429368019104004 4.447892189025879 14.57574462890625 78 78 78
-2.50929856300354 3.0561795234680176 14.838241577148438 31 31 31
-3.855236053466797 -1.5866514444351196 14.551072120666504 37 37 37
-1.6707592010498047 3.1982555389404297 15.535321235656738 66 66 66
-3.7209551334381104 3.012732982635498 14.52003002166748 135 135 135
-6.2791337966918945 -1.5485315322875977 13.90738582611084 114 114 114
-1.5797165632247925 3.023935556411743 14.688789367675781 40 40 40
-5.540120601654053 2.884697914123535 13.881793975830078 11 11 11
-6.290119647979736 -1.576818823814392 13.666342735290527 102 102 102
-2.8794002532958984 -1.8212387561798096 14.816606521606445 2 2 2
-1.3914297819137573 4.475868225097656 14.91567611694336 17 17 17
-6.441674709320068 -3.3258795738220215 13.821949005126953 53 53 53
-2.43123459815979 4.4268012046813965 14.79432201385498 15 15 15
-2.619486093521118 3.417680501937866 14.733059883117676 16 16 16
-2.9470536708831787 -2.487035036087036 14.805787086486816 147 147 147
-2.922347068786621 -3.369215250015259 14.580653190612793 32 32 32
-6.7505035400390625 -2.4062044620513916 14.567700386047363 85 85 85
-6.265299320220947 -2.2586095333099365 13.665102005004883 18 18 18
-2.946880578994751 -2.4869422912597656 14.805143356323242 147 147 147
-2.4723525047302246 3.8473174571990967 15.194116592407227 12 12 12
-3.8903608322143555 -2.4128875732421875 14.463895797729492 123 123 123
-6.319768905639648 -3.134460687637329 13.742911338806152 34 34 34
-2.9224512577056885 -3.369338035583496 14.581183433532715 32 32 32
-5.925478458404541 -3.131139039993286 13.883635520935059 130 130 130
-4.01294469833374 -2.5480518341064453 14.735736846923828 93 93 93
-2.540808916091919 3.8346199989318848 15.030303001403809 77 77 77
-6.427525997161865 -3.2785563468933105 14.544144630432129 124 124 124
-5.522703170776367 3.595921754837036 14.043456077575684 8 8 8
-6.037975788116455 -2.6956899166107178 13.838751792907715 21 21 21
-4.736049652099609 1.4576737880706787 14.115398406982422 46 46 46
-5.328406810760498 5.077144145965576 13.940138816833496 128 128 128
-2.4006848335266113 5.28257942199707 14.699555397033691 34 34 34
-5.974931716918945 -3.0654897689819336 13.665005683898926 118 118 118
-4.50341272354126 3.7178454399108887 14.115272521972656 29 29 29
-5.978818416595459 -3.0678040981292725 13.67263126373291 118 118 118
-5.867375373840332 3.711301326751709 13.928349494934082 10 10 10
-6.137616157531738 -0.029958674684166908 13.88970947265625 38 38 38
-6.322850704193115 -2.1198084354400635 13.74830150604248 32 32 32
-1.9526509046554565 -1.637457013130188 14.831002235412598 29 29 29
-0.9591431021690369 3.7175323963165283 15.200414657592773 89 89 89
-2.168407917022705 -1.6331710815429688 14.841545104980469 60 60 60
-3.537447452545166 -2.5505869388580322 14.718565940856934 51 51 51
-5.468669414520264 7.056977272033691 14.150187492370605 23 23 23
-3.8234498500823975 0.7322722673416138 14.55669116973877 25 25 25
-3.677217960357666 1.8829782009124756 14.503320693969727 37 37 37
-2.8681890964508057 -0.8916894197463989 15.31116008758545 33 33 33
-1.6624523401260376 0.7244735360145569 14.836421966552734 6 6 6
-2.226027727127075 3.1492509841918945 14.812752723693848 155 155 155
-6.210127830505371 -2.2141900062561035 13.241533279418945 32 32 32
-4.342780590057373 5.04531192779541 14.144181251525879 13 13 13
-5.522831916809082 3.5959959030151367 14.043766975402832 8 8 8
-0.9612960815429688 3.7880754470825195 15.11754035949707 112 112 112
-6.137385845184326 -0.029945289716124535 13.889254570007324 38 38 38
-0.6126373410224915 -0.08444560319185257 15.002633094787598 12 12 12
-2.660261631011963 1.4685038328170776 14.580818176269531 45 45 45
-6.137598991394043 -0.02995678223669529 13.889676094055176 38 38 38
-1.6466444730758667 2.246433734893799 15.177716255187988 60 60 60
-5.354593276977539 -0.05233599245548248 13.867473602294922 62 62 62
-0.5442578792572021 -0.06255234032869339 14.78006649017334 68 68 68
-0.9513697028160095 1.7234052419662476 15.110063552856445 43 43 43
-3.015655994415283 1.5164040327072144 14.940112113952637 5 5 5
-2.850598096847534 1.4802360534667969 14.694756507873535 23 23 23
-0.7975403666496277 2.0303218364715576 14.133691787719727 126 126 126
-5.518375396728516 -7.529226779937744 14.279787063598633 119 119 119
-1.6501524448394775 2.1132168769836426 14.755281448364258 113 113 113
-2.5673556327819824 3.31607985496521 14.777698516845703 82 82 82
-0.8466329574584961 2.151679039001465 15.011252403259277 167 167 167
-0.8466237187385559 2.1516621112823486 15.011186599731445 167 167 167
-0.8721758723258972 2.036383628845215 14.790484428405762 101 101 101
-2.5697553157806396 3.113915205001831 14.79500675201416 15 15 15
-0.4155520498752594 1.9851020574569702 14.859865188598633 64 64 64
-3.0156733989715576 1.5164122581481934 14.94017505645752 5 5 5
-5.605924129486084 4.430367469787598 14.178400993347168 94 94 94
-0.413947731256485 1.981020450592041 14.846332550048828 64 64 64
-2.6325457096099854 1.5159649848937988 14.77330207824707 35 35 35
-5.5106096267700195 4.348719120025635 14.126802444458008 29 29 29
-3.6746039390563965 3.042839765548706 14.583902359008789 19 19 19
-5.225896835327148 -5.676281452178955 14.054642677307129 83 83 83
-3.8233044147491455 0.7322677373886108 14.556255340576172 25 25 25
-5.791812419891357 4.2933783531188965 13.943889617919922 95 95 95
-1.670760989189148 3.198256254196167 15.535332679748535 66 66 66
-1.5798317193984985 3.0241611003875732 14.689863204956055 40 40 40
-0.6682648658752441 -6.116626739501953 15.458463668823242 42 42 42
-4.814172267913818 4.658615589141846 15.260865211486816 93 93 93
-5.689220905303955 0.684333860874176 13.399216651916504 101 101 101
-1.5353256464004517 1.9945437908172607 15.092216491699219 142 142 142
-2.4278271198272705 3.002089262008667 14.538766860961914 199 199 199
-5.942835807800293 2.908106803894043 14.004788398742676 17 17 17
-4.770698070526123 3.017453670501709 14.805526733398438 49 49 49
-5.791800022125244 4.293375015258789 13.94389820098877 95 95 95
-2.269339084625244 4.14003324508667 13.804780960083008 22 22 22
-1.5004141330718994 4.412379264831543 14.721980094909668 20 20 20
-0.6908180117607117 0.7743656039237976 14.825797080993652 129 129 129
-0.6218297481536865 0.7787906527519226 15.021988868713379 126 126 126
-5.942786693572998 2.908064842224121 14.004642486572266 17 17 17
-2.9259541034698486 -5.138149261474609 14.686705589294434 20 20 20
-3.8232381343841553 0.7322558760643005 14.556047439575195 25 25 25
-0.7433239221572876 -5.3862223625183105 15.479902267456055 36 36 36
-0.8546599745750427 -5.432276248931885 15.644482612609863 38 38 38
-2.413151502609253 4.294360160827637 14.550385475158691 101 101 101
-0.5544486045837402 0.8487130999565125 15.18862247467041 106 106 106
-6.011251449584961 0.7720683217048645 13.701061248779297 74 74 74
-4.638429164886475 2.9261248111724854 14.395660400390625 48 48 48
-2.7357735633850098 0.8396716713905334 14.697040557861328 7 7 7
-0.6786235570907593 0.8483656644821167 14.91897964477539 108 108 108
-0.5807539224624634 0.8552254438400269 14.98171615600586 15 15 15
-4.51418399810791 3.788548469543457 14.25919246673584 61 61 61
-5.869779109954834 3.7114150524139404 13.933804512023926 10 10 10
-2.658386468887329 0.9028664231300354 14.729581832885742 198 198 198
-5.779587745666504 3.5835349559783936 13.795886993408203 32 32 32
-2.7041914463043213 0.95797199010849 14.798257827758789 215 215 215
-2.546121120452881 3.7605879306793213 14.658968925476074 110 110 110
-2.545952081680298 3.843552827835083 15.060026168823242 77 77 77
-4.062472343444824 -4.283422470092773 14.539901733398438 121 121 121
-2.7407777309417725 0.919015645980835 14.809423446655273 26 26 26
-2.23966908454895 2.6885340213775635 14.196773529052734 139 139 139
-4.151607036590576 -4.337175369262695 14.855344772338867 134 134 134
-2.3568813800811768 2.8165395259857178 14.948047637939453 152 152 152
-1.931262493133545 -4.3374152183532715 15.169757843017578 138 138 138
-5.154472827911377 -4.04541015625 14.155679702758789 80 80 80
-1.9312455654144287 -4.18875789642334 14.870543479919434 24 24 24
-3.0279576778411865 -4.161679744720459 14.729116439819336 45 45 45
-5.237611770629883 -3.935072422027588 14.13282585144043 144 144 144
-2.9956295490264893 -4.063869476318359 14.596633911132812 14 14 14
-2.5034306049346924 3.656357765197754 14.843857765197754 51 51 51
-3.1066324710845947 -4.122469902038574 14.887847900390625 134 134 134
-4.027870178222656 -4.85866641998291 14.128982543945312 100 100 100
-6.037519931793213 -2.695434093475342 13.83785343170166 21 21 21
-2.4312686920166016 4.426852703094482 14.794459342956543 15 15 15
-0.8885106444358826 2.6924221515655518 14.875880241394043 192 192 192
-6.438160419464111 -3.264868974685669 13.833409309387207 21 21 21
-3.089393138885498 -3.458338975906372 14.81092357635498 145 145 145
-2.9223508834838867 -3.369220733642578 14.580674171447754 32 32 32
-6.32308292388916 -3.1361849308013916 13.75029468536377 34 34 34
-5.983103275299072 -3.0692694187164307 13.680841445922852 118 118 118
-0.5164362192153931 0.8088622689247131 15.075089454650879 98 98 98
-5.981422424316406 -3.0689280033111572 13.67763614654541 118 118 118
-2.516906499862671 2.5042262077331543 14.869359016418457 162 162 162
-5.79439640045166 -0.791832685470581 13.906846046447754 40 40 40
-5.925784111022949 -3.1312897205352783 13.88424301147461 130 130 130
-4.035555362701416 -2.5628716945648193 14.819010734558105 93 93 93
-3.87744140625 -2.402594804763794 14.414704322814941 112 112 112
-2.946993827819824 -2.4869980812072754 14.805570602416992 147 147 147
-6.821637153625488 -2.435884952545166 14.701377868652344 95 95 95
-6.265382289886475 -2.2586140632629395 13.665258407592773 18 18 18
-3.7180943489074707 7.849307537078857 14.527836799621582 29 29 29
-5.468634128570557 7.056938171386719 14.150115966796875 23 23 23
-2.413694143295288 2.347386598587036 14.653151512145996 175 175 175
-5.721369743347168 6.446075916290283 14.126688957214355 86 86 86
-5.953836917877197 6.513012886047363 14.3261137008667 88 88 88
-4.797269821166992 6.796962261199951 15.099091529846191 65 65 65
-6.279331684112549 -1.5485941171646118 13.907832145690918 114 114 114
-2.603496789932251 2.2873547077178955 14.744658470153809 3 3 3
-2.8718433380126953 2.3447840213775635 15.108426094055176 33 33 33
-6.334020614624023 -1.5590436458587646 14.028007507324219 122 122 122
-1.6562598943710327 1.5855721235275269 15.196249008178711 67 67 67
-1.176784634590149 6.664575576782227 15.080903053283691 92 92 92
-2.1684365272521973 -1.6331868171691895 14.841678619384766 60 60 60
-2.1533567905426025 2.254486560821533 14.496360778808594 184 184 184
-3.9404473304748535 -1.5515263080596924 14.475028991699219 152 152 152
-0.4800672233104706 2.3456966876983643 15.11220932006836 21 21 21
-5.7947869300842285 -0.7918896079063416 13.90775203704834 40 40 40
-1.620603084564209 -0.8412909507751465 14.78759479522705 77 77 77
-5.313934326171875 -0.7123414874076843 12.928241729736328 37 37 37
-0.6972101926803589 -0.8107380270957947 14.946235656738281 112 112 112
-6.011377811431885 -0.6889932751655579 13.302068710327148 115 115 115
-5.31886625289917 2.2454683780670166 14.489541053771973 16 16 16
-6.412118911743164 -0.6817405819892883 14.199346542358398 108 108 108
-5.460064888000488 2.151646137237549 13.76648998260498 7 7 7
-5.924217700958252 1.4984763860702515 13.843267440795898 46 46 46
-3.5374691486358643 -2.5505995750427246 14.718636512756348 51 51 51
-5.586206912994385 -2.433793306350708 14.060351371765137 88 88 88
-4.942234039306641 -1.6098569631576538 13.942081451416016 30 30 30
-2.3386244773864746 2.8633408546447754 14.702079772949219 117 117 117
-2.7846744060516357 -1.604339838027954 14.586844444274902 19 19 19
-5.271543979644775 6.335989475250244 13.983792304992676 115 115 115
-5.6775712966918945 6.664459228515625 14.787874221801758 33 33 33
-2.645897150039673 6.876824855804443 15.390214920043945 80 80 80
-4.280154228210449 -7.842719078063965 14.72106647491455 33 33 33
-5.455702304840088 5.748473167419434 14.148069381713867 17 17 17
-5.451785564422607 5.42451286315918 13.442646026611328 97 97 97
-4.362414836883545 -6.822625637054443 14.584912300109863 47 47 47
-3.7007834911346436 6.103745460510254 15.274749755859375 99 99 99
-5.341082572937012 -5.783874988555908 14.312565803527832 91 91 91
-2.9723927974700928 -5.805359363555908 14.779021263122559 26 26 26
-3.9379184246063232 -5.189055442810059 14.483120918273926 167 167 167
-2.9240503311157227 -5.135316371917725 14.677041053771973 20 20 20
-0.8547337651252747 -5.43275785446167 15.645852088928223 38 38 38
-3.462064743041992 -4.942682266235352 14.604392051696777 163 163 163
-1.8477652072906494 -5.0402302742004395 14.939567565917969 71 71 71
-4.4156365394592285 5.012094974517822 14.074172973632812 52 52 52
-4.0077290534973145 -4.244804859161377 14.384671211242676 115 115 115
-5.154894828796387 -4.045769691467285 14.156720161437988 80 80 80
-3.3819379806518555 5.04006290435791 14.427041053771973 24 24 24
-3.2850639820098877 -4.435163974761963 15.663673400878906 90 90 90
-1.960129737854004 -4.242971897125244 15.065791130065918 33 33 33
-3.02777099609375 -4.161372661590576 14.728174209594727 45 45 45
-3.4447875022888184 4.98643159866333 14.63348388671875 123 123 123
-3.0829522609710693 -3.461456537246704 14.789264678955078 137 137 137
-0.595109224319458 -3.4691076278686523 14.916967391967773 65 65 65
-5.16564416885376 -3.28389573097229 14.17805290222168 49 49 49
-0.5883395671844482 -3.4668376445770264 14.913058280944824 36 36 36
-5.983267784118652 -3.0696163177490234 13.681198120117188 118 118 118
-4.012931823730469 -2.548039674758911 14.735698699951172 93 93 93
-0.5997052788734436 -2.518609046936035 15.160181999206543 129 129 129
-5.000720024108887 -2.305462598800659 14.046024322509766 108 108 108
-2.9470510482788086 -2.4870381355285645 14.805782318115234 147 147 147
-5.995482444763184 -1.536294937133789 13.194323539733887 19 19 19
-4.942222595214844 -1.609854817390442 13.942054748535156 30 30 30
-0.511794924736023 -1.7516565322875977 14.895953178405762 14 14 14
-2.859107255935669 -1.716854214668274 14.583227157592773 135 135 135
-5.114513874053955 -1.6357159614562988 14.219532012939453 66 66 66
-6.276227951049805 -1.5477732419967651 13.901885986328125 114 114 114
-2.78466534614563 -1.604335904121399 14.586811065673828 19 19 19
-2.168609142303467 -1.633284568786621 14.84249496459961 60 60 60
-1.9526530504226685 -1.6374541521072388 14.831042289733887 29 29 29
-1.5003706216812134 4.412294864654541 14.721671104431152 20 20 20
-4.2613725662231445 4.127634525299072 13.507438659667969 124 124 124
-1.5004639625549316 4.412467956542969 14.722269058227539 20 20 20
-2.431096076965332 4.42656135559082 14.793519973754883 15 15 15
-2.4312124252319336 4.426786422729492 14.794212341308594 15 15 15
-3.940478563308716 -1.5515215396881104 14.475138664245605 152 152 152
-5.788762092590332 -0.8492192625999451 13.858853340148926 125 125 125
-3.9278881549835205 -0.8711329698562622 14.521409034729004 106 106 106
-3.7783584594726562 -0.868120014667511 14.28212833404541 22 22 22
-5.675493240356445 -0.7914690375328064 13.811225891113281 22 22 22
-1.6360982656478882 -0.8410449624061584 14.898582458496094 80 80 80
-5.755411624908447 -0.7616715431213379 14.004714012145996 20 20 20
-4.495074272155762 3.7770657539367676 14.209305763244629 61 61 61
-0.6314325928688049 -0.81806480884552 15.066591262817383 83 83 83
-5.781049728393555 3.584411382675171 13.798765182495117 32 32 32
-0.7238091230392456 -0.817365288734436 15.174367904663086 101 101 101
-6.036231994628906 -0.6893554925918579 13.356298446655273 80 80 80
-2.5938162803649902 3.8088648319244385 14.856057167053223 83 83 83
-6.530013084411621 -0.6965150237083435 14.4237642288208 81 81 81
-0.5472128391265869 -0.6501229405403137 14.802031517028809 108 108 108
-5.522916793823242 3.596043825149536 14.043946266174316 8 8 8
-6.137695789337158 -0.02996666543185711 13.889856338500977 38 38 38
-2.3121635913848877 3.4427099227905273 14.719064712524414 93 93 93
-2.562889814376831 3.3321449756622314 14.676400184631348 44 44 44
-2.762767791748047 -0.028249355033040047 14.636664390563965 40 40 40
-0.5333102345466614 -0.06338675320148468 14.490983963012695 61 61 61
-2.596388339996338 3.3391313552856445 14.866079330444336 100 100 100
-6.196351051330566 -0.009930017404258251 13.850704193115234 29 29 29
-5.554593086242676 2.9641733169555664 13.978599548339844 136 136 136
-5.527698040008545 2.8813562393188477 13.678733825683594 169 169 169
-5.554140567779541 2.8913183212280273 13.911030769348145 11 11 11
-3.9157469272613525 0.022677015513181686 14.405884742736816 193 193 193
-2.5844221115112305 3.1027398109436035 14.91613483428955 40 40 40
-2.2058894634246826 3.0293545722961426 14.677201271057129 136 136 136
-1.5169769525527954 3.026716709136963 14.713406562805176 62 62 62
-2.4108967781066895 2.9820668697357178 14.47254753112793 98 98 98
-4.408318042755127 2.8471567630767822 13.87559700012207 28 28 28
-5.942147731781006 2.9078104496002197 14.003363609313965 17 17 17
-6.035761833190918 2.8534669876098633 13.955129623413086 93 93 93
-0.7683071494102478 0.5556398034095764 14.811767578125 126 126 126
-3.8358452320098877 0.6573581695556641 14.253442764282227 141 141 141
-6.003710746765137 0.6858623027801514 13.96859073638916 126 126 126
-5.735076427459717 0.7173323035240173 13.815694808959961 14 14 14
-3.088587522506714 0.7376995086669922 14.384804725646973 148 148 148
-2.317803382873535 2.830927610397339 14.628143310546875 99 99 99
-0.5314662456512451 0.820902407169342 14.8975248336792 84 84 84
-2.356975555419922 2.816635847091675 14.948442459106445 152 152 152
-2.718388080596924 0.8277655243873596 14.665443420410156 24 24 24
-0.6670520305633545 0.8445202708244324 14.814494132995605 108 108 108
-5.9447174072265625 2.4344124794006348 13.876696586608887 161 161 161
-2.6749064922332764 0.8632217645645142 14.74594497680664 105 105 105
-4.777173042297363 0.8681718707084656 14.249015808105469 187 187 187
-2.6606192588806152 0.9034702777862549 14.778175354003906 188 188 188
-5.865755081176758 2.181122303009033 13.678729057312012 65 65 65
-4.634431838989258 2.2784366607666016 14.165203094482422 15 15 15
-6.001673698425293 2.2190420627593994 13.74710750579834 171 171 171
-2.660257339477539 1.4685043096542358 14.58080005645752 45 45 45
-0.21303647756576538 1.4856328964233398 15.260116577148438 74 74 74
-4.597220420837402 2.197058916091919 13.879006385803223 163 163 163
-2.603440999984741 2.2873194217681885 14.744366645812988 3 3 3
-2.8246541023254395 1.4640214443206787 14.59461784362793 23 23 23
-4.7360334396362305 1.457650899887085 14.115368843078613 46 46 46
-2.872013568878174 2.344895362854004 15.109078407287598 33 33 33
-2.5938003063201904 1.4912338256835938 14.623151779174805 19 19 19
-2.353044033050537 1.5265471935272217 14.703264236450195 27 27 27
-0.6545512080192566 2.3267662525177 15.108230590820312 119 119 119
-5.320586681365967 2.2462940216064453 14.494163513183594 16 16 16
-0.09274445474147797 1.5118131637573242 14.589797973632812 130 130 130
-1.6826194524765015 1.5357111692428589 14.780806541442871 49 49 49
-1.6563599109649658 1.585661768913269 15.196822166442871 67 67 67
-5.459727764129639 2.1515395641326904 13.765778541564941 7 7 7
-1.5472348928451538 2.2835195064544678 14.96005916595459 142 142 142
-5.957925796508789 1.4720211029052734 13.76915454864502 160 160 160
-6.401642799377441 1.586540937423706 14.793808937072754 102 102 102
-3.712570905685425 2.2425923347473145 14.699094772338867 31 31 31
-5.604187965393066 1.4754787683486938 13.892106056213379 11 11 11
-0.7513204216957092 2.2161409854888916 14.900907516479492 70 70 70
-3.7376999855041504 1.60318922996521 14.62162971496582 29 29 29
-2.792095899581909 2.1607043743133545 14.529253005981445 53 53 53
-1.2029955387115479 1.6682641506195068 14.616676330566406 106 106 106
-1.6740190982818604 2.140364646911621 14.529581069946289 90 90 90
-0.8401637077331543 1.6351350545883179 14.347504615783691 71 71 71
-1.2030986547470093 1.6683424711227417 14.617619514465332 106 106 106
-1.1813870668411255 1.8401387929916382 15.809195518493652 92 92 92
-0.7990465760231018 2.0366313457489014 14.153839111328125 126 126 126
-0.8466295003890991 2.1516740322113037 15.011226654052734 167 167 167
-1.593735694885254 1.8187081813812256 14.88499641418457 22 22 22
-0.64980149269104 1.929643154144287 14.177567481994629 126 126 126
-1.4921958446502686 1.9967067241668701 14.858723640441895 142 142 142
-0.6848886013031006 2.022948980331421 14.981219291687012 87 87 87
-3.8950188159942627 7.856672763824463 14.52452564239502 27 27 27
-4.7690749168396 -0.010689676739275455 14.053060531616211 99 99 99
-5.925552845001221 -3.131176233291626 13.883783340454102 130 130 130
-2.516878843307495 2.504194736480713 14.869149208068848 162 162 162
-0.28907546401023865 0.8505550026893616 14.917526245117188 87 87 87
-0.8885118365287781 2.692427158355713 14.875884056091309 192 192 192
-2.28090500831604 0.72437983751297 14.773415565490723 13 13 13
-3.8270263671875 7.5228400230407715 13.84470272064209 93 93 93
-1.2268223762512207 6.5783491134643555 14.956283569335938 23 23 23
-4.362668514251709 -6.823012351989746 14.58574390411377 47 47 47
-4.339986801147461 -6.098794460296631 14.871773719787598 88 88 88
-3.9378859996795654 -5.189007759094238 14.48302936553955 167 167 167
-5.466202259063721 -5.156129837036133 14.63152027130127 91 91 91
-2.9274649620056152 -5.141394138336182 14.692036628723145 14 14 14
-0.8668193817138672 -5.468480110168457 15.747918128967285 38 38 38
-0.7433487176895142 -5.38630485534668 15.480154991149902 36 36 36
-5.189166069030762 -4.895021438598633 14.195573806762695 104 104 104
-5.432236194610596 4.966793537139893 14.088961601257324 2 2 2
