ply
format ascii 1.0
element vertex 713
property float x
property float y
property float z
property uchar red
property uchar green
property uchar blue
end_header
-1.4140022993087769 2.859947681427002 6.037590026855469 92 92 92
-3.5397441387176514 -0.34712347388267517 15.315851211547852 95 95 95
-3.624065637588501 -0.7170441150665283 15.960859298706055 130 130 130
-3.3907759189605713 -2.865185260772705 15.110595703125 129 129 129
-2.0712411403656006 0.25296202301979065 9.977652549743652 20 20 20
-2.0189268589019775 0.17128778994083405 9.826081275939941 170 170 170
-1.939701795578003 0.17751003801822662 9.80433177947998 82 82 82
-1.863309383392334 0.1166747659444809 9.706592559814453 169 169 169
-1.808427333831787 0.2513391673564911 9.65275764465332 27 27 27
-1.8394516706466675 1.064668893814087 10.781609535217285 9 9 9
-1.5254491567611694 1.485498070716858 9.605927467346191 112 112 112
-1.5692211389541626 0.1346883624792099 9.734109878540039 7 7 7
-1.5692211389541626 0.1346883624792099 9.734109878540039 7 7 7
-1.0960038900375366 2.585456371307373 7.046965599060059 90 90 90
-1.488140344619751 0.16926169395446777 9.650919914245605 15 15 15
-1.4367904663085938 1.5049760341644287 9.619640350341797 26 26 26
-0.7075146436691284 3.3127853870391846 4.987643241882324 134 134 134
-0.7075146436691284 3.3127853870391846 4.987643241882324 134 134 134
-1.3066750764846802 1.5958125591278076 9.577764511108398 68 68 68
-1.2741566896438599 1.5983808040618896 9.545502662658691 47 47 47
-0.8692641854286194 2.573915719985962 7.1303229331970215 94 94 94
-1.1270372867584229 1.6540125608444214 9.474684715270996 17 17 17
-1.131122350692749 1.7418264150619507 9.518453598022461 60 60 60
-0.9527949094772339 1.4852581024169922 8.977782249450684 64 64 64
-0.41315728425979614 3.2487924098968506 5.214706897735596 142 142 142
-0.4594402611255646 3.0494213104248047 5.861755847930908 73 73 73
-0.5067978501319885 2.7897534370422363 6.604541301727295 118 118 118
-0.4377709627151489 3.084869861602783 5.784740924835205 76 76 76
-0.6032856702804565 2.2277047634124756 8.21586799621582 38 38 38
-0.5400276184082031 2.47786283493042 7.961486339569092 76 76 76
-0.4795211851596832 2.281036376953125 7.780515193939209 46 46 46
-0.3673611581325531 2.974649429321289 6.038212299346924 73 73 73
-0.34710028767585754 3.0675060749053955 5.842617988586426 146 146 146
-0.3679754436016083 2.90609073638916 6.265841484069824 48 48 48
-0.3383156359195709 2.96527361869812 6.093793869018555 127 127 127
-0.2985520362854004 3.1792917251586914 5.40663480758667 44 44 44
-0.3858974874019623 2.627016544342041 7.2004594802856445 74 74 74
-0.2447664886713028 3.2848546504974365 5.177576065063477 118 118 118
-0.2983730733394623 2.8868157863616943 6.456162452697754 67 67 67
-0.2413124442100525 3.2183921337127686 5.4038214683532715 57 57 57
-0.2503593862056732 3.0258615016937256 5.925182342529297 69 69 69
-0.2298584282398224 3.132439136505127 5.717711925506592 63 63 63
-0.18443593382835388 3.2296268939971924 5.379404067993164 101 101 101
-0.17625734210014343 3.181989908218384 5.544605731964111 57 57 57
-0.20771078765392303 3.06559157371521 6.148429870605469 50 50 50
-0.14390365779399872 3.179720878601074 5.54890251159668 115 115 115
-0.14390365779399872 3.179720878601074 5.54890251159668 115 115 115
-0.10516157746315002 3.2564456462860107 5.4037981033325195 96 96 96
-0.1064121276140213 3.0959153175354004 5.757852554321289 112 112 112
-0.09285400807857513 3.2192931175231934 5.421227931976318 72 72 72
-0.08919759839773178 3.247485876083374 5.346726417541504 118 118 118
-0.08832786977291107 3.195253372192383 5.4563374519348145 67 67 67
-0.0787629559636116 3.3618831634521484 5.152247905731201 93 93 93
-0.06550119072198868 3.259150266647339 5.323609352111816 132 132 132
-0.06338220089673996 3.244671583175659 5.330866813659668 46 46 46
-0.05864163115620613 3.2516391277313232 5.340404987335205 45 45 45
-0.05059139057993889 3.315986156463623 5.1857008934021 133 133 133
-0.05059139057993889 3.315986156463623 5.1857008934021 133 133 133
-0.035487063229084015 3.3445193767547607 5.14841890335083 62 62 62
0.02304535172879696 -2.9513518810272217 5.600553512573242 25 25 25
0.030625086277723312 2.8240342140197754 6.528554439544678 60 60 60
0.04317439720034599 3.174354076385498 5.713103294372559 90 90 90
0.10353642702102661 -1.4779800176620483 5.654342174530029 34 34 34
0.09768436849117279 3.1576714515686035 5.574419021606445 51 51 51
0.10414215922355652 -2.3538942337036133 5.5821533203125 23 23 23
0.12305112928152084 -1.700093388557434 5.606533050537109 68 68 68
0.15075744688510895 -2.3334312438964844 5.627227783203125 33 33 33
0.15609651803970337 -2.156700849533081 5.569047927856445 61 61 61
0.14673423767089844 3.2891550064086914 5.505135536193848 116 116 116
0.15248815715312958 3.125066041946411 5.676512718200684 41 41 41
0.18043829500675201 3.1334173679351807 5.635746955871582 127 127 127
0.19121313095092773 -0.8031467199325562 5.533209800720215 26 26 26
0.27395889163017273 3.0792365074157715 5.531120300292969 54 54 54
0.29280173778533936 -0.5515950322151184 5.329064846038818 110 110 110
0.2871650457382202 3.214334011077881 5.448824882507324 61 61 61
0.2928038537502289 -0.5515960454940796 5.329071044921875 110 110 110
0.3392263948917389 0.43549036979675293 5.32310152053833 72 72 72
0.3082326352596283 -0.4434759020805359 4.742918014526367 83 83 83
0.3341941833496094 -0.6337143778800964 5.1419854164123535 87 87 87
0.3681533634662628 3.151888132095337 5.609208106994629 68 68 68
0.37478896975517273 -0.3073022663593292 5.130093097686768 27 27 27
0.43129852414131165 3.3091812133789062 5.189436435699463 35 35 35
0.4055265784263611 -2.3917899131774902 4.702582836151123 54 54 54
0.46658217906951904 3.3933887481689453 5.260822772979736 90 90 90
0.44200292229652405 -2.692803144454956 4.472917556762695 95 95 95
0.4862971901893616 -0.34844091534614563 4.739101409912109 81 81 81
0.5604105591773987 2.9771251678466797 5.271477699279785 51 51 51
0.519133448600769 -1.729152798652649 4.443781852722168 79 79 79
0.519133448600769 -1.729152798652649 4.443781852722168 79 79 79
0.620123565196991 0.5546920299530029 4.535821437835693 95 95 95
0.5885037183761597 -2.1874938011169434 4.147680759429932 112 112 112
0.6113297939300537 -0.8122528791427612 4.330544471740723 129 129 129
0.6150466799736023 -1.1143568754196167 4.257809638977051 113 113 113
0.6250128746032715 -1.1294734477996826 4.251455783843994 34 34 34
0.6199491024017334 -1.420865774154663 4.2137041091918945 63 63 63
0.6253300309181213 -1.392674446105957 4.227848529815674 32 32 32
0.6391197443008423 -0.9268180727958679 4.29622220993042 35 35 35
0.6432548761367798 -0.5841196179389954 4.319022178649902 107 107 107
0.7071846127510071 1.8974233865737915 4.629209995269775 133 133 133
0.6549442410469055 -0.07650236785411835 4.364003658294678 51 51 51
0.674107015132904 0.9931475520133972 4.507008075714111 83 83 83
0.6680542826652527 -0.08797352015972137 4.361983299255371 50 50 50
0.6470888257026672 -0.5205461382865906 4.316653728485107 104 104 104
0.6504548788070679 -1.2941110134124756 4.217665195465088 81 81 81
0.6556289196014404 -1.00015389919281 4.249514102935791 63 63 63
0.6737658977508545 -0.13210247457027435 4.364133358001709 79 79 79
0.7183629870414734 1.9945805072784424 4.6397271156311035 80 80 80
0.6539576053619385 -1.8550032377243042 4.167994976043701 133 133 133
0.6951301693916321 0.442301481962204 4.4438252449035645 75 75 75
0.6964477300643921 0.2935386300086975 4.4242119789123535 80 80 80
0.6559270024299622 -2.318817377090454 4.114765644073486 80 80 80
0.7311800718307495 0.9480491280555725 4.458230972290039 150 150 150
0.7274495363235474 -0.15081636607646942 4.372557640075684 63 63 63
0.7660810947418213 0.8760811686515808 4.491457462310791 95 95 95
0.7848014831542969 1.9471104145050049 4.626347541809082 38 38 38
0.7724253535270691 0.8490820527076721 4.502998352050781 124 124 124
0.7430093288421631 -0.4634186327457428 4.340328693389893 67 67 67
0.771328330039978 0.2864591181278229 4.449532508850098 60 60 60
0.7492940425872803 -0.9659412503242493 4.387801647186279 50 50 50
0.7904970049858093 1.001926302909851 4.5358567237854 45 45 45
0.8124824166297913 2.0750043392181396 4.6581244468688965 49 49 49
0.7214808464050293 -2.287360668182373 4.129271507263184 36 36 36
0.7866114377975464 0.4883267283439636 4.46234655380249 73 73 73
0.7357112765312195 -2.257290840148926 4.123660564422607 79 79 79
0.7440382242202759 -1.1590793132781982 4.25223970413208 15 15 15
0.7555751204490662 -1.7368590831756592 4.287256240844727 70 70 70
0.7660702466964722 -1.8414477109909058 4.1932172775268555 92 92 92
0.7633530497550964 -2.2671620845794678 4.134579658508301 32 32 32
0.7969263792037964 -0.9161423444747925 4.323894023895264 142 142 142
0.8071153163909912 -0.6544569730758667 4.327579021453857 86 86 86
0.8247045278549194 -0.3351292610168457 4.3672590255737305 51 51 51
0.7815428972244263 -2.344860315322876 4.1261725425720215 24 24 24
0.8650411367416382 0.9723313450813293 4.560097694396973 51 51 51
0.8322487473487854 -0.41607120633125305 4.364606857299805 85 85 85
0.8929629325866699 1.8179560899734497 4.6748247146606445 44 44 44
0.7979013919830322 -2.231865644454956 4.143843173980713 34 34 34
0.8292511105537415 -1.0598143339157104 4.302089691162109 53 53 53
0.8431965112686157 -0.4032861888408661 4.370021820068359 62 62 62
0.8809767961502075 0.28775089979171753 4.456298351287842 72 72 72
0.8728177547454834 0.6288437843322754 4.47488260269165 103 103 103
0.8816775679588318 0.7543085813522339 4.514558792114258 97 97 97
0.8379372358322144 -1.3048430681228638 4.272784233093262 77 77 77
0.8518993854522705 -0.7882069945335388 4.339087963104248 73 73 73
0.8356825113296509 -1.5320196151733398 4.2498087882995605 102 102 102
0.8415136933326721 -1.3408931493759155 4.272884368896484 60 60 60
0.8744109272956848 -0.4088722765445709 4.36109733581543 84 84 84
0.8744109272956848 -0.4088722765445709 4.36109733581543 84 84 84
0.8459920883178711 -1.1219165325164795 4.290170192718506 75 75 75
0.8720577359199524 -0.17882224917411804 4.408700466156006 78 78 78
0.892233669757843 0.64488285779953 4.574542045593262 88 88 88
0.9042714834213257 0.9538223743438721 4.562060832977295 159 159 159
0.8511019945144653 -1.8622075319290161 4.211270809173584 112 112 112
0.8511019945144653 -1.8622075319290161 4.211270809173584 112 112 112
0.90030437707901 0.5986840724945068 4.48101806640625 103 103 103
0.9016631841659546 -0.23145830631256104 4.4184489250183105 124 124 124
0.9398633241653442 1.8632837533950806 4.661667346954346 128 128 128
0.8610844612121582 -1.4356937408447266 4.266112327575684 91 91 91
0.8965359330177307 -0.014227881096303463 4.432259559631348 113 113 113
0.8761757016181946 -1.5096731185913086 4.251867771148682 163 163 163
0.9248385429382324 0.48502641916275024 4.49241304397583 158 158 158
0.8539504408836365 -1.9815293550491333 4.205504894256592 105 105 105
0.9024940729141235 0.006293639540672302 4.429986476898193 6 6 6
0.8529536128044128 -2.06876277923584 4.177977085113525 114 114 114
0.87584388256073 -1.4067392349243164 4.2700653076171875 35 35 35
0.9471709728240967 0.9237831234931946 4.547698974609375 171 171 171
0.9008427262306213 -0.42453569173812866 4.381341457366943 102 102 102
0.9305492639541626 0.22626835107803345 4.462710380554199 105 105 105
0.9305492639541626 0.22626835107803345 4.462710380554199 105 105 105
0.9218040108680725 0.19786830246448517 4.460289001464844 110 110 110
0.9616296291351318 1.531742811203003 4.636538982391357 100 100 100
0.9499087929725647 1.178587555885315 4.554501056671143 116 116 116
0.9138596653938293 -0.6387279629707336 4.422180652618408 140 140 140
0.9154804348945618 -0.651297926902771 4.362784385681152 149 149 149
0.9149506092071533 -0.7575986981391907 4.350632667541504 160 160 160
0.8890499472618103 -1.8093011379241943 4.211852550506592 150 150 150
0.9359568357467651 -0.1702309250831604 4.381259918212891 141 141 141
0.9126819968223572 -1.0163936614990234 4.2340593338012695 115 115 115
0.942716658115387 -0.4748964309692383 4.329585552215576 139 139 139
0.9070773124694824 -2.1498968601226807 4.1456146240234375 149 149 149
0.8975512385368347 -2.36879825592041 4.055810928344727 48 48 48
1.0172470808029175 0.610489010810852 4.435090065002441 91 91 91
0.9632271528244019 -2.0160844326019287 4.271020889282227 130 130 130
0.9695463180541992 -2.1420726776123047 4.1524481773376465 99 99 99
1.0756769180297852 0.8334720134735107 4.477416515350342 90 90 90
1.0711708068847656 -0.36839044094085693 4.332919120788574 75 75 75
1.0711708068847656 -0.36839044094085693 4.332919120788574 75 75 75
1.0508249998092651 -2.0422263145446777 4.123473167419434 163 163 163
1.064115285873413 -2.0418365001678467 4.106647968292236 77 77 77
1.11871337890625 -2.028838634490967 4.172077655792236 92 92 92
1.1329731941223145 -1.9735784530639648 3.987041711807251 52 52 52
1.6041158437728882 0.3181494474411011 4.47251033782959 127 127 127
1.6041158437728882 0.3181494474411011 4.47251033782959 127 127 127
1.6436080932617188 1.0624560117721558 4.502501010894775 53 53 53
1.6277143955230713 0.023710887879133224 4.334439754486084 113 113 113
1.6368333101272583 0.1100500077009201 4.3451433181762695 146 146 146
1.6521774530410767 0.4002496302127838 4.3682146072387695 110 110 110
1.6581560373306274 0.35501828789711 4.3999152183532715 40 40 40
1.6509054899215698 0.25401222705841064 4.392498970031738 40 40 40
1.6450399160385132 0.08017602562904358 4.328229904174805 11 11 11
1.69661545753479 0.339693546295166 4.2280497550964355 56 56 56
1.741714358329773 0.41123321652412415 4.003525257110596 29 29 29
0.9023631811141968 0.006277916487306356 4.429501056671143 6 6 6
0.03607524186372757 3.0793230533599854 5.770826816558838 164 164 164
-1.7213778495788574 0.0889916718006134 9.709224700927734 38 38 38
-1.148327112197876 1.5326176881790161 9.534180641174316 60 60 60
-0.12786369025707245 3.125936985015869 5.4701361656188965 140 140 140
-4.845479488372803 -1.704062581062317 15.298565864562988 70 70 70
-1.6528068780899048 0.0985480546951294 9.79426097869873 201 201 201
-4.998146057128906 -2.320152759552002 13.553857803344727 109 109 109
-1.721343994140625 0.08902189135551453 9.70907211303711 38 38 38
-3.7516465187072754 -0.8467633724212646 16.099998474121094 76 76 76
0.8849872946739197 -0.7066025733947754 4.363707065582275 80 80 80
-4.728983402252197 -1.3328444957733154 12.998836517333984 124 124 124
-4.7245259284973145 -0.6114705801010132 9.98422908782959 24 24 24
-4.853783130645752 -1.895357370376587 14.114635467529297 181 181 181
-4.822517395019531 -1.7573691606521606 13.261320114135742 238 238 238
-4.815628528594971 -1.65608811378479 13.268924713134766 224 224 224
-4.936516761779785 -2.2872071266174316 14.307579040527344 23 23 23
-4.791887283325195 -2.1539089679718018 12.939709663391113 217 217 217
-4.576119899749756 -2.6908857822418213 16.067140579223633 43 43 43
-1.4556326866149902 0.11954013258218765 9.703889846801758 14 14 14
-0.14951641857624054 3.024273157119751 5.9264235496521 166 166 166
0.6280268430709839 -2.3547518253326416 4.126920223236084 105 105 105
-1.567018747329712 0.13239970803260803 9.720052719116211 4 4 4
-4.625694751739502 -0.7696567177772522 10.125350952148438 22 22 22
-4.271173477172852 -1.2901211977005005 16.730083465576172 10 10 10
0.054250653833150864 3.0738179683685303 5.795473098754883 141 141 141
-4.76851224899292 -0.7603101134300232 10.028264045715332 49 49 49
-4.3806352615356445 0.9164978265762329 10.114823341369629 62 62 62
-2.01737380027771 0.1168169230222702 9.817798614501953 44 44 44
-4.943010330200195 -1.2935655117034912 17.21099853515625 93 93 93
-4.576111793518066 -2.690852642059326 16.067045211791992 43 43 43
0.6499486565589905 -1.1242619752883911 4.244525909423828 8 8 8
-4.650306224822998 -1.4486197233200073 17.072664260864258 214 214 214
-4.773467063903809 -1.4258800745010376 17.066097259521484 108 108 108
-4.738621711730957 -1.7942321300506592 12.381486892700195 55 55 55
-4.292572021484375 -1.2477511167526245 16.854347229003906 202 202 202
-4.650284290313721 -1.4486217498779297 17.072599411010742 214 214 214
-4.7357354164123535 -1.99265718460083 12.06291675567627 24 24 24
-4.834765434265137 -1.5873416662216187 17.224143981933594 132 132 132
-4.272950172424316 -1.202962875366211 16.881074905395508 112 112 112
-5.037796497344971 -1.5584360361099243 16.95117950439453 71 71 71
-4.293604373931885 -1.1948342323303223 16.858427047729492 194 194 194
0.6358850598335266 -1.1646957397460938 4.2950873374938965 99 99 99
-1.831700086593628 0.1377347856760025 9.75806999206543 37 37 37
-4.834761142730713 -1.5873395204544067 17.224130630493164 132 132 132
-4.963759422302246 -1.5746334791183472 17.170454025268555 17 17 17
-3.6376266479492188 -3.112312078475952 12.884753227233887 220 220 220
-4.576320648193359 -1.588655948638916 17.25206756591797 67 67 67
0.8850054740905762 -0.7066159844398499 4.363781929016113 80 80 80
0.8630504608154297 -1.1648733615875244 4.284852027893066 92 92 92
-4.694279670715332 -1.9702842235565186 12.248507499694824 182 182 182
-2.015951633453369 0.1167747750878334 9.813210487365723 44 44 44
-4.337793827056885 -1.12618088722229 16.95400047302246 154 154 154
-1.727320909500122 0.1572572886943817 9.61284351348877 236 236 236
-1.7006686925888062 0.16976898908615112 9.750298500061035 187 187 187
-1.939616084098816 0.17752617597579956 9.804105758666992 82 82 82
-4.719420433044434 -1.9791163206100464 12.301776885986328 182 182 182
-4.527340888977051 0.8072817325592041 9.974603652954102 182 182 182
-0.028459664434194565 2.918701410293579 5.867406368255615 71 71 71
-4.923984050750732 -0.654895544052124 16.03959083557129 239 239 239
-4.771303176879883 -2.2306177616119385 12.375268936157227 10 10 10
-4.90643310546875 -2.0081534385681152 14.23814582824707 129 129 129
-4.724531173706055 -0.6114663481712341 9.984256744384766 24 24 24
1.620474934577942 0.2214100956916809 4.339615821838379 26 26 26
-4.303627014160156 -2.7768895626068115 15.634954452514648 145 145 145
-5.033679962158203 -2.348208427429199 13.055546760559082 11 11 11
-4.771301746368408 -2.2306149005889893 12.375266075134277 10 10 10
-4.7638630867004395 -1.8017661571502686 12.43489933013916 55 55 55
-4.943019390106201 -1.2935702800750732 17.21102523803711 93 93 93
-1.6899482011795044 0.17034609615802765 9.711756706237793 187 187 187
-4.771502494812012 -2.2307169437408447 12.375720024108887 10 10 10
-4.571100234985352 -2.1784443855285645 9.745975494384766 84 84 84
-4.738439083099365 -1.7941681146621704 12.38106632232666 55 55 55
-4.7640228271484375 -1.801814079284668 12.4352388381958 55 55 55
0.852450430393219 -0.6756399273872375 4.335069179534912 166 166 166
-4.7108049392700195 -2.2161717414855957 11.954462051391602 28 28 28
-1.9502100944519043 0.18190552294254303 9.839192390441895 125 125 125
-4.692739963531494 -2.2260637283325195 10.092609405517578 50 50 50
0.9305550456047058 0.2262658327817917 4.462739944458008 105 105 105
-4.692686557769775 -2.226053476333618 10.09250259399414 50 50 50
1.7625999450683594 0.29800719022750854 3.948471784591675 22 22 22
0.8902093768119812 -0.9525078535079956 4.316457271575928 134 134 134
-0.2661014497280121 2.984107494354248 5.976841449737549 155 155 155
-1.1485728025436401 1.5327894687652588 9.535266876220703 60 60 60
-4.745839595794678 -1.8961541652679443 12.38243293762207 5 5 5
-4.849931716918945 -2.154282331466675 14.076695442199707 118 118 118
-1.6298842430114746 1.5591176748275757 9.590951919555664 103 103 103
0.5589529275894165 -0.237819105386734 4.6055684089660645 82 82 82
-4.915548801422119 -1.8108221292495728 14.785507202148438 118 118 118
0.8524518609046936 -0.675646960735321 4.3350653648376465 166 166 166
-4.871048927307129 -2.16316556930542 14.12687873840332 118 118 118
-4.686315536499023 -1.1841694116592407 12.04792308807373 100 100 100
0.9248291254043579 0.4850498139858246 4.49251127243042 158 158 158
0.5641440153121948 -0.6985028386116028 4.572730541229248 158 158 158
1.6503247022628784 0.7520788311958313 4.4203104972839355 158 158 158
-4.863714694976807 -1.7352389097213745 14.173014640808105 13 13 13
-1.3846548795700073 1.4170026779174805 10.38585090637207 48 48 48
-1.6506023406982422 0.0416937991976738 9.630732536315918 99 99 99
0.06487525999546051 3.0339713096618652 5.949592113494873 167 167 167
0.8755683302879333 -0.926055908203125 4.338547229766846 41 41 41
-0.09817502647638321 3.340989112854004 5.321887969970703 136 136 136
0.0938495472073555 3.2444443702697754 5.203803539276123 112 112 112
-0.02129877544939518 3.2892818450927734 5.307037353515625 57 57 57
0.8959894776344299 -1.7398598194122314 4.23628568649292 29 29 29
1.6175569295883179 0.2492472231388092 4.3037309646606445 50 50 50
-4.584934711456299 -1.899826169013977 9.890837669372559 2 2 2
-4.770843505859375 -1.5378105640411377 13.152210235595703 224 224 224
-4.7710280418396 -1.5378801822662354 13.152679443359375 224 224 224
-4.694255352020264 -1.293044090270996 12.038128852844238 143 143 143
-0.032903384417295456 3.2616147994995117 5.296316623687744 135 135 135
0.35764938592910767 3.2617650032043457 5.30982780456543 137 137 137
0.6270862817764282 -0.8860244154930115 4.265990734100342 41 41 41
0.9471712112426758 0.9237985610961914 4.547722339630127 171 171 171
-0.2189348191022873 3.2772812843322754 5.366425514221191 161 161 161
-4.770841598510742 -1.5378105640411377 13.152206420898438 224 224 224
-4.633312225341797 -1.919033408164978 9.974566459655762 1 1 1
0.9127456545829773 0.5089671015739441 4.476775169372559 179 179 179
-0.062322333455085754 3.2331838607788086 5.3378801345825195 138 138 138
0.9023359417915344 0.0062754494138062 4.429232597351074 6 6 6
0.7071724534034729 1.8973478078842163 4.629121780395508 133 133 133
-4.84544563293457 -1.7040382623672485 15.29851245880127 70 70 70
-0.1168937012553215 3.2025532722473145 5.370668888092041 82 82 82
-4.179323196411133 -2.950765371322632 14.64892292022705 170 170 170
-4.011844158172607 -2.9495913982391357 14.713496208190918 214 214 214
-0.135910302400589 3.2580056190490723 5.460075378417969 106 106 106
-0.22494474053382874 3.186161756515503 5.556063652038574 156 156 156
1.6290332078933716 0.21414707601070404 4.334966659545898 44 44 44
-4.789467811584473 -2.2385034561157227 12.933835983276367 4 4 4
-4.746452808380127 -2.1112451553344727 12.081419944763184 1 1 1
0.7074810862541199 -0.9098851680755615 4.265997886657715 164 164 164
-1.7212327718734741 1.5299851894378662 9.674799919128418 9 9 9
-0.20899902284145355 3.2346129417419434 5.513507843017578 81 81 81
0.2514250576496124 3.135737657546997 5.717766761779785 92 92 92
0.6709808111190796 0.27356502413749695 4.449315547943115 73 73 73
0.6673474907875061 0.521129846572876 4.458858489990234 157 157 157
-4.726438045501709 -0.9661695957183838 12.173813819885254 11 11 11
-0.47917747497558594 3.092956066131592 5.810949325561523 149 149 149
-4.722607612609863 -0.6148813366889954 12.229913711547852 98 98 98
-4.6390533447265625 0.8708470463752747 9.883381843566895 186 186 186
-4.727007865905762 -0.9662911891937256 12.175241470336914 11 11 11
0.6275224089622498 -0.8827973008155823 4.266740798950195 98 98 98
-0.13016213476657867 3.159020185470581 5.5789103507995605 154 154 154
1.6129909753799438 -0.246175155043602 4.301337242126465 27 27 27
-1.5252482891082764 1.4853414297103882 9.605012893676758 112 112 112
0.8818655014038086 0.9472634792327881 4.5424041748046875 119 119 119
0.7357145547866821 -2.257265567779541 4.123606204986572 79 79 79
0.1526227742433548 3.1207540035247803 5.67405891418457 50 50 50
-1.9656306505203247 0.14651918411254883 9.828242301940918 251 251 251
-4.7949604988098145 -1.4798557758331299 12.602802276611328 33 33 33
0.697584331035614 2.3593077659606934 4.679720878601074 96 96 96
-5.006594657897949 -2.000758409500122 16.59959602355957 130 130 130
-1.4971309900283813 1.7247285842895508 9.554455757141113 4 4 4
0.627512514591217 -0.9063915014266968 4.272744655609131 196 196 196
0.6451072692871094 -0.17127074301242828 4.369046688079834 156 156 156
-1.4703893661499023 0.14991755783557892 9.701221466064453 137 137 137
-5.046725749969482 -2.133173704147339 16.734905242919922 72 72 72
-4.526146411895752 -2.7767839431762695 15.884909629821777 26 26 26
-4.517868995666504 0.829513669013977 10.005060195922852 28 28 28
1.7392503023147583 0.5520520210266113 4.130797386169434 115 115 115
0.8511078953742981 -1.8622292280197144 4.2113165855407715 112 112 112
-4.9836530685424805 -1.0726521015167236 16.858572006225586 42 42 42
-4.693978309631348 -2.226555824279785 10.094764709472656 50 50 50
-1.6996819972991943 1.6067837476730347 9.625582695007324 158 158 158
0.9117923974990845 0.2219683676958084 4.372690677642822 161 161 161
-4.983799457550049 -1.072675347328186 16.858943939208984 42 42 42
-5.046851634979248 -2.1332216262817383 16.735248565673828 72 72 72
0.8739672303199768 0.023720378056168556 4.580318927764893 100 100 100
-4.552216529846191 -1.756784439086914 12.49453353881836 115 115 115
-0.09418182820081711 3.0097815990448 5.945350170135498 50 50 50
1.6448887586593628 0.08021905273199081 4.327816009521484 11 11 11
-4.936460494995117 -2.287184000015259 14.307445526123047 23 23 23
0.8471829295158386 -0.20599310100078583 4.386721134185791 152 152 152
0.762886643409729 1.037589430809021 4.53191614151001 135 135 135
-4.1763763427734375 -0.7046871185302734 16.531063079833984 115 115 115
0.9616302847862244 1.5317434072494507 4.636541843414307 100 100 100
-0.5058693885803223 2.6938636302948 6.789480686187744 93 93 93
-0.14025399088859558 2.9691920280456543 6.006613731384277 114 114 114
-1.497170090675354 1.724753737449646 9.55460262298584 4 4 4
-1.7213531732559204 1.5300847291946411 9.675474166870117 9 9 9
0.667348325252533 0.5211288928985596 4.458860874176025 157 157 157
-1.517486810684204 0.13199740648269653 9.761148452758789 226 226 226
-1.4992575645446777 1.578446865081787 9.51936149597168 18 18 18
-1.7099555730819702 1.712976336479187 9.620862007141113 47 47 47
-1.9286274909973145 1.6103674173355103 9.816961288452148 2 2 2
0.8758920431137085 -0.9584474563598633 4.345325946807861 141 141 141
-4.984572410583496 -1.1368701457977295 15.331023216247559 112 112 112
-4.7155070304870605 -0.19343556463718414 10.018078804016113 7 7 7
-4.625723838806152 0.21435858309268951 10.329638481140137 2 2 2
0.8952075242996216 0.09417257457971573 4.440314769744873 97 97 97
0.6565147042274475 -0.19811005890369415 4.376743793487549 1 1 1
-5.333046913146973 -1.8615517616271973 16.837888717651367 103 103 103
-4.771368026733398 -2.2306454181671143 12.375436782836914 10 10 10
-4.303462505340576 -2.776789665222168 15.634358406066895 145 145 145
0.6358765363693237 -1.1647121906280518 4.29511833190918 99 99 99
-4.94304084777832 -1.2935680150985718 17.211088180541992 93 93 93
-4.585000991821289 -1.899863362312317 9.890965461730957 2 2 2
-5.034168243408203 -1.7997153997421265 16.717082977294922 141 141 141
-4.755349636077881 -1.4427471160888672 13.113399505615234 152 152 152
-4.771266937255859 -2.230581045150757 12.375173568725586 10 10 10
0.9471712708473206 0.9238008856773376 4.547725200653076 171 171 171
0.6244401931762695 -1.1322880983352661 4.251175403594971 19 19 19
-1.6614588499069214 0.09531693905591965 9.773634910583496 228 228 228
0.5480793118476868 -1.1652897596359253 4.447014331817627 29 29 29
-4.323850631713867 -1.1237221956253052 16.899351119995117 154 154 154
-4.535775184631348 0.8100930452346802 9.989606857299805 182 182 182
-4.380627632141113 0.9164955019950867 10.1148099899292 62 62 62
0.9153473973274231 0.22382718324661255 4.389556407928467 101 101 101
-4.771266937255859 -2.230581045150757 12.375173568725586 10 10 10
-4.715827465057373 -2.15883731842041 12.512124061584473 237 237 237
-0.21857425570487976 3.2717125415802 5.357503414154053 161 161 161
-4.735876560211182 -1.992722988128662 12.063276290893555 24 24 24
-4.5761284828186035 -2.6908841133117676 16.067153930664062 43 43 43
-4.455053806304932 -2.7771859169006348 16.765745162963867 180 180 180
-4.584934234619141 -1.8998216390609741 9.890836715698242 2 2 2
-4.989334583282471 -0.6397777199745178 15.858857154846191 85 85 85
0.9248289465904236 0.48505544662475586 4.49254035949707 158 158 158
-4.770946025848389 -1.5378453731536865 13.15244197845459 224 224 224
-4.633622646331787 -1.9191662073135376 9.975203514099121 1 1 1
0.924810528755188 0.48919472098350525 4.505189895629883 188 188 188
-4.770959854125977 -1.537850022315979 13.15252685546875 224 224 224
-0.21782970428466797 3.265099287033081 5.344595432281494 125 125 125
1.6368012428283691 0.1100246012210846 4.344937801361084 146 146 146
-5.0378241539001465 -1.5584475994110107 16.951257705688477 71 71 71
-4.963724136352539 -1.5746241807937622 17.170330047607422 17 17 17
0.8959894776344299 -1.7398614883422852 4.236290454864502 29 29 29
0.8849886655807495 -0.7065962553024292 4.363640308380127 80 80 80
-1.8587435483932495 0.20246084034442902 9.798794746398926 93 93 93
1.644976019859314 0.08009643852710724 4.328054904937744 11 11 11
-1.6902670860290527 0.17038242518901825 9.713399887084961 187 187 187
-5.006470680236816 -2.0007150173187256 16.5992431640625 130 130 130
-4.758946418762207 -1.522725224494934 12.585678100585938 166 166 166
-1.9407933950424194 0.1775893270969391 9.80761432647705 82 82 82
-1.7432082891464233 0.156732976436615 9.667888641357422 165 165 165
-1.4825952053070068 0.14909963309764862 9.742173194885254 137 137 137
-4.863658905029297 -1.735170841217041 14.17290210723877 13 13 13
-4.011831760406494 -2.94956111907959 14.713445663452148 214 214 214
-4.179357051849365 -2.950784921646118 14.649022102355957 170 170 170
-2.103276252746582 0.13700509071350098 9.78240966796875 88 88 88
0.6061758995056152 -1.6359741687774658 4.245611667633057 112 112 112
-4.924020767211914 -0.6549099087715149 16.03969955444336 239 239 239
-1.3844293355941772 1.416799545288086 10.384405136108398 48 48 48
-1.4599634408950806 0.07071279734373093 9.84904670715332 196 196 196
-4.597995281219482 -2.047525405883789 9.837153434753418 10 10 10
0.6273786425590515 -0.885107696056366 4.26825475692749 70 70 70
0.11386369913816452 3.202075481414795 5.422364234924316 126 126 126
-4.604557991027832 -0.9112100601196289 10.084009170532227 38 38 38
0.9026402235031128 0.006137453485280275 4.412112236022949 36 36 36
-4.597649097442627 -2.047394275665283 9.836552619934082 10 10 10
-4.693899631500244 -2.2265279293060303 10.094625473022461 50 50 50
-4.692718029022217 -2.226069927215576 10.092568397521973 50 50 50
0.3052169680595398 3.212904453277588 5.374276638031006 151 151 151
-1.721356749534607 1.5300757884979248 9.675484657287598 11 11 11
-4.773527145385742 -1.4258953332901 17.06627655029297 108 108 108
-4.650187969207764 -1.4485913515090942 17.072311401367188 214 214 214
-4.720329761505127 -1.4156297445297241 12.07127857208252 4 4 4
0.10126657038927078 3.2370173931121826 5.497368335723877 152 152 152
-4.71249532699585 -0.33813029527664185 9.980466842651367 14 14 14
-4.549023628234863 -1.4643412828445435 9.86508846282959 4 4 4
-4.372415542602539 -1.5611741542816162 16.976606369018555 92 92 92
0.6503959894180298 -0.17873485386371613 4.400355339050293 102 102 102
0.6280266046524048 -2.3547537326812744 4.126923561096191 105 105 105
-4.576353549957275 -1.5886526107788086 17.252174377441406 67 67 67
-4.254361629486084 -1.1954350471496582 16.84902572631836 52 52 52
-4.861555576324463 -1.605905294418335 15.375779151916504 98 98 98
-4.650274753570557 -1.4486258029937744 17.07257080078125 214 214 214
-4.715802192687988 -2.1588187217712402 12.512069702148438 237 237 237
-4.764070987701416 -1.801833152770996 12.43535041809082 55 55 55
-4.746448993682861 -2.1112558841705322 12.081388473510742 1 1 1
-4.72886848449707 -1.3327983617782593 12.998557090759277 124 124 124
0.32126370072364807 3.2527976036071777 5.330278396606445 148 148 148
-5.013957500457764 -2.8474223613739014 15.292561531066895 67 67 67
0.6802000403404236 1.4465988874435425 4.5466508865356445 28 28 28
-4.4578046798706055 -1.7141928672790527 9.738298416137695 52 52 52
0.7357103228569031 -2.2572996616363525 4.123674392700195 79 79 79
-0.2738654911518097 3.0633461475372314 5.809352874755859 165 165 165
-4.8421149253845215 -2.263512372970581 13.032012939453125 45 45 45
0.8714954257011414 0.25272509455680847 4.488156318664551 133 133 133
-0.031176894903182983 3.2521626949310303 5.315738677978516 115 115 115
1.7512249946594238 0.29326358437538147 3.923309087753296 62 62 62
-0.24452464282512665 3.231780767440796 5.303407669067383 141 141 141
-0.14797021448612213 3.22817325592041 5.39269495010376 133 133 133
-4.9844970703125 -1.136856198310852 15.330833435058594 112 112 112
0.2928029000759125 -0.5515948534011841 5.32905387878418 110 110 110
-4.544288635253906 -0.6296536922454834 10.05008316040039 22 22 22
-3.3082175254821777 -3.411473512649536 9.613359451293945 178 178 178
-4.721697807312012 -1.0397441387176514 12.643397331237793 104 104 104
-5.006443023681641 -2.000699758529663 16.599138259887695 130 130 130
-4.5512495040893555 -0.4842098653316498 10.037208557128906 52 52 52
-4.546280860900879 -0.4842938780784607 10.026253700256348 50 50 50
0.23290368914604187 3.1765592098236084 5.561252593994141 146 146 146
-0.2123207449913025 3.156006097793579 5.8578948974609375 104 104 104
0.8729557991027832 -1.4281973838806152 4.298126697540283 154 154 154
-4.0691633224487305 -1.0433429479599 16.61458396911621 79 79 79
0.6872079968452454 0.73092120885849 4.506605625152588 27 27 27
-1.5253232717514038 1.4854038953781128 9.605463981628418 112 112 112
0.875886082649231 -0.9519755244255066 4.312286853790283 151 151 151
-1.0599979162216187 1.5690906047821045 9.464731216430664 93 93 93
-1.6759952306747437 1.5918328762054443 9.54227066040039 154 154 154
-0.3433959484100342 3.23358154296875 5.439272403717041 143 143 143
-4.98365592956543 -1.0726455450057983 16.85854148864746 42 42 42
0.06500173360109329 3.042172431945801 5.966373920440674 150 150 150
-4.77003812789917 -2.123936891555786 12.39869213104248 187 187 187
-4.06939172744751 -1.043398141860962 16.615507125854492 79 79 79
-4.902894973754883 -0.4170069098472595 15.075211524963379 39 39 39
-5.006573677062988 -2.000741958618164 16.599496841430664 130 130 130
1.65032160282135 0.18124531209468842 4.333381652832031 150 150 150
-4.726993560791016 -0.9662879705429077 12.175215721130371 11 11 11
-4.715909957885742 -2.1588659286499023 12.51244831085205 237 237 237
0.05832737684249878 3.1058385372161865 5.74770975112915 105 105 105
-4.768186569213867 -2.225253105163574 12.516864776611328 123 123 123
1.6376246213912964 -0.3404994308948517 4.28453254699707 114 114 114
0.6673480272293091 0.5211305022239685 4.4588518142700195 157 157 157
0.8850023150444031 -0.7066114544868469 4.363752365112305 80 80 80
-4.936478137969971 -0.6137381196022034 15.18749713897705 108 108 108
-4.635839939117432 -2.587538003921509 9.918612480163574 49 49 49
-5.190102577209473 -2.3284547328948975 15.364280700683594 128 128 128
-4.720107078552246 -1.0730565786361694 12.121891021728516 128 128 128
-0.021351031959056854 3.2475364208221436 5.341250419616699 39 39 39
-4.635636806488037 -2.587432384490967 9.918159484863281 49 49 49
-4.715492248535156 -0.1934150606393814 10.018054008483887 7 7 7
-4.724207878112793 -0.6151955127716064 12.234078407287598 98 98 98
0.8715078234672546 -0.9037204384803772 4.35270881652832 97 97 97
-4.532075881958008 -0.34342801570892334 10.030505180358887 142 142 142
-1.9286484718322754 1.610381007194519 9.817031860351562 2 2 2
-4.718983173370361 -1.0728965997695923 12.119551658630371 128 128 128
-0.23548921942710876 3.046046018600464 5.936595916748047 118 118 118
0.8423300385475159 0.02159097231924534 4.414700984954834 170 170 170
-0.037133656442165375 3.1660537719726562 5.654143333435059 124 124 124
-2.1545913219451904 1.3899598121643066 10.101101875305176 21 21 21
1.5569581985473633 0.21939459443092346 4.393974304199219 23 23 23
-4.625760555267334 0.21436454355716705 10.329718589782715 2 2 2
-4.771266937255859 -2.230581045150757 12.375173568725586 10 10 10
-4.863661289215088 -1.7351778745651245 14.172907829284668 13 13 13
-5.333056926727295 -1.8615741729736328 16.837915420532227 103 103 103
-4.303631782531738 -2.7768938541412354 15.634949684143066 145 145 145
0.9030015468597412 0.004843039903789759 4.386448383331299 10 10 10
-2.0169198513031006 0.11678200215101242 9.816306114196777 44 44 44
-4.633495807647705 -1.9192191362380981 9.975117683410645 1 1 1
-4.983780384063721 -1.0726737976074219 16.8588924407959 42 42 42
-4.633793830871582 -1.9192274808883667 9.97563648223877 1 1 1
0.4743247628211975 -0.2633804678916931 4.928150653839111 37 37 37
-4.770895957946777 -1.5378187894821167 13.152359962463379 224 224 224
0.6975858211517334 2.359316349029541 4.679722309112549 96 96 96
-4.315800666809082 -2.815962791442871 16.1131591796875 248 248 248
0.8511069416999817 -1.8622289896011353 4.211315155029297 112 112 112
-1.6484472751617432 0.09767448902130127 9.740205764770508 193 193 193
-4.71591329574585 -2.1588616371154785 12.512370109558105 237 237 237
0.8780633211135864 -0.44638490676879883 4.359223365783691 175 175 175
-4.561376571655273 -2.838651657104492 16.51852798461914 38 38 38
0.872292160987854 -1.4262199401855469 4.294609546661377 164 164 164
0.9016517400741577 -0.23145553469657898 4.418339729309082 124 124 124
-4.455111026763916 -2.777214527130127 16.765918731689453 180 180 180
1.5278902053833008 0.23761524260044098 4.439661026000977 113 113 113
0.8843125700950623 -0.21117644011974335 4.427110195159912 22 22 22
-4.183969974517822 -2.609717845916748 15.745941162109375 136 136 136
0.8619353175163269 -1.6312298774719238 4.224209308624268 88 88 88
-4.692704677581787 -2.226045846939087 10.092546463012695 50 50 50
0.8849883079528809 -0.7066006660461426 4.36368465423584 80 80 80
1.7449963092803955 0.4898146986961365 4.230014324188232 72 72 72
-4.695130348205566 -1.1009163856506348 12.786686897277832 68 68 68
-1.823728084564209 0.13751830160617828 9.731122970581055 37 37 37
-4.9889116287231445 -0.63968825340271 15.85751724243164 85 85 85
-2.1143486499786377 0.1375371366739273 9.816790580749512 121 121 121
-1.476431965827942 0.11277299374341965 9.688881874084473 161 161 161
-4.373110294342041 -1.5613330602645874 16.978782653808594 92 92 92
-4.379997253417969 0.8379565477371216 10.057260513305664 68 68 68
-1.9498282670974731 0.18187902867794037 9.837976455688477 125 125 125
-4.481428146362305 0.7589914798736572 9.849818229675293 235 235 235
-5.037807941436768 -1.5584032535552979 16.951213836669922 71 71 71
-4.576714038848877 -1.5887625217437744 17.253307342529297 67 67 67
-4.53165864944458 -1.6013339757919312 9.846771240234375 1 1 1
1.7989182472229004 0.3104191720485687 3.9750514030456543 79 79 79
-1.629875659942627 1.5591102838516235 9.590950012207031 103 103 103
0.8630344271659851 -1.1648571491241455 4.284793853759766 92 92 92
-5.078677177429199 -2.2978484630584717 16.087039947509766 100 100 100
-4.773568153381348 -1.4259313344955444 17.066558837890625 108 108 108
0.648866593837738 -1.1338343620300293 4.254069805145264 30 30 30
-4.650106906890869 -1.4485855102539062 17.07206916809082 214 214 214
-4.650404930114746 -1.4486523866653442 17.072959899902344 214 214 214
1.6368012428283691 0.11002449691295624 4.344937801361084 146 146 146
-4.650277137756348 -1.4486263990402222 17.07257843017578 214 214 214
-5.107590198516846 -1.3769423961639404 16.912548065185547 124 124 124
-1.6299084424972534 1.5591317415237427 9.591080665588379 103 103 103
-1.148345708847046 1.5326342582702637 9.534273147583008 60 60 60
-3.865419626235962 -3.1098380088806152 12.872098922729492 169 169 169
-3.637653112411499 -3.112295627593994 12.88485050201416 220 220 220
-1.7137398719787598 -1.4144660234451294 10.846198081970215 61 61 61
-4.719870567321777 -1.888052225112915 12.332018852233887 96 96 96
-4.881674766540527 -1.6128073930740356 15.427916526794434 98 98 98
0.8755682706832886 -0.9260510802268982 4.338541507720947 41 41 41
-4.176488876342773 -0.7046938538551331 16.531566619873047 115 115 115
1.6503229141235352 0.7520802617073059 4.420308589935303 158 158 158
-4.324285507202148 -1.124802827835083 16.90115737915039 154 154 154
-4.68797492980957 -2.0456550121307373 12.240255355834961 171 171 171
-0.02130029909312725 3.2892913818359375 5.307061195373535 57 57 57
-0.23863986134529114 3.241929531097412 5.257133960723877 148 148 148
-4.179391384124756 -2.9508049488067627 14.6491117477417 170 170 170
-0.03267887979745865 3.2649357318878174 5.301241874694824 115 115 115
-4.011829853057861 -2.9495604038238525 14.713440895080566 214 214 214
-0.2382623702287674 3.264831066131592 5.253933906555176 130 130 130
0.7313773036003113 -2.242950201034546 4.100266933441162 93 93 93
-4.326585292816162 -1.0760245323181152 17.211530685424805 71 71 71
0.6975407600402832 2.3594143390655518 4.678903102874756 96 96 96
-4.526164531707764 -2.7767422199249268 15.885059356689453 26 26 26
0.6632253527641296 0.03921462222933769 4.354188442230225 196 196 196
-0.18233256042003632 3.2244784832000732 5.3669514656066895 103 103 103
1.7462949752807617 0.5317962169647217 4.057714462280273 88 88 88
-4.5187602043151855 -1.735772728919983 9.761663436889648 2 2 2
-3.308137893676758 -3.411402702331543 9.613121032714844 178 178 178
-3.0237021446228027 -3.4279909133911133 9.70719051361084 213 213 213
-4.548794269561768 -1.4642810821533203 9.864602088928223 4 4 4
-1.990368127822876 0.18183277547359467 9.697332382202148 221 221 221
1.6450397968292236 0.08017253875732422 4.328228950500488 11 11 11
-4.5480499267578125 -1.4640905857086182 9.86298656463623 4 4 4
-0.09490901976823807 3.138798713684082 5.694814682006836 59 59 59
1.643209457397461 0.37546971440315247 4.120025634765625 46 46 46
-3.686744451522827 -0.7145214676856995 15.836752891540527 83 83 83
-1.5254462957382202 1.4854960441589355 9.605916023254395 112 112 112
-4.693967342376709 -2.2265524864196777 10.094744682312012 50 50 50
-1.6298776865005493 1.559114694595337 9.590962409973145 103 103 103
0.011340441182255745 2.9702250957489014 6.000158309936523 79 79 79
-4.568977355957031 -0.06786590814590454 10.176202774047852 15 15 15
0.30583786964416504 3.2197399139404297 5.389766693115234 141 141 141
-4.7090067863464355 -1.1908624172210693 12.095207214355469 21 21 21
-4.7807722091674805 -1.9744913578033447 10.313011169433594 44 44 44
0.9215924143791199 1.1931582689285278 4.649506568908691 160 160 160
-1.7099307775497437 1.7129521369934082 9.620742797851562 47 47 47
0.8758894205093384 -0.9515613317489624 4.312237739562988 151 151 151
0.6736711859703064 1.1867480278015137 4.610527515411377 59 59 59
-4.98892879486084 -1.2411507368087769 16.643659591674805 94 94 94
0.1806591898202896 3.2147605419158936 5.437720775604248 65 65 65
0.9429693818092346 0.7687779664993286 4.530728340148926 95 95 95
-5.0064826011657715 -2.0007128715515137 16.5992488861084 130 130 130
-4.709918022155762 -1.191059947013855 12.097108840942383 21 21 21
-5.105195999145508 -1.491976022720337 16.90460777282715 121 121 121
-0.03817787766456604 3.257415533065796 5.35020112991333 145 145 145
0.9116886854171753 0.5102989673614502 4.489169120788574 183 183 183
-0.2076960802078247 3.226283311843872 5.377742290496826 146 146 146
-4.120886325836182 -0.9658284783363342 16.304542541503906 102 102 102
0.8524483442306519 -0.6756592392921448 4.3351287841796875 166 166 166
-4.7357659339904785 -1.992666482925415 12.06301498413086 24 24 24
0.8850027918815613 -0.7066091895103455 4.3637285232543945 80 80 80
-4.936649322509766 -0.6137427091598511 15.187931060791016 108 108 108
-4.917329788208008 -1.1503256559371948 13.682944297790527 87 87 87
-0.21187247335910797 3.1528921127319336 5.850212097167969 83 83 83
-0.2603473365306854 3.0607616901397705 5.931213855743408 48 48 48
0.7173871397972107 -2.2833404541015625 4.150649547576904 120 120 120
-4.693195343017578 -1.4250229597091675 12.14672565460205 43 43 43
0.5268887877464294 -0.9407998919487 4.484485626220703 82 82 82
-4.496655464172363 -1.73446786403656 9.904467582702637 5 5 5
-4.53068733215332 -0.44113853573799133 10.51235294342041 143 143 143
0.24434873461723328 3.2699007987976074 5.337375640869141 100 100 100
1.725842833518982 0.7096996307373047 4.162492752075195 109 109 109
-0.30391600728034973 3.1917757987976074 5.4280195236206055 65 65 65
0.6173734664916992 -2.1353938579559326 4.126677989959717 116 116 116
-4.945656776428223 -1.4231914281845093 13.144594192504883 138 138 138
-4.530503749847412 -0.44114765524864197 10.511932373046875 143 143 143
-4.0693840980529785 -1.0433682203292847 16.61528778076172 79 79 79
-0.006164691410958767 3.0917513370513916 5.763324737548828 50 50 50
-0.14369578659534454 3.2154316902160645 5.4479289054870605 50 50 50
-0.08056847006082535 3.1111679077148438 5.457941055297852 104 104 104
-4.761202335357666 -0.863227128982544 12.31535530090332 40 40 40
-3.003980875015259 -0.26902174949645996 14.852229118347168 57 57 57
0.6342706680297852 -0.006734190043061972 4.376153945922852 86 86 86
0.10271667689085007 3.056309700012207 5.889021873474121 123 123 123
-4.5610527992248535 -2.025515079498291 9.902149200439453 41 41 41
0.8511018753051758 -1.862217664718628 4.211291313171387 112 112 112
0.735748827457428 -2.257335901260376 4.123715400695801 79 79 79
-4.65009880065918 -1.4485681056976318 17.07203483581543 214 214 214
0.6135042309761047 -1.3523751497268677 4.1477179527282715 18 18 18
-1.76850426197052 0.1750907599925995 9.67725658416748 48 48 48
-5.154745578765869 -1.5156673192977905 17.01791000366211 119 119 119
1.600242257118225 -0.26452162861824036 4.3247809410095215 50 50 50
0.7045506834983826 2.5844035148620605 4.702770233154297 110 110 110
-4.5763373374938965 -1.5886567831039429 17.252113342285156 67 67 67
-4.834709644317627 -1.5873304605484009 17.22393226623535 132 132 132
-4.963679313659668 -1.57460618019104 17.170175552368164 17 17 17
0.901648759841919 -0.2314530462026596 4.41832160949707 124 124 124
-4.481176853179932 0.7589570879936218 9.849295616149902 235 235 235
0.51804119348526 -1.6809512376785278 4.534408092498779 67 67 67
-3.6771984100341797 -3.0696840286254883 12.947844505310059 160 160 160
-4.5463080406188965 -0.484295517206192 10.026304244995117 50 50 50
1.7460236549377441 0.2928185760974884 3.911602020263672 65 65 65
-4.923620700836182 -0.6548418402671814 16.038394927978516 239 239 239
1.7777249813079834 0.27843084931373596 3.959016799926758 80 80 80
-4.747135639190674 -2.0667035579681396 12.365668296813965 159 159 159
-4.9365386962890625 -0.6137377023696899 15.187634468078613 108 108 108
0.6226904988288879 -1.1288269758224487 4.245535373687744 67 67 67
0.6515935063362122 -0.4243886172771454 4.279614448547363 185 185 185
0.5447244644165039 -0.4697434902191162 4.657752513885498 103 103 103
0.8962729573249817 -1.217798113822937 4.377871036529541 108 108 108
-4.1793670654296875 -2.950788736343384 14.649027824401855 170 170 170
-4.01185941696167 -2.949599266052246 14.713546752929688 214 214 214
1.7449877262115479 0.4898248016834259 4.230020523071289 72 72 72
-5.0241169929504395 -2.920351028442383 15.284581184387207 90 90 90
-4.568873882293701 -0.06785482168197632 10.175987243652344 15 15 15
-4.544003009796143 -1.8870625495910645 9.990164756774902 3 3 3
-4.408709526062012 0.7884235382080078 10.006149291992188 115 115 115
-5.013678073883057 -2.8472681045532227 15.29175090789795 67 67 67
-0.21187478303909302 3.152897834777832 5.850223064422607 83 83 83
-5.03095006942749 -2.3492839336395264 13.048564910888672 97 97 97
0.9023624062538147 0.00627684872597456 4.429353713989258 6 6 6
-4.506804943084717 -1.7383819818496704 9.92685317993164 5 5 5
-4.315999984741211 -2.8160934448242188 16.1138973236084 248 248 248
-4.7154436111450195 -2.158705234527588 12.511115074157715 237 237 237
-1.7214685678482056 0.08898361027240753 9.709773063659668 38 38 38
-4.711369037628174 -1.3592021465301514 12.492026329040527 156 156 156
0.5348314642906189 -0.722733736038208 4.573617935180664 116 116 116
1.6503170728683472 0.7520756125450134 4.420295238494873 158 158 158
-1.7010858058929443 0.16973711550235748 9.75147819519043 187 187 187
-1.959837555885315 0.17293401062488556 9.465828895568848 85 85 85
-1.9497897624969482 0.18187138438224792 9.83780288696289 125 125 125
