ply
format ascii 1.0
element vertex 713
property float x
property float y
property float z
property uchar red
property uchar green
property uchar blue
end_header
-1.1669402122497559 -1.8839186429977417 7.111466884613037 39 39 39
0.9268932938575745 -2.1350669860839844 5.459359169006348 2 2 2
-0.29053744673728943 0.3842686414718628 7.831935882568359 93 93 93
-1.8258510828018188 1.6170216798782349 6.891627788543701 74 74 74
-1.5702581405639648 1.6086302995681763 6.942929267883301 50 50 50
-1.5855633020401 1.8102372884750366 6.999416351318359 63 63 63
-0.06768503040075302 2.9996449947357178 5.438101768493652 161 161 161
-2.3974266052246094 -2.009474277496338 6.665860176086426 34 34 34
1.8999621868133545 -0.8877673745155334 5.349446773529053 4 4 4
-1.1897295713424683 0.07462868094444275 7.300585746765137 190 190 190
-2.043144941329956 -0.13476531207561493 7.957595348358154 131 131 131
0.6908727288246155 0.5298083424568176 6.160055637359619 135 135 135
-1.0704491138458252 2.2103352546691895 7.228566646575928 144 144 144
-1.8268152475357056 -1.3752658367156982 7.00689172744751 128 128 128
0.6131356358528137 3.0176479816436768 5.611172676086426 129 129 129
-1.6015387773513794 1.4225733280181885 6.994328498840332 119 119 119
-1.248395323753357 1.4638490676879883 7.143670558929443 14 14 14
-2.3797285556793213 -0.03523872420191765 7.94192361831665 164 164 164
-1.282044529914856 -2.7371668815612793 6.759010314941406 115 115 115
1.1954796314239502 3.021031141281128 5.7797346115112305 31 31 31
-1.0521464347839355 0.39167654514312744 7.177077293395996 109 109 109
0.6776722073554993 -0.8691114187240601 6.091093063354492 26 26 26
-1.5546960830688477 0.5546914935112 7.287368297576904 165 165 165
-2.2492003440856934 1.634883165359497 6.749719142913818 2 2 2
0.6809958219528198 3.0641274452209473 5.29022741317749 87 87 87
0.9283456206321716 -1.9206360578536987 5.979593753814697 100 100 100
-2.016732692718506 2.2369163036346436 6.877195835113525 21 21 21
-2.47149658203125 0.38900482654571533 7.00520133972168 121 121 121
0.15392279624938965 0.02196277491748333 7.272864818572998 32 32 32
-0.822755753993988 1.6112456321716309 7.335428237915039 70 70 70
1.3580025434494019 -2.078284502029419 4.451714515686035 137 137 137
-0.22016459703445435 2.790984630584717 7.024153232574463 92 92 92
0.6176758408546448 -1.6867215633392334 6.118390083312988 18 18 18
0.6886736154556274 0.957551896572113 6.207476615905762 210 210 210
-0.17638568580150604 2.9868814945220947 5.684722900390625 91 91 91
0.4693072438240051 0.4871833920478821 6.663404941558838 30 30 30
-2.5524919033050537 -0.3894290328025818 7.84992790222168 169 169 169
0.6958103775978088 0.5605607032775879 6.151973247528076 209 209 209
-2.3747103214263916 1.2400628328323364 6.66810941696167 110 110 110
1.219160556793213 3.0585248470306396 5.422911643981934 167 167 167
0.6088725328445435 0.11756989359855652 6.145578861236572 96 96 96
0.6955731511116028 1.1606210470199585 6.184600353240967 170 170 170
1.070774793624878 2.9482386112213135 5.779097557067871 86 86 86
0.7442461848258972 2.9226598739624023 5.52686071395874 119 119 119
1.7434524297714233 1.2421733140945435 3.7346866130828857 110 110 110
0.9800065159797668 3.0159895420074463 5.3421711921691895 115 115 115
0.6803023815155029 2.9608652591705322 5.731362819671631 58 58 58
0.6902902126312256 0.9601683616638184 6.221508026123047 210 210 210
0.6976322531700134 -0.6614174246788025 6.060466766357422 12 12 12
0.7465169429779053 3.0317163467407227 5.209415912628174 177 177 177
0.6784332394599915 1.9704351425170898 6.218534469604492 78 78 78
0.6976558566093445 -0.6614378690719604 6.060581684112549 12 12 12
0.7072692513465881 -1.2781263589859009 5.982161521911621 81 81 81
0.25751110911369324 0.4235602617263794 7.124648094177246 44 44 44
0.5143850445747375 0.3000619411468506 6.5317063331604 0 0 0
-0.1628737598657608 2.376828670501709 6.908432483673096 122 122 122
0.6989416480064392 -0.2739163041114807 6.028138160705566 138 138 138
-0.6652365326881409 2.9142005443573 5.973936557769775 105 105 105
-2.3220598697662354 -0.47039851546287537 7.898326396942139 160 160 160
1.6567132472991943 -0.07558038830757141 3.828169822692871 114 114 114
-2.3973166942596436 -0.5001887679100037 7.916554927825928 124 124 124
-2.374612331390381 1.2400274276733398 6.667920112609863 110 110 110
-2.884431838989258 1.0205193758010864 6.457261562347412 33 33 33
0.6955827474594116 1.1606463193893433 6.184701919555664 170 170 170
0.8805201649665833 -1.496024489402771 6.026794910430908 134 134 134
-2.1190645694732666 0.35930171608924866 8.014484405517578 65 65 65
-0.9730084538459778 1.390613079071045 7.1509294509887695 61 61 61
-2.8877086639404297 -0.469902902841568 6.700156211853027 104 104 104
1.6484980583190918 -0.28489455580711365 3.8693010807037354 100 100 100
0.6180586218833923 -1.5124064683914185 6.213418483734131 89 89 89
1.6462452411651611 0.7972409725189209 3.947622537612915 87 87 87
1.6834633350372314 -0.9342647790908813 3.810532331466675 1 1 1
-2.5889270305633545 -0.8086438179016113 7.815632343292236 143 143 143
1.8950399160385132 -0.7719411253929138 5.359827041625977 109 109 109
-1.4143584966659546 1.2279047966003418 7.007756233215332 88 88 88
0.7444275617599487 -0.8705059289932251 6.110654354095459 69 69 69
0.8999404311180115 -1.0833038091659546 6.0806779861450195 13 13 13
1.89742910861969 -0.9117002487182617 5.3285722732543945 97 97 97
0.9170819520950317 -0.46667221188545227 6.102173328399658 88 88 88
1.6460998058319092 0.7971826195716858 3.947266101837158 87 87 87
-1.5855194330215454 1.8101816177368164 6.999295234680176 63 63 63
-2.184317111968994 0.36385563015937805 7.976889133453369 179 179 179
-2.5918490886688232 0.06826576590538025 7.892763137817383 187 187 187
-1.6015474796295166 1.4225810766220093 6.9943528175354 119 119 119
-1.230608582496643 1.4553751945495605 7.12795877456665 187 187 187
-2.1472132205963135 -0.8343567252159119 7.7762370109558105 55 55 55
0.49711909890174866 -2.1474313735961914 6.4583845138549805 55 55 55
-1.6015548706054688 1.4225889444351196 6.994373321533203 119 119 119
-2.592020034790039 0.0680152177810669 7.8932366371154785 187 187 187
-2.2491977214813232 1.6348813772201538 6.749711036682129 2 2 2
0.9406938552856445 -1.9715007543563843 5.991000175476074 55 55 55
0.983097493648529 -1.9476468563079834 5.922451972961426 215 215 215
0.9282967448234558 -1.9205273389816284 5.979299545288086 100 100 100
-1.6140543222427368 1.6310652494430542 6.983354091644287 179 179 179
-1.570252537727356 1.608628511428833 6.942922592163086 50 50 50
0.7072794437408447 -1.2781981229782104 5.9822611808776855 81 81 81
-1.8258538246154785 1.6170233488082886 6.891634464263916 74 74 74
0.5965673923492432 0.12430424988269806 6.380050182342529 125 125 125
-1.3709560632705688 1.619146466255188 7.138134002685547 65 65 65
-1.1996389627456665 0.40786516666412354 7.37539529800415 181 181 181
-1.0794878005981445 1.618282675743103 7.2064433097839355 31 31 31
-2.3974268436431885 -2.0094752311706543 6.66586446762085 34 34 34
-2.1371910572052 -0.8299764394760132 7.628519535064697 70 70 70
0.6076403856277466 0.11750809848308563 6.167788505554199 97 97 97
-1.3649094104766846 1.4348868131637573 7.150465488433838 38 38 38
-0.8090388774871826 1.5965741872787476 7.280303001403809 70 70 70
1.2429102659225464 3.0388073921203613 5.352988243103027 78 78 78
0.7272626757621765 -1.731966495513916 5.954112529754639 17 17 17
0.6180582642555237 -1.5124115943908691 6.213426113128662 89 89 89
0.6129245758056641 -1.0954902172088623 6.244913101196289 56 56 56
0.6862380504608154 -0.8396115303039551 5.890092849731445 115 115 115
0.4689873456954956 -0.7101327180862427 6.628455638885498 18 18 18
-2.4488589763641357 0.1895689070224762 7.902297019958496 254 254 254
0.6095744967460632 -0.2734120488166809 6.271707534790039 163 163 163
0.3623470664024353 0.2539171278476715 6.857029438018799 37 37 37
0.46602827310562134 -0.30501556396484375 6.59804630279541 45 45 45
-2.265242576599121 -0.456067830324173 7.944919586181641 215 215 215
1.010859489440918 3.0199058055877686 5.733824253082275 146 146 146
0.598513126373291 -0.8880159258842468 6.298694610595703 18 18 18
1.1298222541809082 -2.6578454971313477 4.956955432891846 100 100 100
0.5144357085227966 0.3001311123371124 6.532541275024414 1 1 1
0.7149747610092163 -0.82932049036026 6.020767688751221 24 24 24
0.2644035518169403 -0.9293345808982849 6.994282245635986 68 68 68
-2.4021174907684326 -0.8423326015472412 7.719130992889404 112 112 112
-2.3804233074188232 -0.041925329715013504 7.9429402351379395 190 190 190
-1.2865490913391113 1.3637924194335938 7.099776268005371 162 162 162
-1.0520762205123901 0.39166104793548584 7.176835536956787 109 109 109
-1.5775407552719116 -2.7966136932373047 6.662383556365967 168 168 168
-1.4826284646987915 1.2777903079986572 6.848971843719482 84 84 84
0.3591686189174652 2.9953174591064453 5.534075736999512 195 195 195
-1.9806231260299683 -0.7477364540100098 7.920144557952881 217 217 217
-1.728529453277588 1.4081392288208008 6.825021266937256 1 1 1
0.7872945666313171 3.021899938583374 5.239400863647461 191 191 191
-0.3907172381877899 1.5800646543502808 7.425269603729248 4 4 4
0.722457766532898 -1.9330010414123535 5.909380912780762 80 80 80
-1.5258625745773315 -2.170393705368042 6.68276309967041 116 116 116
-0.4702925980091095 0.9378966093063354 7.333039283752441 20 20 20
-2.1192421913146973 1.4317853450775146 6.791265487670898 121 121 121
0.1328074187040329 2.880821466445923 6.169395923614502 120 120 120
1.6383365392684937 -0.0829693004488945 3.8872525691986084 158 158 158
-2.8492469787597656 1.026450514793396 6.453169822692871 122 122 122
-2.449272394180298 1.4236661195755005 6.6909098625183105 118 118 118
0.25667956471443176 0.423024445772171 7.099745750427246 44 44 44
-2.3516550064086914 2.035439968109131 6.680363178253174 80 80 80
0.033280085772275925 -1.568097472190857 7.555417537689209 1 1 1
-0.16291385889053345 2.3769278526306152 6.908680438995361 122 122 122
0.9230121970176697 -1.5840014219284058 6.012402534484863 128 128 128
-1.7322906255722046 -2.1948189735412598 6.682698726654053 51 51 51
-1.1903449296951294 1.4540218114852905 7.128230094909668 150 150 150
-1.5284128189086914 -2.173678159713745 6.6943464279174805 73 73 73
-1.528623342514038 -2.1738717555999756 6.694974422454834 73 73 73
-2.1189699172973633 1.4315648078918457 6.790384769439697 121 121 121
-0.17003938555717468 2.949754476547241 5.720020294189453 185 185 185
0.6927692294120789 0.14868147671222687 6.057925701141357 123 123 123
0.5656921863555908 3.0354208946228027 5.305473327636719 92 92 92
1.305516242980957 2.995755434036255 5.644186019897461 185 185 185
-0.11614813655614853 2.993644952774048 5.582356929779053 103 103 103
-1.013983964920044 1.9658464193344116 7.2401933670043945 30 30 30
0.11118441820144653 -1.534886121749878 7.30609655380249 185 185 185
0.25751355290412903 0.42355990409851074 7.124623775482178 44 44 44
-0.8227716684341431 1.6112518310546875 7.335504531860352 70 70 70
1.6484988927841187 -0.2848930358886719 3.869296073913574 100 100 100
-1.285377025604248 1.3630180358886719 7.096203327178955 162 162 162
0.9170829057693481 -0.4666292667388916 6.102014064788818 88 88 88
-1.481410026550293 1.273916482925415 6.844939231872559 69 69 69
-2.4170374870300293 1.40248703956604 6.620725154876709 96 96 96
-0.5015996098518372 1.3675211668014526 7.50998067855835 135 135 135
0.8868036866188049 -0.4807978868484497 6.1030755043029785 87 87 87
-0.5102217197418213 1.3038688898086548 7.396469593048096 101 101 101
-1.414381742477417 1.227913737297058 7.007830619812012 88 88 88
0.6681290864944458 1.745275616645813 6.18291711807251 25 25 25
-2.857712745666504 1.025755524635315 6.466400146484375 131 131 131
0.9701516628265381 -1.9820142984390259 5.936469554901123 116 116 116
-1.7322927713394165 -2.1948206424713135 6.682703495025635 51 51 51
0.7224593162536621 -1.933001160621643 5.909352779388428 80 80 80
-1.5258926153182983 -2.1704201698303223 6.682840347290039 116 116 116
0.928300678730011 -1.9205294847488403 5.979278564453125 100 100 100
0.654859185218811 1.5288609266281128 6.165122032165527 2 2 2
1.6284284591674805 0.5537426471710205 3.929145574569702 97 97 97
-0.8090064525604248 1.5965185165405273 7.2799391746521 70 70 70
-2.235919237136841 -0.7033454179763794 7.8728508949279785 102 102 102
-2.41504168510437 -2.0663208961486816 6.6854567527771 92 92 92
-2.3974342346191406 -2.009486436843872 6.6658806800842285 34 34 34
0.5740190744400024 3.0216426849365234 5.34629487991333 185 185 185
-2.8586392402648926 -1.8635228872299194 6.508599281311035 187 187 187
0.36293283104896545 0.06104336306452751 6.740222930908203 33 33 33
1.2429141998291016 3.03881573677063 5.3530168533325195 78 78 78
-2.8624470233917236 -1.8395737409591675 6.5339579582214355 102 102 102
-1.0948772430419922 1.3888227939605713 7.156623840332031 126 126 126
-2.3676187992095947 -0.7447914481163025 7.919649124145508 118 118 118
-2.3437540531158447 0.6256889700889587 6.798050403594971 130 130 130
0.712889552116394 -0.6315883994102478 6.026113033294678 128 128 128
0.6976606249809265 -0.6614391803741455 6.060746192932129 12 12 12
0.5997135043144226 0.5249667763710022 6.352803707122803 148 148 148
0.7037939429283142 -1.498874306678772 5.973160266876221 28 28 28
0.6450408101081848 -1.5060880184173584 6.157192707061768 43 43 43
1.6834636926651 -0.9342650175094604 3.8105342388153076 1 1 1
0.6971083283424377 -0.687055230140686 6.030423641204834 119 119 119
0.6180497407913208 -1.5124431848526 6.213560581207275 89 89 89
-2.2051045894622803 1.5905094146728516 6.683823585510254 112 112 112
-1.5640844106674194 0.5482865571975708 7.316119194030762 227 227 227
0.08246123790740967 -1.768316388130188 7.480541229248047 58 58 58
-2.6271355152130127 0.5291569828987122 6.903627872467041 69 69 69
1.6243155002593994 1.0066306591033936 3.9571967124938965 42 42 42
-1.005645513534546 1.9520902633666992 7.208712577819824 35 35 35
-1.791260838508606 0.4866138696670532 7.382436752319336 160 160 160
-1.902057409286499 -0.9018272161483765 7.205389022827148 89 89 89
-2.3956620693206787 -0.9367409944534302 7.475979804992676 206 206 206
-2.4422171115875244 0.1856052428483963 7.887133598327637 254 254 254
1.677379846572876 -0.4967333972454071 3.8273582458496094 22 22 22
0.033283233642578125 -1.568091869354248 7.555392742156982 1 1 1
0.5667118430137634 3.0400943756103516 5.3112969398498535 29 29 29
0.9900597929954529 3.0456368923187256 5.323350429534912 151 151 151
0.7143492102622986 -0.8303859233856201 6.03819465637207 72 72 72
0.3711059093475342 -0.9180906414985657 6.75091028213501 22 22 22
1.6569103002548218 -0.7262287139892578 3.8447699546813965 105 105 105
0.7218913435935974 -0.8373579382896423 5.926822662353516 154 154 154
-1.5700510740280151 1.608499526977539 6.942411422729492 50 50 50
-1.371059536933899 1.619210958480835 7.1384358406066895 65 65 65
0.890571117401123 -0.884223461151123 6.072512149810791 18 18 18
-1.1484732627868652 1.6441887617111206 7.320892333984375 3 3 3
0.5358175039291382 0.2716059386730194 6.440984725952148 121 121 121
-1.1941289901733398 1.7800962924957275 7.052280902862549 7 7 7
0.26771625876426697 0.24350309371948242 7.163139820098877 5 5 5
1.8647267818450928 -0.7824714779853821 5.161313533782959 89 89 89
1.6835662126541138 -0.28443440794944763 3.8582770824432373 20 20 20
-1.7878174781799316 1.5995246171951294 6.883101940155029 131 131 131
-1.8795145750045776 -0.02964211069047451 8.030219078063965 203 203 203
-2.3472492694854736 -0.5103543400764465 7.889767646789551 58 58 58
0.5707229375839233 3.026942491531372 5.430206298828125 159 159 159
-1.1716833114624023 -0.46313077211380005 7.268008232116699 242 242 242
-2.2316629886627197 -0.09760130196809769 7.963075160980225 182 182 182
-2.4981207847595215 -0.36658045649528503 7.835024356842041 192 192 192
0.5766850709915161 -0.08818963915109634 6.223834037780762 1 1 1
0.46602940559387207 -0.3050172030925751 6.5980305671691895 45 45 45
-1.5855729579925537 1.8102548122406006 6.99945068359375 63 63 63
-2.3231301307678223 -0.11802197247743607 7.916113376617432 165 165 165
0.8868728876113892 -0.2480553835630417 5.949093818664551 84 84 84
-2.281055450439453 -0.14721105992794037 7.969888687133789 127 127 127
-2.2081058025360107 -0.197425976395607 7.92593240737915 49 49 49
1.6364994049072266 -0.0828183963894844 3.882874011993408 158 158 158
-0.970730721950531 2.1527440547943115 7.16595983505249 119 119 119
-1.7737489938735962 1.4083812236785889 6.975836753845215 118 118 118
-1.2788281440734863 1.428734302520752 7.048396587371826 171 171 171
-1.6015318632125854 1.4225672483444214 6.994311332702637 119 119 119
0.5353417992591858 1.932969093322754 6.5437726974487305 105 105 105
-2.620826244354248 -0.7779405117034912 7.752479553222656 230 230 230
0.19205382466316223 0.02927839197218418 7.263968467712402 15 15 15
-1.4748828411102295 0.5341997146606445 6.91579008102417 126 126 126
-1.5758092403411865 1.42240309715271 7.015196800231934 26 26 26
-1.551831603050232 1.379321813583374 6.777655124664307 56 56 56
0.3014954924583435 2.96530818939209 5.809323787689209 104 104 104
0.07309840619564056 1.1680997610092163 7.510249137878418 62 62 62
0.8964688777923584 0.7385619282722473 6.196169853210449 76 76 76
-1.2820491790771484 -2.7371745109558105 6.759023189544678 115 115 115
-0.16291508078575134 2.3769307136535645 6.908688068389893 122 122 122
-2.3746819496154785 1.24005126953125 6.668051719665527 110 110 110
-1.0480214357376099 1.42869234085083 7.369472026824951 46 46 46
-2.166227102279663 1.4257049560546875 6.744918346405029 14 14 14
-1.2193896770477295 2.143644332885742 7.204888820648193 63 63 63
-1.1057277917861938 1.385298728942871 6.919037342071533 81 81 81
-0.17638495564460754 2.9868786334991455 5.684721946716309 91 91 91
0.9230345487594604 -1.5840375423431396 6.0125322341918945 128 128 128
-0.8031778931617737 1.3717496395111084 7.072414398193359 85 85 85
-1.7485624551773071 0.6455005407333374 7.26332426071167 41 41 41
-2.937262773513794 -0.47261708974838257 6.815305233001709 162 162 162
0.39674559235572815 -0.1188962534070015 6.462616443634033 76 76 76
1.2372732162475586 3.0013575553894043 5.475255966186523 34 34 34
-0.07422782480716705 3.04565167427063 5.752291202545166 72 72 72
0.07524703443050385 2.9590396881103516 5.570464611053467 42 42 42
-2.5761759281158447 -0.8755343556404114 6.663598537445068 108 108 108
0.6912187933921814 -0.6908960342407227 6.064396858215332 110 110 110
-2.6068718433380127 -0.8604878187179565 6.773749351501465 41 41 41
-2.6140432357788086 -0.8640493154525757 6.792428016662598 41 41 41
-0.8245033621788025 1.5536786317825317 7.20979642868042 138 138 138
-1.0362739562988281 1.3927289247512817 7.134560585021973 25 25 25
-0.5326871275901794 1.3485225439071655 7.356293201446533 71 71 71
0.6976510882377625 -0.6614293456077576 6.060720443725586 12 12 12
-1.4096989631652832 0.43560564517974854 6.993415355682373 240 240 240
-1.797582983970642 1.6051901578903198 6.906459808349609 137 137 137
-2.2901628017425537 -2.1732709407806396 6.4556097984313965 51 51 51
0.6955676674842834 1.1606162786483765 6.184536933898926 170 170 170
0.5379231572151184 0.30917078256607056 6.543106555938721 10 10 10
-1.2877331972122192 1.451504111289978 7.121443748474121 127 127 127
0.722461998462677 -1.9329980611801147 5.909358501434326 80 80 80
1.0648235082626343 -1.9022834300994873 5.957433223724365 78 78 78
1.0909698009490967 -1.868322491645813 5.942239761352539 166 166 166
0.7111365795135498 -0.8170318007469177 5.984079837799072 26 26 26
-2.3313674926757812 -1.9891934394836426 6.452783584594727 127 127 127
-1.3320178985595703 1.4539164304733276 7.047102451324463 124 124 124
-0.9878461360931396 1.996330738067627 7.185781478881836 45 45 45
0.9206852912902832 -1.711672306060791 6.017081260681152 104 104 104
-0.5867820382118225 1.9990237951278687 7.159316062927246 136 136 136
-2.4528725147247314 0.18271520733833313 7.941345691680908 254 254 254
-1.5854014158248901 1.8101632595062256 6.999009609222412 63 63 63
-1.1669203042984009 -1.883905053138733 7.111408710479736 39 39 39
-1.9857538938522339 0.07672414928674698 7.97879695892334 154 154 154
-0.9939934015274048 2.180877208709717 7.24981164932251 125 125 125
1.6818912029266357 -0.9338735342025757 3.806896448135376 1 1 1
-2.3802199363708496 -0.03242496773600578 7.943424701690674 204 204 204
0.9064770936965942 -0.053633056581020355 6.1207170486450195 71 71 71
-1.2082048654556274 1.4400020837783813 7.127791404724121 61 61 61
-2.342752695083618 -0.12181654572486877 7.9613847732543945 119 119 119
-2.3853976726531982 -0.1318727433681488 7.970860958099365 236 236 236
-2.235525369644165 -0.1913982331752777 7.99256706237793 51 51 51
1.6503725051879883 -0.07320894300937653 3.813300848007202 72 72 72
-2.2809431552886963 -0.14720147848129272 7.969635963439941 127 127 127
-2.318674087524414 -0.14685943722724915 7.967381954193115 48 48 48
0.7072693705558777 -1.2781517505645752 5.982230186462402 81 81 81
0.14124873280525208 -1.569664478302002 7.321653366088867 36 36 36
0.13486415147781372 -1.381515383720398 7.330010890960693 154 154 154
1.65691077709198 -0.7262288928031921 3.844771146774292 105 105 105
1.6879750490188599 -0.7182838320732117 3.837956428527832 27 27 27
1.689565658569336 -0.716652512550354 3.8418166637420654 34 34 34
0.8962011933326721 -1.0900839567184448 6.05598783493042 16 16 16
-1.171682596206665 -0.46312960982322693 7.268006324768066 242 242 242
-2.2435429096221924 -0.48690223693847656 7.975386619567871 54 54 54
-2.3221845626831055 -0.4705270826816559 7.89875602722168 160 160 160
-1.420830249786377 1.2287302017211914 7.037091255187988 9 9 9
1.5123265981674194 -1.5621312856674194 6.127198219299316 10 10 10
1.6835548877716064 -0.28443223237991333 3.858247756958008 20 20 20
0.7013480067253113 -0.896407425403595 6.0672926902771 118 118 118
0.8787472248077393 -0.8693111538887024 6.003154277801514 31 31 31
1.6485059261322021 -0.284900426864624 3.8693084716796875 100 100 100
-1.2864444255828857 1.3638489246368408 7.099470138549805 162 162 162
0.9825632572174072 -2.9327194690704346 5.2589111328125 107 107 107
-2.3763418197631836 0.628606379032135 6.865771293640137 103 103 103
-1.5854955911636353 1.810163140296936 6.999238014221191 63 63 63
-1.601547360420227 1.4225817918777466 6.994352340698242 119 119 119
0.6938207745552063 0.37786123156547546 6.174044609069824 76 76 76
-0.5683059692382812 1.3744730949401855 7.523752689361572 57 57 57
0.7378683090209961 -2.142002820968628 5.932326793670654 94 94 94
-2.097534656524658 1.4654183387756348 6.82688045501709 134 134 134
-2.0160715579986572 -0.9552801847457886 7.637271881103516 34 34 34
0.5848684906959534 0.509634792804718 6.197782516479492 135 135 135
0.880520224571228 -1.4960318803787231 6.026819705963135 134 134 134
0.8711889982223511 -0.645105242729187 5.871147155761719 84 84 84
-2.0764000415802 -0.9281468987464905 7.691551208496094 70 70 70
1.637658715248108 -0.045655153691768646 3.891751289367676 123 123 123
-1.2408610582351685 2.1677422523498535 7.180407524108887 45 45 45
0.08246028423309326 -1.7683179378509521 7.480549335479736 58 58 58
-1.6425009965896606 1.4343030452728271 7.00791072845459 58 58 58
-0.5513672232627869 1.1357475519180298 7.3031392097473145 81 81 81
0.9107604622840881 0.1468793898820877 6.149853229522705 34 34 34
1.6247421503067017 0.7676671147346497 3.9336366653442383 61 61 61
-1.0795190334320068 1.6182948350906372 7.206540107727051 31 31 31
-2.1190695762634277 1.4316295385360718 6.790652751922607 121 121 121
-1.7931346893310547 1.451809048652649 6.892326831817627 127 127 127
0.7010707259178162 0.34947431087493896 6.183737754821777 20 20 20
-2.499190330505371 -0.704266369342804 7.792759895324707 172 172 172
1.635227084159851 1.6243829727172852 4.006187915802002 51 51 51
-2.249196767807007 1.6348835229873657 6.749729633331299 2 2 2
0.5649289488792419 0.32244282960891724 6.425838947296143 100 100 100
-1.732317566871643 -2.194866180419922 6.682801723480225 51 51 51
-2.1694233417510986 0.37131452560424805 8.035775184631348 140 140 140
0.657525897026062 1.5211119651794434 6.119414329528809 13 13 13
0.7012782096862793 0.5587177276611328 6.120057106018066 148 148 148
0.5985182523727417 -0.8880155682563782 6.2986979484558105 18 18 18
0.03328130766749382 -1.5681390762329102 7.555638790130615 1 1 1
-2.0276601314544678 -0.9606248140335083 7.670302867889404 34 34 34
0.5848682522773743 0.509629487991333 6.197779178619385 135 135 135
-1.0443885326385498 1.4271572828292847 7.356966495513916 46 46 46
0.39653733372688293 0.2056921124458313 6.729872226715088 96 96 96
0.6927968859672546 0.14869025349617004 6.058138370513916 123 123 123
-2.622375011444092 1.4111825227737427 6.616846084594727 75 75 75
-2.700047016143799 1.427419900894165 6.677333354949951 96 96 96
-1.1957283020019531 0.4628409445285797 7.339293956756592 80 80 80
-1.7913755178451538 1.4929388761520386 7.058871746063232 113 113 113
-1.361562728881836 1.4328227043151855 7.140598297119141 38 38 38
-1.2487903833389282 2.1724660396575928 7.298129081726074 57 57 57
0.4971230924129486 -2.147435426712036 6.458378314971924 55 55 55
-2.367541551589966 -0.7447618246078491 7.9193925857543945 118 118 118
-2.6349985599517822 -0.78104567527771 7.781936168670654 230 230 230
-2.1455438137054443 2.0309643745422363 6.785532474517822 4 4 4
0.18009382486343384 -0.5866842865943909 7.236981391906738 122 122 122
-1.3103350400924683 1.7504264116287231 6.879110336303711 47 47 47
-1.5473166704177856 1.642079472541809 6.941814422607422 161 161 161
-1.2075194120407104 2.1984009742736816 7.1163434982299805 16 16 16
-1.4143935441970825 1.2279185056686401 7.007867336273193 88 88 88
-1.5281836986541748 1.3820699453353882 6.802687168121338 72 72 72
0.12349111586809158 -1.6133732795715332 7.363171577453613 123 123 123
-0.4171513617038727 1.5474387407302856 7.430713176727295 109 109 109
-1.0705150365829468 2.2105047702789307 7.229008674621582 144 144 144
-0.948480486869812 1.6187952756881714 7.000924110412598 54 54 54
0.11946628242731094 -1.7148767709732056 7.191527366638184 62 62 62
-1.775635838508606 2.004159688949585 6.998246669769287 106 106 106
-2.853980779647827 1.0292108058929443 6.460959434509277 116 116 116
-2.6740801334381104 -2.181879997253418 6.32413387298584 63 63 63
-2.6645703315734863 2.0650010108947754 6.6253156661987305 3 3 3
-1.7485679388046265 0.6455026268959045 7.263339042663574 41 41 41
1.6273829936981201 1.1998497247695923 3.9583475589752197 40 40 40
-0.4001847803592682 1.4728667736053467 7.362646102905273 56 56 56
-1.0641144514083862 2.2267704010009766 7.168965816497803 101 101 101
0.570758044719696 3.026669502258301 5.429737567901611 159 159 159
0.05424261838197708 1.193869709968567 7.668171405792236 58 58 58
-1.0233944654464722 1.3496410846710205 7.167872428894043 109 109 109
0.401826947927475 0.6786175966262817 6.826800346374512 112 112 112
-1.5572272539138794 0.5535686612129211 7.140141010284424 147 147 147
-1.2575520277023315 -1.9671505689620972 6.890259742736816 52 52 52
-2.1662681102752686 1.4257183074951172 6.745001316070557 14 14 14
-0.9816952347755432 -2.1987433433532715 6.968270778656006 25 25 25
0.17331016063690186 -0.7503365874290466 7.249643325805664 62 62 62
-1.7570558786392212 -2.1801133155822754 6.626884460449219 133 133 133
-0.3482791483402252 1.3789582252502441 7.488667964935303 84 84 84
0.13832512497901917 2.86175274848938 5.982032299041748 88 88 88
-0.7171919941902161 1.55350661277771 7.296970367431641 99 99 99
-2.5437960624694824 -0.9340387582778931 6.635345458984375 62 62 62
-2.2539584636688232 -0.4304365813732147 8.006071090698242 177 177 177
1.5201232433319092 -2.0592353343963623 4.0187273025512695 120 120 120
0.7044668197631836 0.3440495431423187 6.0941853523254395 23 23 23
0.7621751427650452 -2.2115492820739746 6.129302978515625 63 63 63
-2.230001926422119 -0.20183531939983368 7.954564094543457 50 50 50
-2.2901885509490967 -2.173299551010132 6.455682754516602 51 51 51
0.9711204171180725 -1.984044075012207 5.9423723220825195 116 116 116
1.6690763235092163 -0.07429958134889603 3.906193494796753 118 118 118
0.896529495716095 -1.9102851152420044 5.928165912628174 87 87 87
1.0634725093841553 -1.9276552200317383 6.026712417602539 86 86 86
-2.2954795360565186 -0.14085839688777924 7.913527011871338 52 52 52
-2.281080961227417 -0.14721329510211945 7.969944000244141 127 127 127
1.0924426317214966 -1.8833237886428833 5.991837024688721 166 166 166
-2.3388051986694336 -1.915200114250183 6.393286228179932 18 18 18
1.6376302242279053 -0.04564887657761574 3.8916678428649902 123 123 123
-1.0240060091018677 1.9807753562927246 7.20053768157959 138 138 138
0.9206854104995728 -1.711668610572815 6.017064094543457 104 104 104
-2.380220651626587 -0.032426297664642334 7.943426609039307 204 204 204
-2.1733717918395996 1.5866906642913818 6.727362155914307 144 144 144
-2.744798183441162 0.0356300063431263 7.792320728302002 48 48 48
-2.3281660079956055 1.5402320623397827 6.684588432312012 140 140 140
-0.29143327474594116 -1.9704339504241943 7.716472625732422 64 64 64
1.4974161386489868 -1.5281562805175781 5.981778621673584 44 44 44
-2.694389820098877 0.04417234659194946 7.765137195587158 112 112 112
0.7040005922317505 -1.4976812601089478 5.968277454376221 28 28 28
0.8805229067802429 -1.4960402250289917 6.0268473625183105 134 134 134
0.7000067234039307 -1.4720603227615356 6.022031307220459 129 129 129
-2.412426233291626 1.4821863174438477 6.736860275268555 99 99 99
0.13754497468471527 -1.5122524499893188 7.225813388824463 150 150 150
-2.70922589302063 1.43435800075531 6.693785190582275 96 96 96
0.14313830435276031 -1.4149208068847656 7.51206111907959 147 147 147
0.707341730594635 -1.1250649690628052 6.083489894866943 96 96 96
1.8976691961288452 -0.9116735458374023 5.329707622528076 97 97 97
-1.7672042846679688 1.4371198415756226 6.825356483459473 116 116 116
0.744430661201477 -0.8704939484596252 6.110550880432129 69 69 69
-1.3388257026672363 1.4704110622406006 7.081730365753174 118 118 118
-2.1383090019226074 0.18618859350681305 7.8455352783203125 139 139 139
0.8779363036155701 -0.8822921514511108 6.118950843811035 30 30 30
1.6243985891342163 0.8065211772918701 3.954045295715332 94 94 94
-1.2685602903366089 1.4478009939193726 7.077696323394775 109 109 109
-2.602585554122925 -0.8896018862724304 6.720825672149658 87 87 87
-0.8626189827919006 1.4491978883743286 7.24576473236084 130 130 130
-1.716203212738037 1.3719096183776855 6.833366394042969 90 90 90
-2.5181398391723633 -0.9703613519668579 7.737821578979492 156 156 156
-1.036726474761963 1.410817265510559 7.184882640838623 20 20 20
-1.2857494354248047 1.3634088039398193 7.097376823425293 162 162 162
0.6976675391197205 -0.661457359790802 6.060663223266602 12 12 12
0.69484543800354 -0.6328389048576355 6.078917026519775 111 111 111
-0.531863272190094 1.3438767194747925 7.350701808929443 81 81 81
-1.415907382965088 1.1945598125457764 7.056641578674316 115 115 115
-2.032396078109741 -0.7774723768234253 7.84205961227417 129 129 129
-2.042117118835449 -0.7452783584594727 7.827534198760986 118 118 118
-0.5001308917999268 0.9171547293663025 7.314448356628418 99 99 99
-2.3631904125213623 0.6254947185516357 6.821585178375244 99 99 99
0.8815552592277527 -0.4955754280090332 6.144494533538818 106 106 106
0.8737549781799316 -0.44938939809799194 6.008622646331787 10 10 10
-0.31658604741096497 0.3615768551826477 7.681507587432861 222 222 222
-2.627185821533203 0.5291708111763 6.90376091003418 69 69 69
1.6567617654800415 -0.2772522270679474 3.796746253967285 91 91 91
0.5649253129959106 0.3224440813064575 6.425897598266602 100 100 100
-1.552870273590088 0.5239125490188599 7.5944695472717285 156 156 156
-2.4449963569641113 0.3186782896518707 7.521148204803467 184 184 184
-2.675408363342285 2.0295305252075195 6.641949653625488 51 51 51
-0.10989575833082199 2.151064395904541 7.161439895629883 146 146 146
-2.1659812927246094 -2.4419445991516113 6.584822654724121 103 103 103
-2.674079418182373 -2.1818811893463135 6.324132919311523 63 63 63
-1.5058802366256714 -2.1823318004608154 6.724794864654541 106 106 106
-2.01082444190979 1.9815086126327515 6.7948198318481445 87 87 87
0.6969586610794067 -1.8970026969909668 5.995968818664551 124 124 124
0.06933874636888504 -2.203646421432495 7.409724712371826 30 30 30
-1.3197532892227173 -2.019845724105835 7.075690746307373 69 69 69
0.19146865606307983 -1.9271568059921265 7.126246929168701 104 104 104
-1.2075103521347046 2.1983819007873535 7.11628532409668 16 16 16
-2.5964980125427246 1.4043608903884888 6.5719757080078125 67 67 67
0.6904596090316772 -0.05129997804760933 6.090897560119629 65 65 65
-2.117576837539673 1.429092288017273 6.785510540008545 121 121 121
-2.171487331390381 1.826080322265625 6.7667951583862305 5 5 5
-2.475447654724121 1.4260609149932861 6.729482173919678 77 77 77
-1.555611252784729 1.4662452936172485 6.948746204376221 120 120 120
-1.7043691873550415 1.4388853311538696 6.838902950286865 52 52 52
-1.3577226400375366 1.8109508752822876 7.110208988189697 45 45 45
0.6779619455337524 1.5552639961242676 6.171184539794922 122 122 122
-1.2427842617034912 1.797802209854126 7.090031147003174 10 10 10
0.28340843319892883 -0.9685316681861877 7.007930278778076 154 154 154
-2.25754451751709 1.4720689058303833 6.703708171844482 103 103 103
-1.6575676202774048 1.7862308025360107 7.037929534912109 124 124 124
0.6927969455718994 0.14868974685668945 6.058136463165283 123 123 123
-1.2969646453857422 1.8176864385604858 7.148791313171387 20 20 20
-0.4470137655735016 1.5244032144546509 7.609100818634033 82 82 82
-1.6318902969360352 -0.795649528503418 6.5994415283203125 90 90 90
0.05466511473059654 -0.8001999855041504 7.403838157653809 79 79 79
0.1733078956604004 -0.7503381371498108 7.249664783477783 62 62 62
0.012001867406070232 0.2284076064825058 7.70684289932251 68 68 68
-1.1197848320007324 1.4114925861358643 7.181187629699707 22 22 22
-2.451829433441162 1.5076558589935303 6.647132396697998 71 71 71
0.1692863553762436 -0.6085861921310425 7.378575325012207 93 93 93
1.625001072883606 0.7679027915000916 3.9348928928375244 61 61 61
-1.079491376876831 1.6182750463485718 7.206443786621094 31 31 31
-1.5931283235549927 1.591018557548523 7.051445007324219 132 132 132
-1.702982783317566 1.6751863956451416 6.941062927246094 148 148 148
-1.364498496055603 1.4347769021987915 7.149297714233398 38 38 38
-1.5101286172866821 1.2946254014968872 6.9233317375183105 75 75 75
-0.9002750515937805 1.3049027919769287 7.025928497314453 100 100 100
0.5977432727813721 0.3247339725494385 6.275805950164795 33 33 33
-2.2491824626922607 1.6348721981048584 6.749711036682129 2 2 2
-1.8259575366973877 1.6170642375946045 6.891613006591797 74 74 74
-1.4162135124206543 0.5487358570098877 7.244466781616211 139 139 139
0.5848709940910339 0.5096336603164673 6.197742462158203 135 135 135
-0.5051944255828857 1.3014216423034668 7.372768878936768 101 101 101
-1.0033384561538696 1.6654459238052368 7.194320201873779 74 74 74
0.3664902448654175 0.656208336353302 6.871001243591309 36 36 36
1.6342464685440063 0.5867465138435364 3.919833183288574 72 72 72
-1.5700350999832153 1.60848867893219 6.9423675537109375 50 50 50
0.6886698603630066 0.957532525062561 6.207417011260986 210 210 210
-0.5433242917060852 0.7712835073471069 7.316588878631592 66 66 66
0.45028963685035706 0.2856889069080353 6.657895565032959 16 16 16
-0.524730384349823 1.0417959690093994 7.345387935638428 118 118 118
-2.774998188018799 0.6113105416297913 6.730236053466797 146 146 146
-0.49036186933517456 1.5426886081695557 7.363292694091797 101 101 101
-0.34824827313423157 1.3789489269256592 7.488583564758301 84 84 84
0.1395898312330246 -1.4926196336746216 7.329982280731201 171 171 171
0.2888522446155548 -0.13543716073036194 6.8209967613220215 66 66 66
0.8543891310691833 -1.5445207357406616 6.206003665924072 4 4 4
-2.3702809810638428 1.8476359844207764 6.678261756896973 52 52 52
-1.452875018119812 -2.025580883026123 7.103532314300537 26 26 26
-1.6708632707595825 2.181201457977295 6.973574638366699 85 85 85
-1.3915818929672241 -2.0817835330963135 7.289952754974365 34 34 34
0.055423036217689514 -0.9176174402236938 7.504022121429443 133 133 133
-2.218775749206543 -0.9936608076095581 7.970352649688721 155 155 155
-0.4851580858230591 1.0525282621383667 7.342885971069336 54 54 54
0.5609588623046875 0.9215034246444702 6.514842510223389 5 5 5
1.1298269033432007 -2.6578752994537354 4.957006454467773 100 100 100
-0.4516741633415222 0.9765432476997375 7.343310356140137 119 119 119
-2.0206966400146484 -2.6683053970336914 6.400701522827148 103 103 103
-2.623105049133301 0.6526364684104919 6.800439834594727 43 43 43
-2.2712526321411133 0.5875930190086365 6.732543468475342 79 79 79
-2.2139294147491455 -2.1266396045684814 6.3119916915893555 72 72 72
-2.775078058242798 0.6113182902336121 6.730371952056885 146 146 146
0.9210193157196045 -1.9727855920791626 5.920760631561279 31 31 31
0.8778417706489563 -1.9104124307632446 5.9757914543151855 11 11 11
1.0428760051727295 -1.8946255445480347 5.9101996421813965 99 99 99
0.06375860422849655 -2.220811605453491 7.456865310668945 33 33 33
-1.376688838005066 0.5361287593841553 7.043579578399658 130 130 130
-1.1669327020645142 -1.8839131593704224 7.111443996429443 39 39 39
0.636587381362915 -1.5383062362670898 6.10662317276001 149 149 149
0.8805175423622131 -1.4960227012634277 6.026787281036377 134 134 134
0.6519246101379395 -1.5084338188171387 6.119805335998535 18 18 18
0.6946039795875549 -1.4623587131500244 5.996176719665527 130 130 130
-1.4923030138015747 0.4882398843765259 7.326080322265625 254 254 254
0.7353575229644775 -1.2916489839553833 5.986461639404297 12 12 12
0.06475988775491714 -1.6016595363616943 7.564674377441406 114 114 114
0.14724303781986237 -1.524036169052124 7.282322406768799 206 206 206
0.7101490497589111 -1.115689754486084 6.008753776550293 42 42 42
0.8917036652565002 -1.0855721235275269 6.004547119140625 46 46 46
0.6985215544700623 -0.908711850643158 6.029201984405518 121 121 121
0.8932399749755859 -0.8925750851631165 6.110403060913086 1 1 1
-1.187720775604248 0.45633432269096375 7.450136661529541 105 105 105
0.7172272205352783 -0.8346666097640991 5.88776159286499 147 147 147
0.2871568500995636 -0.9684850573539734 6.968751430511475 155 155 155
-0.19460473954677582 0.43383774161338806 7.627274036407471 91 91 91
0.5649235844612122 0.32243385910987854 6.42576265335083 100 100 100
-1.1997618675231934 0.37059932947158813 7.418211460113525 254 254 254
-2.2145204544067383 -0.811438798904419 7.9549126625061035 45 45 45
-2.0967369079589844 -0.809844970703125 7.930553436279297 135 135 135
-2.697066307067871 -0.6871932148933411 7.79416036605835 35 35 35
0.11637621372938156 -0.5888096690177917 7.485128402709961 110 110 110
0.9170728921890259 -0.4786527454853058 6.273386478424072 77 77 77
-2.312105894088745 -0.5828210711479187 7.872028827667236 238 238 238
-2.124117136001587 -0.4991821348667145 7.827271938323975 246 246 246
0.7015417814254761 -0.3150710463523865 6.18008279800415 108 108 108
0.8602712750434875 -0.2672015428543091 6.079250335693359 76 76 76
0.9130154848098755 -0.2547703981399536 6.124416351318359 93 93 93
-2.2394871711730957 -0.20236742496490479 7.977340221405029 50 50 50
-2.325754404067993 -0.1460776925086975 7.9541215896606445 51 51 51
0.02956407144665718 0.22072388231754303 7.564062118530273 81 81 81
0.906480610370636 -0.053635939955711365 6.120711326599121 71 71 71
-2.24591326713562 -0.086980901658535 8.026229858398438 154 154 154
1.6376359462738037 -0.045648690313100815 3.891695737838745 123 123 123
-2.3689358234405518 -0.02759609930217266 7.906353950500488 247 247 247
-2.6089675426483154 0.04058096930384636 7.518595218658447 55 55 55
0.32420802116394043 0.049453262239694595 6.728005409240723 23 23 23
-2.1740293502807617 0.07572300732135773 8.010021209716797 253 253 253
-2.1385135650634766 0.17802415788173676 8.018450736999512 254 254 254
-1.3804785013198853 1.1680573225021362 6.933657646179199 80 80 80
-0.5132784843444824 1.3091678619384766 7.437429904937744 94 94 94
-0.5688129663467407 1.353269338607788 7.512048244476318 71 71 71
-0.5181410312652588 1.4152982234954834 7.555575370788574 2 2 2
-1.6266337633132935 1.3232427835464478 6.951719284057617 94 94 94
-0.9616580009460449 1.371519923210144 7.065503120422363 5 5 5
1.6247199773788452 0.767638087272644 3.93351411819458 61 61 61
-1.610181450843811 1.3586057424545288 6.8817219734191895 120 120 120
-0.4499247968196869 1.5210005044937134 7.621227264404297 87 87 87
-0.738576352596283 1.4516932964324951 7.231217384338379 88 88 88
-1.7481558322906494 1.469947338104248 6.981154918670654 62 62 62
-1.5769023895263672 1.4740318059921265 7.0146331787109375 118 118 118
-2.672335147857666 1.399024248123169 6.57070779800415 101 101 101
-2.0372188091278076 1.4228131771087646 6.698658466339111 144 144 144
0.861346423625946 1.31663179397583 6.190864086151123 38 38 38
-2.444591522216797 1.4888354539871216 6.788271903991699 90 90 90
-0.809037446975708 1.5965754985809326 7.280252933502197 70 70 70
-2.309009075164795 1.4944586753845215 6.718188285827637 51 51 51
-1.0793622732162476 1.6181797981262207 7.205993175506592 31 31 31
-1.5781673192977905 1.5726983547210693 7.019779205322266 138 138 138
-2.3094773292541504 1.5417697429656982 6.719547271728516 73 73 73
-1.7754592895507812 1.5732536315917969 6.838301658630371 90 90 90
-2.331979513168335 1.5488277673721313 6.693243980407715 122 122 122
-1.0033900737762451 1.6655594110488892 7.194718837738037 74 74 74
-1.8325860500335693 1.6219761371612549 6.907519817352295 48 48 48
-1.618411660194397 1.7410110235214233 6.911203384399414 125 125 125
-2.1576030254364014 1.7904105186462402 6.782793998718262 113 113 113
-0.5036903619766235 2.0225298404693604 6.879552841186523 178 178 178
-1.246955156326294 2.1688125133514404 7.291649341583252 61 61 61
-2.0420889854431152 2.187364101409912 6.822046756744385 93 93 93
-0.056898653507232666 2.2969112396240234 6.882284164428711 147 147 147
-0.22016461193561554 2.7910044193267822 7.024192810058594 92 92 92
1.4463956356048584 2.817190170288086 6.3520965576171875 13 13 13
-2.4863152503967285 1.559814691543579 6.648617267608643 123 123 123
-2.5661282539367676 -1.9882327318191528 6.561592102050781 40 40 40
0.5997130274772644 0.5249586701393127 6.3527960777282715 148 148 148
0.04654940962791443 -0.9209563136100769 7.4846510887146 76 76 76
-0.7312626242637634 1.5752195119857788 7.402105808258057 98 98 98
-1.3870649337768555 2.306215524673462 7.1191725730896 74 74 74
-1.3808294534683228 2.106499195098877 7.05527925491333 76 76 76
-0.5403000712394714 0.8076238632202148 7.094040870666504 82 82 82
-2.134568929672241 1.0602660179138184 6.800754070281982 121 121 121
-1.566486120223999 -2.8334643840789795 6.665858745574951 122 122 122
-1.6014918088912964 -2.715510129928589 6.664496898651123 98 98 98
-2.370363235473633 1.8477118015289307 6.678602695465088 52 52 52
-1.1499650478363037 -2.268892765045166 6.815278053283691 138 138 138
-2.0152831077575684 0.3416006863117218 7.621947288513184 100 100 100
1.3916594982147217 -2.1076819896698 4.421795845031738 132 132 132
-1.5665357112884521 -2.833542585372925 6.666039943695068 122 122 122
-2.063655376434326 -2.7073636054992676 6.488600254058838 92 92 92
-1.608048677444458 -2.720799684524536 6.680487155914307 98 98 98
-2.290191888809204 -2.1732871532440186 6.4556884765625 51 51 51
-1.1637377738952637 -2.2851009368896484 6.858265399932861 145 145 145
0.4780888557434082 -2.24045729637146 6.731269836425781 57 57 57
0.9211034178733826 -1.9807195663452148 5.939960479736328 30 30 30
0.7224589586257935 -1.9330071210861206 5.909370422363281 80 80 80
0.9711499214172363 -1.9840965270996094 5.942544460296631 116 116 116
0.8782605528831482 -1.8915040493011475 5.918898105621338 44 44 44
1.0750517845153809 -1.8674160242080688 5.966692924499512 140 140 140
-2.3430583477020264 -2.0033576488494873 6.486019611358643 131 131 131
-2.5622615814208984 -1.966016411781311 6.604302406311035 21 21 21
-1.1669331789016724 -1.8839160203933716 7.1114501953125 39 39 39
0.8951360583305359 -1.5422497987747192 5.9901299476623535 16 16 16
0.8805153369903564 -1.496019721031189 6.026758193969727 134 134 134
1.5312610864639282 -1.5414278507232666 6.119842529296875 108 108 108
0.09161408245563507 -1.7969857454299927 7.464093208312988 75 75 75
0.8837579488754272 -1.0963691473007202 6.026493549346924 67 67 67
0.8701604008674622 -0.8809215426445007 6.049033164978027 22 22 22
0.3711206018924713 -0.918111264705658 6.750982284545898 22 22 22
0.6830728054046631 -0.8318045139312744 6.041378021240234 130 130 130
-2.4149787425994873 -0.9737521409988403 7.790027618408203 191 191 191
-2.590879440307617 -0.811252236366272 7.804205417633057 158 158 158
0.8904301524162292 -0.4504598379135132 5.924429893493652 37 37 37
0.15147189795970917 -0.5312544703483582 7.322315692901611 128 128 128
-2.3214495182037354 -0.4696468412876129 7.8962321281433105 160 160 160
0.858778178691864 -0.27707669138908386 6.211174488067627 62 62 62
-2.6632273197174072 -0.24313895404338837 7.887920379638672 105 105 105
-2.3859119415283203 -0.13208641111850739 7.972009658813477 236 236 236
-2.245992422103882 -0.08699557930231094 8.026512145996094 154 154 154
-0.3183818757534027 0.35270291566848755 7.791136264801025 217 217 217
-1.1926792860031128 0.3710689842700958 7.395059585571289 254 254 254
-1.6829098463058472 0.3909834921360016 7.340691566467285 139 139 139
-1.5307629108428955 0.5467846393585205 7.175310134887695 105 105 105
-1.4433064460754395 0.5562127828598022 7.135601043701172 159 159 159
-2.7726919651031494 0.606173574924469 6.7132248878479 156 156 156
-2.619138240814209 0.6461037397384644 6.798974514007568 44 44 44
0.560968816280365 0.9215072989463806 6.514896869659424 5 5 5
-0.519767165184021 1.0562165975570679 7.251914978027344 62 62 62
-1.4016926288604736 1.1752851009368896 6.9930644035339355 91 91 91
-0.5102359056472778 1.3038811683654785 7.3964972496032715 101 101 101
-0.9002788066864014 1.3049057722091675 7.025943756103516 100 100 100
-1.279600977897644 1.3589122295379639 7.064370632171631 187 187 187
-1.6491917371749878 1.3678187131881714 6.964766502380371 104 104 104
-1.3465521335601807 1.371726393699646 7.0102009773254395 60 60 60
-1.7617119550704956 1.3628748655319214 6.966915130615234 132 132 132
-0.882901668548584 1.4381506443023682 7.370430946350098 96 96 96
-1.3925940990447998 1.4788135290145874 7.1460466384887695 131 131 131
-2.6917169094085693 1.4048490524291992 6.603743553161621 70 70 70
-2.089737892150879 1.462760329246521 6.873701572418213 119 119 119
-1.7474998235702515 1.4759923219680786 6.963937759399414 87 87 87
-1.6320836544036865 1.505189061164856 6.974471092224121 84 84 84
-2.229008436203003 1.513083577156067 6.829659938812256 96 96 96
-2.3582375049591064 1.5106836557388306 6.769603252410889 93 93 93
-1.2720130681991577 1.5691795349121094 7.02975606918335 94 94 94
-1.0793943405151367 1.618203043937683 7.206112861633301 31 31 31
-1.8131959438323975 1.5029257535934448 6.654473781585693 103 103 103
-2.474945068359375 1.5536296367645264 6.616593837738037 123 123 123
-0.4947512745857239 1.7531129121780396 7.476809978485107 89 89 89
-1.8324130773544312 1.6218386888504028 6.907133102416992 48 48 48
-2.1678569316864014 1.587445855140686 6.585638523101807 25 25 25
-1.6776223182678223 1.6482611894607544 6.841479301452637 113 113 113
1.624927043914795 0.9554042816162109 3.9645495414733887 140 140 140
-1.6536533832550049 1.759844183921814 6.982579708099365 124 124 124
-1.5413730144500732 1.7629804611206055 7.003896236419678 135 135 135
-1.2777241468429565 1.8389402627944946 7.292194366455078 90 90 90
-0.9564900994300842 1.863921046257019 7.328350067138672 92 92 92
-2.1421005725860596 1.7729333639144897 6.735939979553223 115 115 115
-1.0037497282028198 1.918264389038086 7.2251410484313965 111 111 111
-1.0195893049240112 1.9696900844573975 7.1935133934021 111 111 111
-1.9948623180389404 1.9487282037734985 6.749338626861572 87 87 87
-0.5435053110122681 2.151561737060547 7.306796073913574 116 116 116
-1.2683299779891968 2.1878178119659424 7.358736991882324 56 56 56
-1.7152286767959595 2.0762317180633545 6.940214157104492 104 104 104
