ply
format ascii 1.0
element vertex 460
property float x
property float y
property float z
property uchar red
property uchar green
property uchar blue
end_header
-18.03487777709961 -1.6818581819534302 36.91352462768555 36 36 36
-15.804235458374023 -4.280562400817871 32.41181945800781 36 36 36
-19.651596069335938 -5.369167804718018 41.021358489990234 60 60 60
-21.213993072509766 -5.94202995300293 44.6854133605957 38 38 38
-18.83457374572754 -18.350276947021484 39.971839904785156 68 68 68
-19.45572280883789 -2.48443341255188 43.716976165771484 83 83 83
-17.724987030029297 -10.04914665222168 40.664390563964844 52 52 52
-18.524675369262695 -9.715027809143066 42.94692611694336 80 80 80
-19.248258590698242 -8.419326782226562 45.082115173339844 86 86 86
-18.354324340820312 -13.104774475097656 43.90033721923828 25 25 25
-18.098512649536133 -7.363503456115723 43.996124267578125 89 89 89
-18.539413452148438 -2.4987974166870117 46.314353942871094 77 77 77
-15.90267276763916 -6.64007043838501 40.26799392700195 98 98 98
-17.21603012084961 -5.6437201499938965 43.79664993286133 100 100 100
-17.21603012084961 -5.6437201499938965 43.79664993286133 100 100 100
-16.925045013427734 -9.99776554107666 44.064998626708984 110 110 110
-17.296642303466797 -10.908167839050293 45.08311462402344 114 114 114
-15.85541820526123 -6.085450172424316 41.440956115722656 101 101 101
-17.473119735717773 -8.945780754089355 45.92753982543945 90 90 90
-16.261903762817383 -7.671353340148926 42.759483337402344 126 126 126
-15.937079429626465 3.341942548751831 41.965972900390625 56 56 56
-16.5903263092041 -5.7745795249938965 45.15257263183594 126 126 126
-14.540454864501953 -1.8545423746109009 39.672637939453125 73 73 73
-14.540454864501953 -1.8545423746109009 39.672637939453125 73 73 73
-15.124677658081055 -1.4042878150939941 41.7773551940918 100 100 100
-10.765060424804688 -1.8723528385162354 29.688440322875977 109 109 109
-16.027236938476562 -11.402044296264648 45.003997802734375 141 141 141
-16.027236938476562 -11.402044296264648 45.003997802734375 141 141 141
-10.271943092346191 4.418433666229248 29.340810775756836 24 24 24
-12.973380088806152 -9.368053436279297 38.76313781738281 124 124 124
-13.815937042236328 -4.832043170928955 42.551204681396484 83 83 83
-13.11795711517334 -1.875889778137207 40.45405578613281 90 90 90
-14.355507850646973 -6.797860145568848 44.36418533325195 145 145 145
-14.355507850646973 -6.797860145568848 44.36418533325195 145 145 145
-15.127666473388672 -4.115719795227051 46.99465560913086 87 87 87
-13.322348594665527 -7.481695652008057 41.42569351196289 135 135 135
-13.254822731018066 -5.737263202667236 41.42007064819336 100 100 100
-13.364921569824219 -7.019868850708008 42.12018585205078 158 158 158
-12.649752616882324 -6.739132881164551 40.44150161743164 115 115 115
-13.11380672454834 -1.3640484809875488 42.69236755371094 71 71 71
-12.618230819702148 -4.595144748687744 41.86481475830078 79 79 79
-6.3355512619018555 2.2558751106262207 21.37106704711914 45 45 45
-13.474946022033691 -7.412725925445557 45.63008499145508 77 77 77
-5.673667907714844 -0.1640416383743286 19.541677474975586 9 9 9
-8.660552024841309 -3.1357667446136475 33.83121871948242 44 44 44
-4.378180980682373 -2.77482533454895 17.633817672729492 35 35 35
-10.243865013122559 -2.5100152492523193 41.34943389892578 62 62 62
-9.999431610107422 -4.2238030433654785 40.820068359375 57 57 57
-10.966018676757812 -8.499486923217773 45.67610168457031 48 48 48
-9.675638198852539 -5.686262130737305 40.63920974731445 25 25 25
-10.22251033782959 -5.244186878204346 43.11321258544922 27 27 27
-9.795513153076172 -4.374319553375244 41.440521240234375 26 26 26
-10.925145149230957 -3.202388286590576 46.837276458740234 31 31 31
-11.103202819824219 -8.217724800109863 47.91307067871094 9 9 9
-11.103202819824219 -8.217724800109863 47.91307067871094 9 9 9
-10.64272689819336 -7.256538391113281 45.89510726928711 109 109 109
-10.64272689819336 -7.256538391113281 45.89510726928711 109 109 109
-7.821348190307617 -6.233933448791504 35.10222625732422 70 70 70
-9.999716758728027 -6.515324592590332 45.26560974121094 57 57 57
-9.844655990600586 -4.553133964538574 48.5507926940918 137 137 137
-9.00655460357666 -4.182370662689209 44.40395736694336 138 138 138
-8.17960262298584 -4.275303840637207 43.02799606323242 28 28 28
-5.674935817718506 -3.679511070251465 32.66664123535156 26 26 26
-5.616603851318359 -3.278853178024292 32.49698257446289 25 25 25
-7.075084209442139 -3.7481839656829834 41.13262939453125 27 27 27
-1.974016547203064 -1.2036170959472656 11.320958137512207 69 69 69
-7.342582702636719 -2.9058518409729004 46.834407806396484 78 78 78
-6.0463080406188965 -3.7829818725585938 39.268436431884766 96 96 96
-4.301846027374268 -2.4490537643432617 28.856185913085938 66 66 66
-1.1608082056045532 -0.4988483488559723 7.645517349243164 83 83 83
-5.215659141540527 2.8643460273742676 36.12012481689453 102 102 102
-5.116534233093262 -2.7069976329803467 35.69308853149414 47 47 47
-6.219864845275879 -6.72980260848999 46.98004150390625 104 104 104
-5.863602161407471 -4.2766947746276855 43.862159729003906 46 46 46
-2.697870969772339 -1.311903715133667 20.54619026184082 38 38 38
-4.624025821685791 3.3067562580108643 44.53995132446289 93 93 93
-4.6265645027160645 3.3084962368011475 44.56443405151367 93 93 93
-3.8833584785461426 -4.810948848724365 40.93632125854492 93 93 93
-2.533149242401123 -1.619489312171936 35.25820541381836 132 132 132
-1.6134099960327148 -3.584545135498047 23.858386993408203 37 37 37
-1.2810133695602417 -0.02221233956515789 41.18570327758789 86 86 86
0.6200379729270935 3.1856696605682373 38.69049072265625 91 91 91
1.5342382192611694 6.797350883483887 41.252567291259766 74 74 74
-3.7196707725524902 -2.0618669986724854 21.28816795349121 153 153 153
-8.979413032531738 -6.905226707458496 44.2970085144043 49 49 49
-15.649539947509766 -9.721447944641113 41.441749572753906 39 39 39
-16.089590072631836 -10.123936653137207 43.644657135009766 63 63 63
-10.395913124084473 -6.561188697814941 28.228473663330078 154 154 154
-10.342361450195312 -4.8945441246032715 48.501609802246094 81 81 81
-15.257405281066895 0.34578949213027954 42.047603607177734 40 40 40
-15.232073783874512 -9.632784843444824 41.69930648803711 122 122 122
-14.699525833129883 -9.373908996582031 41.02142333984375 125 125 125
-3.4476873874664307 -2.7759616374969482 26.461923599243164 174 174 174
-12.349849700927734 -7.946166038513184 35.150936126708984 156 156 156
-7.161322116851807 -4.924809455871582 32.378173828125 29 29 29
-3.070284843444824 -2.9160375595092773 26.728525161743164 155 155 155
-3.0694808959960938 -2.915290355682373 26.721593856811523 155 155 155
-9.367178916931152 -5.208601474761963 47.274417877197266 200 200 200
-14.884471893310547 -6.108393669128418 40.09163284301758 33 33 33
-9.363126754760742 -5.206334590911865 47.2537727355957 200 200 200
-9.363070487976074 -5.206267833709717 47.253448486328125 167 167 167
-6.375388145446777 -4.264159202575684 37.61899185180664 165 165 165
-7.296020984649658 -4.367077827453613 38.579952239990234 161 161 161
-2.882963180541992 -1.7075450420379639 14.430319786071777 158 158 158
-9.160201072692871 -5.000911235809326 42.46312713623047 52 52 52
-15.142894744873047 -5.392465591430664 45.438621520996094 126 126 126
-9.98731517791748 -5.062426567077637 43.09650421142578 16 16 16
-17.17010498046875 -9.02834415435791 44.171730041503906 11 11 11
-9.253911018371582 -5.0284647941589355 39.82334518432617 10 10 10
-9.986745834350586 -6.506820201873779 45.20648193359375 57 57 57
-16.636381149291992 -8.92796516418457 44.43757247924805 6 6 6
-9.995855331420898 -6.512794494628906 45.24783706665039 57 57 57
-15.509683609008789 -9.245194435119629 45.472408294677734 170 170 170
-4.505916595458984 -3.9604861736297607 28.659469604492188 124 124 124
-9.53897762298584 -5.823541641235352 42.94660186767578 145 145 145
-2.3872575759887695 -0.0009620854398235679 34.35377883911133 146 146 146
-17.320585250854492 -8.382932662963867 44.703739166259766 13 13 13
-2.5324437618255615 -1.6190346479415894 35.2484130859375 132 132 132
-16.298078536987305 -7.884064674377441 42.06049728393555 13 13 13
-18.918062210083008 -7.905242919921875 44.661075592041016 14 14 14
0.7504109144210815 -2.0048365592956543 30.95815658569336 69 69 69
-11.415471076965332 2.267624855041504 34.40000915527344 111 111 111
-11.099668502807617 -8.214985847473145 47.89768981933594 9 9 9
-14.893661499023438 -8.097969055175781 46.57096481323242 55 55 55
-0.8308616280555725 0.11803159862756729 19.41451072692871 160 160 160
-15.64653205871582 -6.885007381439209 40.50861358642578 21 21 21
-13.276151657104492 -1.7797958850860596 43.493865966796875 14 14 14
-7.821628093719482 -6.2341508865356445 35.103458404541016 70 70 70
-7.828845024108887 -5.960041046142578 35.25629425048828 88 88 88
-14.708455085754395 -11.837811470031738 42.98664855957031 49 49 49
-13.723520278930664 -2.343216896057129 44.15989685058594 147 147 147
-7.787535190582275 -7.950364112854004 45.88619613647461 54 54 54
-7.379730224609375 -5.6189141273498535 33.23575210571289 88 88 88
-15.993711471557617 -9.780609130859375 40.77302169799805 21 21 21
-3.493875503540039 -2.936805486679077 31.42278480529785 41 41 41
-17.142438888549805 -10.642248153686523 45.38762664794922 30 30 30
-3.4905459880828857 -2.933894395828247 31.391347885131836 41 41 41
-17.145509719848633 -10.644129753112793 45.39573287963867 30 30 30
-15.995235443115234 -9.781539916992188 40.77696990966797 21 21 21
-9.7914400100708 -9.089221954345703 47.05255126953125 20 20 20
-15.656408309936523 -6.889327526092529 40.53455352783203 21 21 21
-8.877917289733887 -7.419371604919434 43.6502799987793 75 75 75
-6.349274158477783 -5.42888069152832 32.00518035888672 185 185 185
-2.599045753479004 -1.5422840118408203 23.53882598876953 43 43 43
-2.419128894805908 0.39711493253707886 23.085041046142578 80 80 80
-7.831613063812256 -5.962147235870361 35.268821716308594 88 88 88
-3.225304365158081 -2.2949588298797607 20.78215217590332 76 76 76
-9.921550750732422 -4.6608405113220215 43.08958435058594 11 11 11
-5.9879913330078125 -4.489250183105469 38.532981872558594 119 119 119
-3.890735387802124 -4.820093154907227 41.01395034790039 93 93 93
-9.050260543823242 -5.642398834228516 39.00679016113281 103 103 103
-0.4945433437824249 -0.5301631093025208 3.7069010734558105 118 118 118
-2.577357530593872 -2.234510660171509 16.316404342651367 104 104 104
-7.877305030822754 -4.585020065307617 33.758705139160156 91 91 91
-15.452107429504395 -8.753129005432129 44.19214630126953 144 144 144
-6.393642902374268 -5.760229587554932 28.667863845825195 83 83 83
-10.358014106750488 -7.467324733734131 46.807945251464844 88 88 88
-17.171445846557617 -9.029062271118164 44.175209045410156 11 11 11
-8.487123489379883 -3.015082836151123 36.98489761352539 66 66 66
-13.593031883239746 -9.06348705291748 41.87815475463867 87 87 87
-13.591983795166016 -9.062808990478516 41.875038146972656 87 87 87
-7.937646865844727 -4.393239498138428 41.311519622802734 99 99 99
-14.891647338867188 -6.111322402954102 40.11126708984375 33 33 33
-7.761768341064453 -3.3270390033721924 40.61641311645508 71 71 71
-7.763020992279053 -3.3275747299194336 40.622982025146484 71 71 71
-7.822259902954102 -6.234649181365967 35.1063232421875 70 70 70
-7.302997589111328 -5.821056842803955 32.776615142822266 42 42 42
-13.47995376586914 -8.812321662902832 39.81195831298828 154 154 154
-13.276114463806152 -1.779790997505188 43.49374008178711 14 14 14
0.9268989562988281 -7.846376895904541 43.718902587890625 66 66 66
-9.322956085205078 -4.041933536529541 40.45623016357422 104 104 104
-2.604837656021118 -1.5457227230072021 23.591310501098633 43 43 43
-9.941926002502441 -5.041804790496826 42.89703369140625 16 16 16
-3.492835521697998 -2.935934543609619 31.413372039794922 41 41 41
-17.168256759643555 -9.027289390563965 44.16681671142578 11 11 11
-15.50588321685791 -9.24300479888916 45.461326599121094 170 170 170
-11.19825553894043 -2.556334972381592 29.74742317199707 8 8 8
-2.386821985244751 0.39261579513549805 22.91323471069336 55 55 55
-4.511683464050293 -4.620837688446045 34.24811935424805 72 72 72
-15.468889236450195 -7.593288421630859 40.76819610595703 29 29 29
-2.3577630519866943 -1.688744306564331 20.284717559814453 143 143 143
-9.433892250061035 -7.477630615234375 41.35795211791992 147 147 147
-7.821720123291016 -6.234223365783691 35.103878021240234 70 70 70
-12.943305969238281 -7.204190731048584 42.185001373291016 17 17 17
-10.358345985412598 -7.467583179473877 46.80949020385742 88 88 88
-7.30294132232666 -5.821012496948242 32.776363372802734 42 42 42
-15.495993614196777 -3.6867401599884033 46.98240661621094 85 85 85
-7.8224778175354 -5.955227375030518 35.22728729248047 88 88 88
-7.820054531097412 -5.953436851501465 35.216339111328125 88 88 88
-13.538093566894531 -5.6458420753479 42.43422317504883 8 8 8
-15.650381088256836 -6.886702060699463 40.518550872802734 21 21 21
-2.5951802730560303 -1.5399917364120483 23.503833770751953 43 43 43
-3.4900641441345215 -2.933499336242676 31.387123107910156 41 41 41
-1.8771809339523315 -1.5475077629089355 16.054506301879883 140 140 140
-15.261000633239746 1.2214958667755127 47.41544723510742 98 98 98
-6.06008768081665 -5.302852153778076 38.57394790649414 117 117 117
-3.442443370819092 -2.7717299461364746 26.42153549194336 174 174 174
-5.710092067718506 -4.346691131591797 41.64093017578125 114 114 114
-7.874926567077637 -4.583699703216553 33.74848175048828 91 91 91
-3.480191230773926 -2.077197313308716 19.255687713623047 88 88 88
-9.920751571655273 -4.660500526428223 43.08591079711914 11 11 11
-3.0772030353546143 -2.922651529312134 26.789064407348633 155 155 155
-5.179251194000244 -4.185260772705078 37.64570236206055 139 139 139
-2.153043031692505 0.3449699878692627 36.280975341796875 68 68 68
-9.36957836151123 -5.20994234085083 47.2866096496582 200 200 200
-6.058598041534424 -5.301537990570068 38.564414978027344 117 117 117
-15.97950553894043 -9.77187728881836 40.7368278503418 21 21 21
-7.54995584487915 -4.523211479187012 40.364200592041016 175 175 175
-8.449462890625 -4.958512306213379 44.2778205871582 115 115 115
-11.414916038513184 -7.201348781585693 30.99002456665039 126 126 126
-11.846966743469238 -7.506014347076416 32.44988250732422 32 32 32
-13.66801643371582 -8.729571342468262 38.45461654663086 73 73 73
-16.641159057617188 -9.490334510803223 42.679447174072266 4 4 4
-16.648502349853516 -9.494508743286133 42.69837951660156 4 4 4
-16.698707580566406 -2.1839749813079834 43.24414825439453 107 107 107
-2.5317771434783936 -1.61861252784729 35.23930740356445 132 132 132
-16.637527465820312 -8.928421020507812 44.44044494628906 27 27 27
-15.130744934082031 -5.388299942016602 45.40217590332031 126 126 126
-15.45285701751709 -8.753555297851562 44.194332122802734 144 144 144
-5.392454624176025 -2.795762777328491 23.848417282104492 108 108 108
-16.313154220581055 -7.8916215896606445 42.100276947021484 13 13 13
-18.913780212402344 -7.903439998626709 44.65079879760742 14 14 14
-11.113234519958496 -8.225272178649902 47.9566535949707 9 9 9
-14.895828247070312 -8.099170684814453 46.577857971191406 55 55 55
-7.337113380432129 -6.1532883644104 36.05296325683594 26 26 26
-2.350834608078003 0.002246679039672017 33.79749298095703 146 146 146
-11.114323616027832 -8.226126670837402 47.96141815185547 9 9 9
-11.08348274230957 2.2050929069519043 33.382564544677734 111 111 111
-9.481802940368652 -5.788626194000244 42.68863296508789 145 145 145
-3.9138283729553223 -3.453350067138672 24.902009963989258 151 151 151
-11.721636772155762 2.3337621688842773 34.64373779296875 53 53 53
-6.225839138031006 -6.73621940612793 47.02529525756836 104 104 104
-6.2225213050842285 -6.732625961303711 46.999961853027344 104 104 104
-14.675146102905273 -4.637838840484619 44.2402229309082 124 124 124
-7.275266647338867 -4.087945938110352 39.32950210571289 201 201 201
-4.388209819793701 -2.3769309520721436 22.811878204345703 183 183 183
-9.9945707321167 -6.511995792388916 45.2420768737793 57 57 57
-9.86058521270752 -4.631567001342773 42.821022033691406 11 11 11
-15.996338844299316 -9.782200813293457 40.779823303222656 21 21 21
-13.877182960510254 -10.864175796508789 43.237518310546875 27 27 27
-8.019914627075195 -5.422162055969238 40.95589065551758 203 203 203
-14.71277141571045 -5.80168342590332 43.9221076965332 215 215 215
-9.250051498413086 -5.026390075683594 39.806575775146484 10 10 10
-4.855810642242432 -3.806724786758423 28.38877296447754 122 122 122
-6.088413238525391 -3.8091742992401123 39.543121337890625 96 96 96
-9.99024772644043 -9.26749324798584 47.966609954833984 20 20 20
-15.843162536621094 0.4234321117401123 43.0850715637207 12 12 12
-15.879643440246582 -3.361483573913574 43.52964782714844 193 193 193
-8.188172340393066 -5.19252347946167 38.7920036315918 42 42 42
-5.465527057647705 -3.163212776184082 24.99481201171875 50 50 50
-11.91964054107666 0.4310680031776428 39.09920883178711 103 103 103
-9.314699172973633 -3.3017444610595703 31.232805252075195 62 62 62
-15.73202133178711 -12.51415729522705 44.29331588745117 20 20 20
-9.987897872924805 -6.50757360458374 45.211727142333984 57 57 57
-9.303902626037598 -5.827200412750244 41.66777038574219 13 13 13
-5.9447150230407715 -2.4825973510742188 18.585050582885742 5 5 5
-2.591215133666992 -1.5376404523849487 23.467947006225586 43 43 43
-7.334682464599609 -4.9662885665893555 37.44074630737305 203 203 203
-4.577845573425293 -2.6755897998809814 23.995290756225586 131 131 131
-8.124978065490723 -4.848047733306885 43.385746002197266 183 183 183
1.17561674118042 -4.406976222991943 38.607666015625 109 109 109
-0.6258288025856018 -0.5288552045822144 4.762115955352783 151 151 151
-15.979814529418945 -9.772066116333008 40.73762893676758 21 21 21
-17.14580535888672 -10.64429759979248 45.396484375 30 30 30
-15.650178909301758 -9.721903800964355 41.443565368652344 39 39 39
-3.068925142288208 -2.9147636890411377 26.716754913330078 155 155 155
-15.649328231811523 -9.721315383911133 41.44116973876953 39 39 39
-16.649080276489258 -9.494710922241211 42.699649810791016 4 4 4
-15.235858917236328 -8.685185432434082 39.07112503051758 4 4 4
-15.172492980957031 -8.64980697631836 38.909671783447266 4 4 4
-3.4455769062042236 -2.7741808891296387 26.445343017578125 174 174 174
-17.17313003540039 -9.029898643493652 44.17943572998047 11 11 11
-17.183698654174805 -9.035484313964844 44.20669937133789 11 11 11
-16.638683319091797 -8.929067611694336 44.44358444213867 27 27 27
-2.53225040435791 -1.6189135313034058 35.24588394165039 132 132 132
-16.64168930053711 -8.930794715881348 44.451725006103516 6 6 6
-15.45201587677002 -8.753074645996094 44.1918830871582 144 144 144
-8.772412300109863 -4.571870803833008 44.32801055908203 157 157 157
-14.837757110595703 -8.70750617980957 46.43548583984375 44 44 44
-16.08756446838379 -7.783401966094971 41.51642990112305 13 13 13
-7.820653438568115 -6.233386516571045 35.09920120239258 70 70 70
-2.4408035278320312 -2.002666473388672 20.856407165527344 149 149 149
-4.21357536315918 -3.283125877380371 18.08709716796875 48 48 48
-7.820684432983398 -6.23341178894043 35.09934616088867 70 70 70
-7.301539897918701 -5.819955825805664 32.77023696899414 42 42 42
-6.47493314743042 -1.9109787940979004 20.617652893066406 22 22 22
-11.0963716506958 -8.212620735168457 47.883487701416016 9 9 9
-3.4862172603607178 -2.9303886890411377 31.354007720947266 41 41 41
-9.727211952209473 -4.222635746002197 47.38365173339844 175 175 175
-10.360551834106445 -7.469062328338623 46.81934356689453 88 88 88
-10.363646507263184 -7.4712724685668945 46.83342742919922 88 88 88
-7.6713714599609375 -5.089481353759766 33.188777923583984 84 84 84
-14.541464805603027 3.210301399230957 46.65219497680664 50 50 50
-9.133665084838867 -5.69537353515625 39.3680305480957 34 34 34
-9.995081901550293 -6.512342929840088 45.24441146850586 57 57 57
-16.494062423706055 3.2128965854644775 46.330810546875 72 72 72
-13.892470359802246 -10.876138687133789 43.2858772277832 27 27 27
-17.162702560424805 -9.024431228637695 44.15260314941406 11 11 11
-15.736035346984863 -8.334738731384277 41.11460494995117 3 3 3
-18.166431427001953 -8.358464241027832 42.7188720703125 33 33 33
-11.921159744262695 0.43112459778785706 39.1042594909668 103 103 103
-13.793647766113281 -2.3562731742858887 44.3851318359375 147 147 147
-6.166586875915527 -5.159928798675537 30.073469161987305 55 55 55
-11.11414623260498 -8.225997924804688 47.96064758300781 9 9 9
-17.539405822753906 -6.973793983459473 45.49766159057617 21 21 21
-16.69654083251953 -2.1836907863616943 43.23844528198242 107 107 107
-11.791810989379883 -5.6584272384643555 39.23755645751953 8 8 8
-9.380349159240723 -4.507074356079102 31.219932556152344 9 9 9
-15.951807975769043 -5.841496467590332 43.039024353027344 61 61 61
-8.005854606628418 -5.396853446960449 39.72665023803711 120 120 120
-1.988800048828125 -1.9784059524536133 14.598801612854004 81 81 81
-11.978337287902832 0.8153898119926453 32.83424377441406 11 11 11
-3.8416972160339355 -4.759545803070068 40.49919891357422 93 93 93
-14.849431991577148 -4.159564971923828 40.3692512512207 6 6 6
-9.138771057128906 -4.058264255523682 47.62541580200195 113 113 113
-13.516884803771973 -2.536656379699707 36.25042724609375 1 1 1
-11.506464004516602 1.1287848949432373 29.080223083496094 53 53 53
-16.593454360961914 -8.370820999145508 38.79962158203125 27 27 27
-13.422750473022461 -2.1389975547790527 35.55193328857422 107 107 107
-1.6765512228012085 -1.395707368850708 37.616554260253906 150 150 150
-15.658756256103516 -9.727543830871582 41.467037200927734 39 39 39
-11.380875587463379 -7.272306442260742 31.904796600341797 89 89 89
-16.63728141784668 -8.92844295501709 44.43993377685547 6 6 6
-15.496044158935547 -9.237250328063965 45.43254089355469 170 170 170
-13.642632484436035 -8.260525703430176 40.86316680908203 73 73 73
-9.908934593200684 -9.203052520751953 47.79204559326172 55 55 55
-18.186710357666016 -8.36779499053955 42.76655197143555 33 33 33
-16.661123275756836 -8.429152488708496 44.47636413574219 128 128 128
-13.122780799865723 -7.605437755584717 40.290714263916016 95 95 95
-9.71683120727539 -7.53554630279541 42.31452941894531 22 22 22
-7.302546977996826 -5.820745944976807 32.77472686767578 42 42 42
-9.942968368530273 -7.558962345123291 42.78388977050781 112 112 112
-7.307976245880127 -5.825206279754639 32.799400329589844 42 42 42
-14.841864585876465 -8.069977760314941 46.409393310546875 55 55 55
-9.580229759216309 -5.3076701164245605 30.804397583007812 71 71 71
-7.284885883331299 -5.6571831703186035 34.11594772338867 64 64 64
-8.027329444885254 -5.9844746589660645 36.41637420654297 139 139 139
-7.572440147399902 -3.9747021198272705 25.35165786743164 102 102 102
-8.279266357421875 -5.669815540313721 35.86415100097656 129 129 129
-9.993684768676758 -6.511419773101807 45.23807144165039 57 57 57
-9.994708061218262 -6.512106895446777 45.24270248413086 57 57 57
-14.703020095825195 -5.797576904296875 43.892791748046875 215 215 215
-5.74429178237915 -2.9731814861297607 25.39672088623047 91 91 91
-3.8496150970458984 -4.769217491149902 40.5816764831543 93 93 93
-3.072244882583618 -2.9179131984710693 26.74567222595215 155 155 155
-5.643673896789551 -3.2549707889556885 30.227941513061523 33 33 33
-5.7046074867248535 -4.342535018920898 41.60088348388672 114 114 114
-3.4472317695617676 -2.775524377822876 26.458087921142578 174 174 174
-14.846478462219238 -4.1588006019592285 40.36165237426758 6 6 6
-8.786099433898926 -4.579038143157959 44.39790725708008 157 157 157
-7.679387092590332 -4.41254186630249 43.929073333740234 28 28 28
-2.665113925933838 -2.220848798751831 22.973623275756836 124 124 124
-8.367085456848145 -3.297746181488037 36.381160736083984 80 80 80
-3.48244571685791 -2.927187204360962 31.319822311401367 41 41 41
-11.33088493347168 -2.5163967609405518 40.803890228271484 66 66 66
-13.4315824508667 -2.1404058933258057 35.575775146484375 107 107 107
-2.532489776611328 -1.6190615892410278 35.248870849609375 132 132 132
-5.8962788581848145 0.4507642388343811 15.836745262145996 51 51 51
-6.554661750793457 2.5147452354431152 21.264129638671875 62 62 62
0.30802369117736816 -10.302358627319336 47.23426055908203 41 41 41
-17.173864364624023 -9.030327796936035 44.18142318725586 11 11 11
-6.381017208099365 -5.748932838439941 28.610994338989258 83 83 83
-13.858360290527344 -7.86783504486084 41.00859832763672 170 170 170
-13.374120712280273 -7.730674743652344 40.958900451660156 97 97 97
-13.337983131408691 -8.165901184082031 45.38249206542969 98 98 98
-8.605042457580566 -6.558032512664795 36.99456787109375 112 112 112
-7.714654922485352 -5.953719615936279 33.614280700683594 16 16 16
-7.822085857391357 -6.23451566696167 35.1056022644043 70 70 70
-9.826604843139648 -4.373958587646484 30.85503387451172 114 114 114
-9.999939918518066 -6.5154709815979 45.26653289794922 57 57 57
-12.120481491088867 -5.049030303955078 37.853614807128906 23 23 23
-15.130452156066895 -5.388180732727051 45.40129852294922 126 126 126
-3.84295392036438 -4.760982036590576 40.51167678833008 93 93 93
-7.186131000518799 -4.239392280578613 38.09440231323242 69 69 69
-2.6079483032226562 -2.471567153930664 22.6533145904541 145 145 145
-9.031973838806152 -5.107753276824951 47.73371505737305 9 9 9
-5.720106601715088 -4.354231834411621 41.71406173706055 114 114 114
-10.45960521697998 -3.31951642036438 35.15632629394531 66 66 66
-3.4770047664642334 -2.9226114749908447 31.27080726623535 41 41 41
-1.982763648033142 -1.419999122619629 17.064346313476562 167 167 167
-14.661149978637695 -3.690284013748169 46.641815185546875 24 24 24
-15.954854965209961 -3.377028226852417 43.73625946044922 193 193 193
-15.953787803649902 -2.815124034881592 41.26719284057617 21 21 21
-15.369900703430176 -2.928520679473877 41.83674240112305 150 150 150
-2.6014106273651123 -1.5436960458755493 23.560401916503906 43 43 43
-12.434159278869629 -2.678976058959961 40.30940628051758 89 89 89
-2.603276252746582 -1.544798493385315 23.577186584472656 43 43 43
-10.347414016723633 -1.9418551921844482 33.33361053466797 116 116 116
3.3545114994049072 -2.4196903705596924 41.62717819213867 134 134 134
-2.5281128883361816 -1.6162985563278198 35.18888473510742 132 132 132
-10.347392082214355 -1.6799826622009277 36.224273681640625 63 63 63
-0.8722560405731201 -0.3357608914375305 21.063119888305664 54 54 54
0.7990846633911133 0.0646003931760788 23.772390365600586 152 152 152
-8.783425331115723 1.7192331552505493 26.965518951416016 108 108 108
-13.433066368103027 2.6701133251190186 33.214599609375 63 63 63
-19.062801361083984 -10.41810131072998 44.517982482910156 21 21 21
-16.354249954223633 -10.071438789367676 43.72520446777344 39 39 39
-16.970691680908203 -10.124923706054688 45.40621566772461 45 45 45
-13.925248146057129 -8.472620964050293 43.32666015625 136 136 136
-14.384333610534668 -7.157652378082275 37.167354583740234 134 134 134
-13.46492862701416 -8.062887191772461 41.94071578979492 159 159 159
-13.108743667602539 -7.567041873931885 40.119850158691406 98 98 98
-3.854433059692383 -7.168977737426758 40.15631866455078 153 153 153
-7.820494651794434 -6.233262062072754 35.098453521728516 70 70 70
-15.64715576171875 -6.885282516479492 40.51023483276367 21 21 21
-8.578705787658691 -5.626232624053955 37.662353515625 32 32 32
-7.342930793762207 -4.5607781410217285 32.227664947509766 107 107 107
-10.658734321594238 -4.281335353851318 32.19245529174805 58 58 58
-13.022007942199707 -5.490357875823975 41.46929168701172 3 3 3
-5.7205634117126465 -4.354626178741455 41.717613220214844 114 114 114
-16.25539779663086 -4.448914527893066 43.50004577636719 2 2 2
-6.46607780456543 -1.9083211421966553 20.588607788085938 22 22 22
-1.1923803091049194 -1.2470903396606445 14.581171989440918 173 173 173
-14.67349910736084 -3.6932973861694336 46.681610107421875 24 24 24
-2.611375093460083 -1.5495933294296265 23.650310516357422 43 43 43
-2.711334466934204 -2.166555404663086 36.454864501953125 92 92 92
3.3508148193359375 -2.4168715476989746 41.578514099121094 134 134 134
-13.68301010131836 -2.33687686920166 43.1266975402832 53 53 53
-7.577001094818115 -1.5045243501663208 43.6850471496582 45 45 45
-1.5012080669403076 -0.14982424676418304 25.07253646850586 52 52 52
-0.8535074591636658 -0.04537884518504143 16.681560516357422 86 86 86
-1.8248416185379028 0.26164689660072327 21.736576080322266 33 33 33
-3.3906033039093018 0.5221719741821289 32.52762985229492 76 76 76
-13.259930610656738 2.6299219131469727 32.768375396728516 63 63 63
-13.215802192687988 5.040877342224121 42.80608367919922 32 32 32
1.0210567712783813 -11.144801139831543 44.82087707519531 112 112 112
-15.978086471557617 -9.771010398864746 40.73318099975586 21 21 21
-16.567720413208008 -9.859431266784668 42.432613372802734 142 142 142
-17.1695613861084 -9.027981758117676 44.17018127441406 11 11 11
-16.636606216430664 -8.92793083190918 44.43794250488281 27 27 27
-10.038019180297852 -9.469144821166992 45.73869323730469 34 34 34
-11.187885284423828 -6.810760021209717 34.914024353027344 154 154 154
-6.759790420532227 -8.912530899047852 47.34486770629883 140 140 140
-16.09871482849121 -6.982810020446777 37.63203430175781 86 86 86
-7.822430610656738 -6.2347869873046875 35.10713195800781 70 70 70
-9.994344711303711 -6.511831760406494 45.24103927612305 57 57 57
-6.219642639160156 -6.729578495025635 46.97840881347656 104 104 104
-7.079229831695557 -2.808382511138916 21.14679527282715 90 90 90
-1.2838648557662964 -1.0470454692840576 9.386472702026367 118 118 118
-3.07145094871521 -2.9171717166900635 26.73880386352539 155 155 155
-14.79818344116211 -4.225503444671631 45.5314826965332 96 96 96
-12.107815742492676 -3.5381720066070557 38.07538604736328 124 124 124
-13.574996948242188 -0.15420587360858917 43.33412551879883 44 44 44
-1.644840121269226 0.16383808851242065 16.324560165405273 139 139 139
-10.07241153717041 0.7120476365089417 32.39311981201172 39 39 39
-5.083204746246338 -9.649665832519531 33.783409118652344 50 50 50
-15.995123863220215 -9.781469345092773 40.77667999267578 21 21 21
-16.635879516601562 -8.927543640136719 44.43597412109375 27 27 27
-9.590890884399414 -5.550840377807617 27.933460235595703 161 161 161
-9.667326927185059 -7.845605850219727 42.36663055419922 107 107 107
-16.821060180664062 -7.485106468200684 43.046791076660156 30 30 30
-13.72357177734375 -6.753230094909668 41.37051773071289 104 104 104
-3.309673547744751 -3.8587496280670166 25.48455047607422 29 29 29
-5.187191963195801 -4.191636085510254 37.703590393066406 139 139 139
-1.0685168504714966 -0.9527053236961365 9.446501731872559 57 57 57
-6.858635902404785 -3.191976308822632 33.71131896972656 139 139 139
-1.3275035619735718 -1.0261509418487549 12.565423011779785 47 47 47
-2.5271847248077393 -1.8393770456314087 32.70758056640625 115 115 115
-10.405961036682129 0.7483638525009155 33.316551208496094 38 38 38
-14.255256652832031 1.1256266832351685 39.62013626098633 99 99 99
