ply
format ascii 1.0
element vertex 727
property float x
property float y
property float z
property uchar red
property uchar green
property uchar blue
end_header
-1.5450857877731323 0.26785707473754883 4.324557304382324 74 74 74
-1.581719994544983 1.5488461256027222 4.4201884269714355 46 46 46
-1.57624089717865 2.2300562858581543 4.503349781036377 44 44 44
-1.5049560070037842 -0.8874842524528503 4.334028720855713 9 9 9
-1.5047554969787598 -0.2769288122653961 4.34888219833374 64 64 64
-1.457471251487732 0.07987489551305771 4.254655361175537 69 69 69
-1.4892206192016602 0.14571473002433777 4.314502239227295 77 77 77
-1.5316290855407715 1.1337318420410156 4.4467244148254395 22 22 22
-1.5353152751922607 1.1138756275177002 4.45953893661499 7 7 7
-1.479669213294983 -0.7996180653572083 4.309840679168701 79 79 79
-1.498173713684082 -0.10049636662006378 4.378614902496338 23 23 23
-1.4863814115524292 -0.45857736468315125 4.3463592529296875 22 22 22
-1.5266155004501343 1.3395836353302002 4.495752334594727 41 41 41
-1.523608684539795 0.803565263748169 4.4486212730407715 6 6 6
-1.4522756338119507 -0.6677624583244324 4.340368747711182 13 13 13
-1.4799625873565674 0.22030948102474213 4.424309253692627 112 112 112
-1.3992927074432373 -2.002845287322998 4.213443279266357 28 28 28
-1.448203682899475 -0.15176157653331757 4.384979248046875 80 80 80
-1.4767051935195923 1.123223900794983 4.4788923263549805 63 63 63
-1.5150744915008545 1.3473360538482666 4.586318016052246 85 85 85
-1.4545855522155762 1.4330968856811523 4.512736797332764 50 50 50
-1.4380035400390625 0.1255415976047516 4.433445453643799 82 82 82
-1.4102680683135986 0.051753897219896317 4.466039180755615 57 57 57
-1.4276739358901978 0.5007833242416382 4.528438091278076 55 55 55
-1.4242655038833618 0.9941914081573486 4.52628755569458 71 71 71
-1.3929349184036255 0.2873460054397583 4.443423271179199 59 59 59
-1.431956171989441 1.066983699798584 4.563917636871338 3 3 3
-1.4222036600112915 1.3079432249069214 4.546897888183594 49 49 49
-1.3652130365371704 0.02918427437543869 4.426550388336182 75 75 75
-1.456054925918579 2.310796022415161 4.665490627288818 59 59 59
-1.3880285024642944 0.050002675503492355 4.514702796936035 59 59 59
-1.417351245880127 0.8622055649757385 4.659648895263672 8 8 8
-1.3772433996200562 0.7493754625320435 4.570651531219482 75 75 75
-1.355675220489502 0.08281790465116501 4.5071258544921875 62 62 62
-1.3388713598251343 -0.4093461036682129 4.483595371246338 100 100 100
-1.3471381664276123 0.6078947186470032 4.561634063720703 70 70 70
-1.3074854612350464 -0.4110592305660248 4.486042022705078 103 103 103
-1.3058395385742188 -0.6538036465644836 4.493636608123779 106 106 106
-1.3442320823669434 1.7273913621902466 4.650214195251465 54 54 54
-1.3896734714508057 2.6382460594177246 4.80811071395874 50 50 50
-1.3243281841278076 1.3714845180511475 4.644535541534424 66 66 66
-1.2805627584457397 -2.021902561187744 4.5139875411987305 20 20 20
-1.2859909534454346 -0.4201488196849823 4.543064594268799 104 104 104
-1.3086055517196655 0.17380772531032562 4.639583110809326 56 56 56
-1.3084850311279297 0.8564096689224243 4.658490180969238 18 18 18
-1.3099400997161865 1.2797861099243164 4.678141117095947 13 13 13
-1.27406907081604 -0.2690107524394989 4.553093910217285 81 81 81
-1.2898741960525513 0.6403813362121582 4.628411293029785 120 120 120
-1.327804446220398 2.404601573944092 4.762444019317627 45 45 45
-1.2681485414505005 -0.3329746723175049 4.555446147918701 82 82 82
-1.272729754447937 -0.2493371069431305 4.580155372619629 23 23 23
-1.3031561374664307 0.9095914959907532 4.652744293212891 27 27 27
-1.2734215259552002 0.42078590393066406 4.617398738861084 141 141 141
-1.2689040899276733 0.4692055583000183 4.636429309844971 109 109 109
-1.2554361820220947 -0.21697524189949036 4.590221881866455 67 67 67
-1.2587841749191284 -0.6923431158065796 4.622403144836426 29 29 29
-1.2323087453842163 -0.24885773658752441 4.595870018005371 25 25 25
-1.2251592874526978 0.1678735911846161 4.617530345916748 61 61 61
-1.2548242807388306 1.3335715532302856 4.727416515350342 49 49 49
-1.2213033437728882 0.04353806748986244 4.624986171722412 70 70 70
-1.22857666015625 0.48527076840400696 4.652921676635742 57 57 57
-1.2032524347305298 -0.6270008683204651 4.576806545257568 67 67 67
-1.2290180921554565 1.5580495595932007 4.721155643463135 47 47 47
-1.181004285812378 -0.5907293558120728 4.582536220550537 87 87 87
-1.187499761581421 0.26966702938079834 4.6585588455200195 57 57 57
-1.1665701866149902 -0.5738044381141663 4.582703590393066 80 80 80
-1.155142903327942 -0.4021961987018585 4.608469486236572 13 13 13
-1.1798369884490967 0.7849141359329224 4.714301109313965 47 47 47
-1.1961216926574707 2.3899266719818115 4.8664751052856445 44 44 44
-1.165560007095337 2.162738800048828 4.83480978012085 45 45 45
-1.1700432300567627 2.4888226985931396 4.8741841316223145 57 57 57
-1.17227041721344 2.356411933898926 4.88460111618042 118 118 118
-1.1305590867996216 0.5441964864730835 4.746740341186523 66 66 66
-1.112837791442871 0.6327099800109863 4.780370235443115 141 141 141
-1.1172746419906616 1.2345290184020996 4.828642845153809 69 69 69
-1.0912160873413086 0.11356986314058304 4.738500118255615 60 60 60
-1.0857744216918945 -0.19583794474601746 4.747439384460449 61 61 61
-1.099724531173706 0.9599802494049072 4.84719705581665 52 52 52
-1.1191316843032837 2.341475486755371 4.926774501800537 40 40 40
-1.085601806640625 1.1134028434753418 4.868637561798096 106 106 106
-1.0780586004257202 0.8380123376846313 4.882246494293213 47 47 47
-1.0832544565200806 1.1954795122146606 4.882399082183838 98 98 98
-1.0917646884918213 1.5678519010543823 4.880977153778076 9 9 9
-1.0512316226959229 0.6243681907653809 4.78748083114624 82 82 82
-1.0826811790466309 1.9361103773117065 4.931643009185791 54 54 54
-1.02647864818573 -2.011681079864502 4.708195209503174 44 44 44
-1.038915753364563 -0.23175373673439026 4.753968238830566 17 17 17
-1.0769459009170532 0.8372893929481506 4.879424095153809 47 47 47
-1.0517017841339111 0.8567174077033997 4.848306179046631 68 68 68
-1.0304878950119019 0.19226574897766113 4.776210784912109 17 17 17
-1.0174710750579834 -0.6682814359664917 4.75898551940918 30 30 30
-1.0535609722137451 1.9141043424606323 4.980334758758545 6 6 6
-1.011831521987915 0.07172869890928268 4.839741230010986 59 59 59
-1.0191210508346558 1.0011045932769775 4.889409065246582 69 69 69
-1.0191210508346558 1.0011045932769775 4.889409065246582 69 69 69
-0.993228554725647 -0.22594019770622253 4.771733283996582 109 109 109
-0.9894736409187317 -0.24391405284404755 4.754634857177734 28 28 28
-0.9874079823493958 1.2502752542495728 4.916216850280762 58 58 58
-1.013034701347351 2.611459255218506 5.0186285972595215 39 39 39
-0.9965003132820129 1.6352208852767944 4.978115081787109 68 68 68
-0.94183748960495 -0.5960243940353394 4.72935152053833 64 64 64
-0.9652938842773438 0.7425057888031006 4.870373249053955 51 51 51
-1.0030032396316528 2.7200794219970703 5.086674690246582 51 51 51
-0.9557308554649353 0.9376711249351501 4.8804097175598145 49 49 49
-0.9347625374794006 1.1018065214157104 4.981194496154785 53 53 53
-0.9648652672767639 2.792418956756592 5.1338582038879395 5 5 5
-0.9648633599281311 2.792409658432007 5.133846759796143 5 5 5
-0.9079329371452332 0.25102150440216064 4.9149298667907715 55 55 55
-0.9633529782295227 -1.7638463973999023 5.211543560028076 75 75 75
-0.9633487462997437 -1.7638393640518188 5.2115302085876465 75 75 75
-0.874314546585083 -0.8502727746963501 4.792384147644043 70 70 70
-0.9525960683822632 -1.5805224180221558 5.172933101654053 95 95 95
-0.9264464974403381 2.3790061473846436 5.120506763458252 47 47 47
-0.8368363976478577 -0.6085317730903625 4.771637439727783 64 64 64
-0.8840537071228027 1.1339786052703857 4.957040786743164 63 63 63
-0.9137082099914551 1.9554109573364258 5.134637355804443 50 50 50
-0.9038755893707275 -1.828120470046997 5.102367877960205 77 77 77
-0.8815043568611145 0.27722156047821045 4.979308605194092 55 55 55
-0.9115674495697021 -1.371198296546936 5.157375335693359 47 47 47
-0.8690009117126465 0.15235599875450134 4.939826488494873 70 70 70
-0.8624439239501953 -0.30676037073135376 4.906666278839111 62 62 62
-0.8995857238769531 1.9111366271972656 5.120140552520752 83 83 83
-0.8895390629768372 2.1274490356445312 5.1405863761901855 84 84 84
-0.843235969543457 -0.640280544757843 4.87642765045166 63 63 63
-0.8607961535453796 1.0701221227645874 4.997892379760742 57 57 57
-0.8578360676765442 0.24769359827041626 5.002406120300293 57 57 57
-0.8578360676765442 0.24769359827041626 5.002406120300293 57 57 57
-0.8604989647865295 -1.846174955368042 5.05278205871582 79 79 79
-0.8303002119064331 0.46517065167427063 4.907045841217041 68 68 68
-0.8533466458320618 0.8315330147743225 5.042633056640625 10 10 10
-0.8661463260650635 2.362283229827881 5.154550552368164 39 39 39
-0.8539122939109802 2.255248546600342 5.114343643188477 41 41 41
-0.8193894028663635 -1.8775194883346558 4.933372974395752 70 70 70
-0.8206977248191833 0.40638232231140137 4.991448402404785 44 44 44
-0.8129318356513977 -0.017400110140442848 4.9867987632751465 2 2 2
-0.8129318356513977 -0.017400110140442848 4.9867987632751465 2 2 2
-0.8129138946533203 0.2511298954486847 5.043728351593018 78 78 78
-0.8219587802886963 1.2997099161148071 5.107254505157471 49 49 49
-0.8012237548828125 -1.5826587677001953 5.0010857582092285 50 50 50
-0.7765710353851318 -1.985120415687561 4.927796840667725 28 28 28
-0.7799361348152161 0.006809120066463947 4.986971855163574 59 59 59
-0.8104466795921326 1.6127780675888062 5.201478004455566 49 49 49
-0.8104466795921326 1.6127780675888062 5.201478004455566 49 49 49
-0.7610211968421936 -1.138161540031433 4.957355499267578 33 33 33
-0.7656720280647278 -0.1540403813123703 5.0229010581970215 59 59 59
-0.7438907027244568 -2.0528860092163086 4.889065742492676 66 66 66
-0.7493382692337036 0.5956740975379944 5.005331516265869 2 2 2
-0.7752588987350464 2.3584885597229004 5.183681011199951 44 44 44
-0.7538579702377319 0.49261295795440674 5.0815863609313965 55 55 55
-0.736441433429718 -1.1331229209899902 4.97166633605957 18 18 18
-0.736441433429718 -1.1331229209899902 4.97166633605957 18 18 18
-0.7130479216575623 -0.7887923121452332 4.922221660614014 62 62 62
-0.7243121862411499 0.4186781346797943 5.064703464508057 58 58 58
-0.7124475836753845 -0.18941058218479156 5.0097246170043945 59 59 59
-0.7211524248123169 -0.059703100472688675 5.080904960632324 64 64 64
-0.6985233426094055 -2.0249311923980713 4.9617509841918945 46 46 46
-0.7035803198814392 0.23494434356689453 5.068013668060303 54 54 54
-0.7102433443069458 1.5508791208267212 5.256947040557861 51 51 51
-0.7107775807380676 1.836294412612915 5.2676239013671875 55 55 55
-0.6818890571594238 0.43549686670303345 5.125673294067383 95 95 95
-0.6818890571594238 0.43549686670303345 5.125673294067383 95 95 95
-0.6818890571594238 0.43549686670303345 5.125673294067383 95 95 95
-0.6769022345542908 0.6643767952919006 5.148608207702637 49 49 49
-0.6691321730613708 0.7138132452964783 5.14935302734375 47 47 47
-0.6582596898078918 0.03674573451280594 5.119272708892822 52 52 52
-0.6546230912208557 0.06171087920665741 5.110020637512207 47 47 47
-0.6540941596031189 0.6353608965873718 5.176660060882568 57 57 57
-0.635375440120697 0.4184006452560425 5.147690296173096 51 51 51
-0.6264444589614868 -0.20436838269233704 5.117832660675049 66 66 66
-0.6490911245346069 2.587738275527954 5.373860836029053 47 47 47
-0.6249204874038696 0.8103662133216858 5.184335231781006 65 65 65
-0.6195948123931885 0.5009214282035828 5.195107460021973 50 50 50
-0.5754317045211792 -2.3362555503845215 4.9692769050598145 45 45 45
-0.5744717121124268 -1.4798355102539062 5.058701992034912 80 80 80
-0.5935893058776855 1.0650197267532349 5.244124889373779 53 53 53
-0.5928999781608582 -1.2624531984329224 5.153931617736816 67 67 67
-0.5839342474937439 0.3725733757019043 5.195026397705078 12 12 12
-0.5729815363883972 -0.9262282848358154 5.122061729431152 63 63 63
-0.5758808255195618 -0.4750801622867584 5.150058269500732 18 18 18
-0.6050811409950256 2.421966552734375 5.420506954193115 43 43 43
-0.5558598637580872 -0.48577627539634705 5.164890289306641 113 113 113
-0.5526005625724792 -0.08443022519350052 5.177194595336914 57 57 57
-0.5224423408508301 -2.0115084648132324 5.067192554473877 19 19 19
-0.5271900296211243 -2.6309900283813477 5.099989414215088 45 45 45
-0.5539582371711731 2.3569271564483643 5.402311325073242 39 39 39
-0.5248236656188965 -0.18054871261119843 5.130038261413574 53 53 53
-0.5396789908409119 0.6013131737709045 5.323928356170654 9 9 9
-0.5145413875579834 1.1705275774002075 5.364564895629883 45 45 45
-0.5113552212715149 2.8530125617980957 5.476578235626221 37 37 37
-0.512420117855072 1.7179222106933594 5.492664337158203 77 77 77
-0.4607410430908203 0.4898792505264282 5.384757995605469 50 50 50
-0.45475855469703674 0.9559845328330994 5.398669719696045 44 44 44
-0.44663387537002563 0.8493615984916687 5.347070217132568 59 59 59
-0.44004663825035095 0.5684756636619568 5.344097137451172 73 73 73
-0.4159850776195526 -1.9962071180343628 5.124835014343262 17 17 17
-0.44254979491233826 0.658843994140625 5.48344612121582 48 48 48
-0.44031375646591187 1.6749191284179688 5.531504154205322 3 3 3
-0.4266045093536377 1.159575343132019 5.472696781158447 50 50 50
-0.45630064606666565 2.3728506565093994 5.709682941436768 131 131 131
-0.40137603878974915 0.8075722455978394 5.388634204864502 5 5 5
-0.41790562868118286 1.8717352151870728 5.554601192474365 13 13 13
-0.3847319483757019 -0.28995898365974426 5.333207130432129 49 49 49
-0.3504929542541504 -2.7682650089263916 5.060701847076416 42 42 42
-0.37170469760894775 0.8318739533424377 5.416862487792969 47 47 47
-0.3760146498680115 2.695563316345215 5.644265174865723 47 47 47
-0.369628369808197 2.5994200706481934 5.638321876525879 42 42 42
-0.35090571641921997 2.362678289413452 5.637282848358154 40 40 40
-0.30698198080062866 -1.8831435441970825 5.1789774894714355 56 56 56
-0.32081925868988037 -2.5750818252563477 5.109864711761475 27 27 27
-0.331828236579895 0.2794181704521179 5.412984371185303 50 50 50
-0.33399999141693115 1.3154971599578857 5.541090965270996 45 45 45
-0.3103111982345581 -1.5899834632873535 5.342468738555908 16 16 16
-0.3315002918243408 -0.690754234790802 5.401803016662598 36 36 36
-0.296074241399765 -0.8220385313034058 5.359153747558594 54 54 54
-0.3118664622306824 2.7485499382019043 5.709837913513184 4 4 4
-0.2835316061973572 1.3739103078842163 5.564118385314941 56 56 56
-0.2835316061973572 1.3739103078842163 5.564118385314941 56 56 56
-0.2634527087211609 -0.7964215278625488 5.4302215576171875 46 46 46
-0.2405119240283966 -1.3937348127365112 5.368770599365234 58 58 58
-0.23879066109657288 -0.15124443173408508 5.5099616050720215 46 46 46
-0.1858161985874176 -2.6992721557617188 5.025485515594482 38 38 38
-0.2065477818250656 0.480146199464798 5.385748863220215 55 55 55
-0.2065477818250656 0.480146199464798 5.385748863220215 55 55 55
-0.2103983759880066 1.4464210271835327 5.667191505432129 2 2 2
-0.21169698238372803 0.8121706247329712 5.713771820068359 49 49 49
-0.19376219809055328 1.2965970039367676 5.605742931365967 46 46 46
-0.1886918693780899 0.5968330502510071 5.609292984008789 85 85 85
-0.19137123227119446 -1.1272099018096924 5.464640140533447 9 9 9
-0.18354535102844238 -0.4279765486717224 5.534616947174072 46 46 46
-0.18234719336032867 0.7835516333580017 5.5321526527404785 46 46 46
-0.17951731383800507 0.2592231333255768 5.606740474700928 44 44 44
-0.1724831759929657 -0.015160242095589638 5.525100231170654 38 38 38
-0.1709403246641159 2.342869520187378 5.726309299468994 47 47 47
-0.15050861239433289 0.36983782052993774 5.591524600982666 1 1 1
-0.15644696354866028 0.5572691559791565 5.654842376708984 55 55 55
-0.1465495228767395 -0.05173113942146301 5.600474834442139 7 7 7
-0.15275582671165466 0.1989727020263672 5.616503715515137 9 9 9
-0.14191529154777527 0.7161881923675537 5.8529744148254395 42 42 42
-0.12684711813926697 -0.4852641522884369 5.685074329376221 23 23 23
-0.12462674081325531 -0.6777982711791992 5.572012424468994 13 13 13
-0.11798128485679626 -0.42907586693763733 5.585586071014404 51 51 51
-0.09310596436262131 -1.11334228515625 5.512905120849609 29 29 29
-0.0799790620803833 0.36308127641677856 5.6849212646484375 29 29 29
-0.08183036744594574 2.336158514022827 5.857204914093018 54 54 54
-0.07383701205253601 -0.3856678903102875 5.630402088165283 56 56 56
-0.0749872624874115 0.2605169713497162 5.717551231384277 42 42 42
-0.07113885879516602 1.7041404247283936 5.70357084274292 47 47 47
-0.06283602863550186 -2.7713191509246826 5.323113441467285 33 33 33
-0.06685473024845123 -1.3469792604446411 5.561336040496826 56 56 56
-0.06500189006328583 2.7815680503845215 5.724318504333496 41 41 41
-0.053831323981285095 -0.12883463501930237 5.631205081939697 42 42 42
-0.04556429013609886 -1.9168376922607422 5.309213161468506 43 43 43
-0.04328000918030739 2.514085292816162 5.93439245223999 9 9 9
-0.04328000918030739 2.514085292816162 5.93439245223999 9 9 9
-0.036381445825099945 -0.10140009969472885 5.7306928634643555 99 99 99
6.590006523765624e-05 1.34397292137146 5.891936779022217 53 53 53
0.003993949852883816 0.031775906682014465 5.771480560302734 40 40 40
0.0011548796901479363 2.7266409397125244 5.987032413482666 3 3 3
0.04048381373286247 1.0079900026321411 5.88223934173584 75 75 75
0.06807786226272583 2.797442674636841 5.868393898010254 46 46 46
0.058262038975954056 1.8872781991958618 5.843425750732422 48 48 48
0.05734216794371605 -0.17427870631217957 5.702713489532471 42 42 42
0.06043819710612297 0.7549259662628174 6.117171287536621 52 52 52
0.06891585886478424 -0.0010120533406734467 5.761508464813232 10 10 10
0.06581788510084152 -0.04072371497750282 5.794857501983643 10 10 10
0.0850682184100151 -0.2686038911342621 5.9211506843566895 7 7 7
0.0886300578713417 1.5751168727874756 5.942073822021484 45 45 45
0.10274800658226013 -2.028186798095703 5.6765522956848145 15 15 15
0.09385543316602707 -0.7054610848426819 5.7693328857421875 15 15 15
0.09580492228269577 -0.3126435875892639 5.78675651550293 91 91 91
0.10584847629070282 3.3067004680633545 5.900559902191162 79 79 79
0.10990256816148758 0.6374125480651855 5.821723461151123 43 43 43
0.11975664645433426 2.858861207962036 6.208764553070068 37 37 37
0.1256902664899826 -1.6956818103790283 5.693798065185547 45 45 45
0.1263115555047989 -1.1492316722869873 5.854195594787598 80 80 80
0.1480463445186615 0.182105153799057 5.8608012199401855 50 50 50
0.15295523405075073 3.2500712871551514 6.067444324493408 48 48 48
0.1528865098953247 -0.2060047686100006 5.793509006500244 39 39 39
0.17195546627044678 2.662252902984619 6.19265079498291 36 36 36
0.16631370782852173 0.9272071123123169 5.845696449279785 39 39 39
0.17963334918022156 3.16491961479187 6.080636024475098 22 22 22
0.191929891705513 0.6517587900161743 5.96476936340332 44 44 44
0.191929891705513 0.6517587900161743 5.96476936340332 44 44 44
0.1920081228017807 0.731380045413971 5.962609767913818 56 56 56
0.2114395648241043 0.000375740957679227 5.866229057312012 42 42 42
0.2116563767194748 0.0035195015370845795 5.864764213562012 41 41 41
0.22053919732570648 0.23405545949935913 5.961942195892334 44 44 44
0.23150962591171265 3.2298877239227295 5.92929220199585 70 70 70
0.23150962591171265 3.2298877239227295 5.92929220199585 70 70 70
0.23778638243675232 1.1975860595703125 6.04323148727417 14 14 14
0.2950788736343384 -0.019618382677435875 5.985318183898926 36 36 36
0.16992489993572235 -0.038491733372211456 3.47406268119812 3 3 3
0.3057421147823334 -2.1769511699676514 5.939653396606445 36 36 36
0.3117600977420807 -2.562446117401123 5.684606075286865 28 28 28
0.3141231834888458 -1.096567988395691 5.880181312561035 47 47 47
0.31969210505485535 -0.9359714388847351 5.906257152557373 51 51 51
0.3427236080169678 2.963503360748291 6.324130535125732 50 50 50
0.3379128575325012 -0.9178726077079773 6.013452053070068 28 28 28
0.3268578350543976 -2.5128328800201416 5.580045223236084 26 26 26
0.3650810420513153 1.3989061117172241 6.420141220092773 40 40 40
0.3413749635219574 -0.9539948105812073 5.938143253326416 7 7 7
0.35734203457832336 1.1223540306091309 6.130064010620117 41 41 41
0.36255863308906555 -1.3279664516448975 5.793708801269531 5 5 5
0.38902541995048523 2.772895336151123 6.372506141662598 33 33 33
0.3951517641544342 0.27376753091812134 6.092187881469727 42 42 42
0.4297812283039093 2.0815036296844482 6.411487102508545 8 8 8
0.4063396751880646 -0.8666606545448303 6.024011611938477 53 53 53
0.41946351528167725 -0.5135828852653503 5.99533748626709 54 54 54
0.46050214767456055 0.2503199875354767 6.278777599334717 43 43 43
0.46330758929252625 -0.60646653175354 6.147439002990723 41 41 41
0.46330758929252625 -0.60646653175354 6.147439002990723 41 41 41
0.469851016998291 0.01923249289393425 6.172111988067627 38 38 38
0.494770348072052 2.9284441471099854 6.447177886962891 54 54 54
0.47948724031448364 2.8699214458465576 6.450489521026611 27 27 27
0.47295859456062317 -0.8238855600357056 6.085094928741455 39 39 39
0.48036301136016846 0.9836872816085815 6.248767852783203 44 44 44
0.5129044651985168 0.5664535760879517 6.286144256591797 2 2 2
0.5092015862464905 -1.4053103923797607 6.217157363891602 17 17 17
0.5186387300491333 -0.559719979763031 6.20626974105835 54 54 54
0.5184053778648376 -0.7334652543067932 6.166342735290527 42 42 42
0.5190448760986328 -0.4799604117870331 6.060896396636963 21 21 21
0.5190448760986328 -0.4799604117870331 6.060896396636963 21 21 21
0.5300664901733398 -0.2807818353176117 6.184706211090088 10 10 10
0.5260623097419739 0.1796477884054184 6.04335355758667 64 64 64
0.5260623097419739 0.1796477884054184 6.04335355758667 64 64 64
0.5610825419425964 -0.6827337145805359 6.429738521575928 59 59 59
0.5450221300125122 0.04125997796654701 6.216439723968506 40 40 40
0.5877057909965515 2.779817581176758 6.506860256195068 37 37 37
0.5913515090942383 2.268267869949341 6.518026351928711 14 14 14
0.6123775839805603 3.2016546726226807 6.546783924102783 29 29 29
0.5661677718162537 -0.002670562593266368 6.116074562072754 39 39 39
0.585947573184967 -0.5309178829193115 6.2001423835754395 52 52 52
0.604401171207428 0.6337869763374329 6.278390407562256 42 42 42
0.608110785484314 -0.5833871960639954 6.289002895355225 38 38 38
0.6336008310317993 2.690584421157837 6.566590785980225 12 12 12
0.6312798857688904 0.253338485956192 6.341020107269287 40 40 40
0.6744730472564697 3.2023868560791016 6.61126708984375 30 30 30
0.672677218914032 3.138644218444824 6.495952606201172 30 30 30
0.6314527988433838 -1.9655673503875732 6.079268932342529 33 33 33
0.6995725035667419 1.5159893035888672 6.932718276977539 35 35 35
0.6594617366790771 3.240481376647949 6.168885231018066 81 81 81
0.7173610925674438 2.642634391784668 6.66873836517334 47 47 47
0.6770328879356384 -2.5275766849517822 6.174896717071533 35 35 35
0.7147442102432251 1.9435138702392578 6.435994625091553 47 47 47
0.7656236886978149 2.5702662467956543 6.630244255065918 50 50 50
0.7870895862579346 2.696493148803711 6.723126411437988 10 10 10
0.7703389525413513 0.6486146450042725 6.482937812805176 38 38 38
0.7695321440696716 -0.20140130817890167 6.4046406745910645 34 34 34
0.7976872324943542 1.2707014083862305 6.568111419677734 42 42 42
0.7312027812004089 3.3317573070526123 6.02421760559082 98 98 98
0.7312027812004089 3.3317573070526123 6.02421760559082 98 98 98
0.7876786589622498 -0.7509073615074158 6.409284591674805 61 61 61
0.8184962272644043 3.0402672290802 6.637325286865234 45 45 45
0.8299357295036316 -0.8861857652664185 6.7678680419921875 49 49 49
0.7834859490394592 -2.5938305854797363 6.19852876663208 31 31 31
0.8307846784591675 2.477977752685547 6.729826927185059 63 63 63
0.8449314832687378 0.014811133034527302 6.589807033538818 36 36 36
0.8232581615447998 3.1949613094329834 6.367338180541992 28 28 28
0.7745054960250854 3.306535005569458 5.9642133712768555 57 57 57
0.8872703313827515 0.2337992936372757 6.802873134613037 40 40 40
0.8685394525527954 0.4236435294151306 6.625837326049805 36 36 36
0.9358686208724976 3.1486282348632812 6.8456711769104 55 55 55
0.9201145768165588 0.34505462646484375 6.617067813873291 13 13 13
0.8732618689537048 -1.6839890480041504 6.1656928062438965 51 51 51
0.8431978821754456 -1.5040727853775024 6.04290246963501 21 21 21
0.9261354804039001 0.5434271693229675 6.621424198150635 14 14 14
0.9343119263648987 1.677710771560669 6.680286884307861 41 41 41
0.9776197075843811 1.5446605682373047 6.8100175857543945 37 37 37
0.994351863861084 3.0251972675323486 6.906244277954102 31 31 31
0.971938967704773 1.7151366472244263 6.66525936126709 45 45 45
0.9983583092689514 3.228262424468994 6.754608154296875 47 47 47
1.0296962261199951 1.1437416076660156 6.816168785095215 47 47 47
0.9160965085029602 3.261566400527954 6.032870769500732 58 58 58
1.0398887395858765 1.2743035554885864 6.8158159255981445 36 36 36
0.9295148253440857 3.2470250129699707 6.068535804748535 103 103 103
1.028641700744629 -0.4227352738380432 6.644824504852295 31 31 31
1.0746996402740479 2.67923903465271 6.888546466827393 36 36 36
1.0224056243896484 -0.8341189622879028 6.50675630569458 30 30 30
1.0265454053878784 -1.11426842212677 6.533275127410889 41 41 41
1.1001890897750854 1.1486629247665405 6.723664283752441 2 2 2
1.0914653539657593 3.1948435306549072 6.696465015411377 47 47 47
1.1326698064804077 1.2314679622650146 6.835680961608887 60 60 60
1.1879087686538696 2.3510243892669678 7.086599826812744 35 35 35
1.2105388641357422 0.8285650014877319 7.027615070343018 35 35 35
1.2307796478271484 1.2650303840637207 6.9830193519592285 40 40 40
1.2848865985870361 3.1205685138702393 7.1601667404174805 32 32 32
1.2482293844223022 0.7788353562355042 6.937694072723389 74 74 74
1.2055771350860596 -2.0488882064819336 6.668981552124023 14 14 14
1.2608728408813477 2.0226714611053467 7.0698137283325195 52 52 52
1.2723658084869385 0.016896672546863556 6.924681186676025 34 34 34
1.2508265972137451 -0.20495186746120453 6.799452781677246 33 33 33
1.1827819347381592 3.3035147190093994 6.41366720199585 102 102 102
1.2875645160675049 0.7154787182807922 6.979755878448486 66 66 66
1.2096922397613525 -1.7274411916732788 6.4092607498168945 17 17 17
1.4074081182479858 2.654724359512329 7.279178619384766 8 8 8
1.4439167976379395 3.3041348457336426 7.456596374511719 62 62 62
1.4396849870681763 1.266750693321228 7.257695198059082 33 33 33
1.4643094539642334 1.3228802680969238 7.287606239318848 37 37 37
1.3937419652938843 -1.4232499599456787 6.869612693786621 43 43 43
1.3718147277832031 -0.39815980195999146 6.671989440917969 30 30 30
1.3063322305679321 3.2421045303344727 6.3339128494262695 85 85 85
1.4566223621368408 -1.1794075965881348 7.0645647048950195 16 16 16
1.5156729221343994 -0.09623745083808899 7.278465747833252 2 2 2
1.570618987083435 2.6372296810150146 7.4207563400268555 17 17 17
1.570618987083435 2.6372296810150146 7.4207563400268555 17 17 17
1.5373109579086304 0.39906278252601624 7.1519317626953125 34 34 34
1.528963327407837 -0.23284386098384857 7.024191856384277 32 32 32
1.575230360031128 -0.2129690796136856 7.184061050415039 34 34 34
1.5602184534072876 0.9905305504798889 7.073455810546875 43 43 43
1.4723191261291504 3.2907514572143555 6.690561294555664 111 111 111
1.6674866676330566 1.0152100324630737 7.412777423858643 65 65 65
1.7040867805480957 -1.9601892232894897 7.574739933013916 19 19 19
1.7026104927062988 3.13927960395813 7.563250541687012 28 28 28
1.6331849098205566 -0.9963309168815613 7.12326192855835 38 38 38
1.5397402048110962 3.2950475215911865 6.684133052825928 54 54 54
1.8164690732955933 3.0598886013031006 8.011990547180176 32 32 32
1.7250216007232666 2.6871094703674316 7.47476863861084 51 51 51
1.7069010734558105 0.9977730512619019 7.321649074554443 38 38 38
1.7551017999649048 2.4686381816864014 7.4983906745910645 35 35 35
1.78921639919281 2.9122793674468994 7.536394119262695 49 49 49
1.826021432876587 2.753251791000366 7.695788860321045 30 30 30
1.826021432876587 2.753251791000366 7.695788860321045 30 30 30
1.7724145650863647 1.9202547073364258 7.457734107971191 55 55 55
1.8093763589859009 1.5719598531723022 7.545047760009766 53 53 53
1.8310290575027466 2.553666830062866 7.517881393432617 6 6 6
1.6505680084228516 3.287335157394409 6.868805885314941 105 105 105
1.7588059902191162 -1.5586483478546143 7.217769622802734 34 34 34
1.9334343671798706 3.0200135707855225 7.959535121917725 47 47 47
1.789259433746338 -2.0676283836364746 7.255229949951172 17 17 17
1.8919620513916016 2.919708013534546 7.654417514801025 53 53 53
1.8907157182693481 -0.36049848794937134 7.546957015991211 42 42 42
1.8884575366973877 1.769379734992981 7.601449489593506 50 50 50
1.9495142698287964 1.2801282405853271 7.571139812469482 52 52 52
2.094348907470703 3.2610528469085693 8.152044296264648 34 34 34
1.840820074081421 3.2212460041046143 7.0727996826171875 76 76 76
2.0648417472839355 3.134874105453491 7.916717529296875 31 31 31
2.112623691558838 2.4739785194396973 8.062226295471191 14 14 14
2.0245563983917236 -0.31169527769088745 7.625810623168945 15 15 15
2.15218448638916 2.365809679031372 8.0687255859375 63 63 63
1.9761238098144531 -0.6594163775444031 7.4007887840271 42 42 42
2.1459097862243652 2.8146800994873047 8.036243438720703 42 42 42
2.1182663440704346 2.5735020637512207 7.920591831207275 37 37 37
2.1077311038970947 2.492448091506958 7.802433967590332 36 36 36
2.1588258743286133 2.59147310256958 7.922246932983398 14 14 14
2.220137596130371 2.8834030628204346 8.04245376586914 54 54 54
2.20485782623291 3.082956314086914 7.971549034118652 26 26 26
1.7983322143554688 3.239722728729248 6.478565216064453 63 63 63
2.251197099685669 2.9288535118103027 8.082536697387695 52 52 52
2.116837978363037 3.4150285720825195 7.533298492431641 97 97 97
1.9411484003067017 3.2268404960632324 6.872707843780518 65 65 65
2.3171427249908447 3.001415252685547 8.122304916381836 28 28 28
1.9793548583984375 -3.8648340702056885 6.917795658111572 49 49 49
2.149235725402832 0.2591370642185211 7.502002716064453 35 35 35
2.299004316329956 2.162001609802246 7.992050647735596 18 18 18
2.286134958267212 -0.5626059174537659 7.842752933502197 41 41 41
2.3486335277557373 3.1320583820343018 8.056770324707031 56 56 56
2.416839361190796 2.869232416152954 8.220163345336914 50 50 50
2.336228609085083 2.405406951904297 7.861897945404053 44 44 44
2.329474687576294 0.91432785987854 7.8222455978393555 12 12 12
2.329474687576294 0.91432785987854 7.8222455978393555 12 12 12
2.329474687576294 0.91432785987854 7.8222455978393555 12 12 12
2.2802462577819824 0.48602691292762756 7.589705944061279 18 18 18
2.2802462577819824 0.48602691292762756 7.589705944061279 18 18 18
2.4805898666381836 2.570560932159424 8.281941413879395 40 40 40
2.4500362873077393 -1.692047357559204 8.087520599365234 18 18 18
1.9744653701782227 3.243283748626709 6.528388977050781 87 87 87
2.4157893657684326 1.172688364982605 7.9210429191589355 42 42 42
2.4523305892944336 -0.3322760760784149 8.063454627990723 17 17 17
2.4389541149139404 -0.7131966352462769 7.926214694976807 58 58 58
2.487043857574463 0.0274963416159153 8.02259635925293 49 49 49
2.478731155395508 3.1816511154174805 8.003833770751953 52 52 52
2.4733200073242188 -0.6757369637489319 7.902750015258789 33 33 33
2.088080644607544 3.2483766078948975 6.656654357910156 75 75 75
2.0910003185272217 3.1545848846435547 6.628621578216553 29 29 29
2.4817326068878174 -0.748120903968811 7.950467586517334 15 15 15
2.632476806640625 2.6175339221954346 8.21878433227539 47 47 47
2.644711494445801 -1.461312174797058 8.117729187011719 40 40 40
2.7281272411346436 -1.3453806638717651 8.269416809082031 43 43 43
2.6767983436584473 1.2224940061569214 8.108677864074707 41 41 41
2.6479456424713135 -0.5832034945487976 8.014749526977539 45 45 45
2.54072904586792 3.0856809616088867 7.457375526428223 101 101 101
2.8452444076538086 0.10436071455478668 8.306112289428711 29 29 29
2.945636510848999 1.0169423818588257 8.563667297363281 39 39 39
2.767263174057007 -1.4785298109054565 7.981163501739502 63 63 63
2.767263174057007 -1.4785298109054565 7.981163501739502 63 63 63
2.2430238723754883 3.2874832153320312 6.451059341430664 64 64 64
2.3258352279663086 3.3669323921203613 6.644294738769531 78 78 78
2.7943241596221924 -1.3637666702270508 7.981316089630127 19 19 19
2.3316521644592285 3.1269452571868896 6.554290294647217 68 68 68
2.992781639099121 -1.9245336055755615 8.4122314453125 35 35 35
2.8255786895751953 3.095576286315918 7.842182159423828 64 64 64
3.03117299079895 1.5656369924545288 8.392539024353027 56 56 56
2.274014711380005 3.2718453407287598 6.298244476318359 59 59 59
3.019103527069092 -1.5884697437286377 8.330223083496094 41 41 41
3.0937297344207764 -0.3865090608596802 8.511631965637207 14 14 14
3.110752582550049 -0.5557432770729065 8.545553207397461 21 21 21
2.853440046310425 3.087841749191284 7.763428688049316 78 78 78
2.9477570056915283 -1.1181597709655762 7.94224739074707 22 22 22
2.7787182331085205 3.2122983932495117 7.295041084289551 63 63 63
1.9896208047866821 0.3512561023235321 5.158381462097168 60 60 60
3.060877561569214 3.2424938678741455 7.879711627960205 79 79 79
3.2178549766540527 -0.7809305787086487 8.266977310180664 70 70 70
0.31548815965652466 2.713247060775757 6.291838645935059 3 3 3
-0.9610441327095032 0.4308335483074188 4.8814263343811035 48 48 48
-0.5640183687210083 -0.48732033371925354 5.194139003753662 116 116 116
-0.32708457112312317 -0.8960517048835754 5.339219570159912 60 60 60
0.6835134625434875 0.5661645531654358 6.401575088500977 27 27 27
0.276142418384552 0.35492846369743347 6.024075508117676 9 9 9
-1.0389906167984009 -0.23173858225345612 4.754148006439209 17 17 17
-1.2583911418914795 -0.44950011372566223 4.596968173980713 131 131 131
-0.18233802914619446 0.783542811870575 5.532097816467285 46 46 46
0.22646842896938324 1.5872639417648315 6.050320148468018 93 93 93
-0.7288153767585754 -1.1026512384414673 4.910177230834961 63 63 63
-1.2583839893341064 -0.4495032727718353 4.5969672203063965 131 131 131
-1.2316277027130127 -0.4408661425113678 4.499454975128174 137 137 137
0.2460697442293167 1.187852144241333 6.058295726776123 92 92 92
-0.6255845427513123 0.6105772852897644 5.227694034576416 5 5 5
-1.5299041271209717 -1.417528748512268 5.488369464874268 0 0 0
-1.0239521265029907 -0.4834788143634796 4.732757091522217 87 87 87
-1.525647759437561 1.0796356201171875 4.444821357727051 36 36 36
0.7258557677268982 -0.08325951546430588 6.41538143157959 30 30 30
-1.2988896369934082 1.3144629001617432 4.7005157470703125 50 50 50
-0.043288297951221466 2.514096260070801 5.934423923492432 11 11 11
-0.45539674162864685 2.1093878746032715 5.558006286621094 2 2 2
-0.5232611894607544 -1.562056303024292 5.118826389312744 28 28 28
0.8347734212875366 1.5324175357818604 6.373769283294678 77 77 77
0.46236470341682434 1.207390546798706 6.2599687576293945 80 80 80
-1.3099637031555176 1.2797974348068237 4.678215980529785 13 13 13
0.4689699411392212 2.717843532562256 6.448205947875977 3 3 3
-0.40134263038635254 0.8075222373008728 5.388466835021973 5 5 5
-1.2723753452301025 1.7445908784866333 4.745602607727051 72 72 72
-0.40637513995170593 0.8136605620384216 5.413845062255859 4 4 4
0.03430204838514328 0.8851027488708496 5.8345842361450195 6 6 6
-0.9336919784545898 2.580939769744873 5.1536335945129395 20 20 20
-0.8694161176681519 1.4763267040252686 5.141486644744873 72 72 72
-0.9336962699890137 2.580960512161255 5.1536688804626465 20 20 20
1.3804121017456055 3.215839385986328 6.502566814422607 87 87 87
-1.2716999053955078 1.0357961654663086 4.565532684326172 122 122 122
-0.4499583840370178 2.32074236869812 5.5959038734436035 123 123 123
-1.3084934949874878 0.856422483921051 4.658520221710205 18 18 18
-0.15098892152309418 0.3698606789112091 5.6056647300720215 1 1 1
-0.6726868748664856 1.680985450744629 5.318117141723633 1 1 1
-0.3887013792991638 0.1499926894903183 5.406081676483154 75 75 75
0.6334660649299622 2.6906378269195557 6.567470550537109 8 8 8
-0.7610539197921753 -1.138182520866394 4.957454204559326 33 33 33
0.9306977391242981 3.361860752105713 6.806704998016357 77 77 77
0.19725078344345093 2.280534505844116 6.133745193481445 12 12 12
-0.8533161878585815 0.8315214514732361 5.042546272277832 10 10 10
-0.7610293626785278 -1.138164758682251 4.9573798179626465 33 33 33
-1.3962184190750122 -0.18357343971729279 4.4109296798706055 81 81 81
-0.8694005012512207 1.4762967824935913 5.14141845703125 72 72 72
-0.14714790880680084 0.17222663760185242 5.597858428955078 38 38 38
-0.5636387467384338 -0.667162299156189 5.14892053604126 52 52 52
-1.076917052268982 0.8372721076011658 4.8793535232543945 47 47 47
0.6054050326347351 3.194236993789673 6.253362655639648 78 78 78
1.077005386352539 3.188390016555786 6.5955586433410645 32 32 32
-1.5002777576446533 0.41185274720191956 4.4423675537109375 55 55 55
1.064129114151001 1.5653321743011475 6.756951808929443 15 15 15
-0.7189472913742065 2.118736505508423 5.307290077209473 90 90 90
1.2608743906021118 2.022690534591675 7.06989049911499 52 52 52
-1.137915849685669 2.36088490486145 4.933966636657715 19 19 19
2.896878242492676 0.2696734368801117 8.095046043395996 97 97 97
-1.5346245765686035 1.2783598899841309 4.486299514770508 67 67 67
-1.2870182991027832 0.010405616834759712 4.601593017578125 9 9 9
-0.3270843029022217 -0.8960530757904053 5.33920955657959 60 60 60
0.383352667093277 2.5068814754486084 6.342358112335205 2 2 2
-1.2708972692489624 -0.014270830899477005 4.591232776641846 24 24 24
-1.353784441947937 -0.20324023067951202 4.409030437469482 80 80 80
-0.24433569610118866 2.3018622398376465 5.734233379364014 3 3 3
-0.21043165028095245 1.4464823007583618 5.667395114898682 2 2 2
-1.0305110216140747 0.19227954745292664 4.776285648345947 17 17 17
-0.35447555780410767 -0.03123703971505165 5.2425761222839355 81 81 81
-1.4831825494766235 -0.03243589401245117 4.354213237762451 65 65 65
0.29563072323799133 -0.06546926498413086 6.042660236358643 3 3 3
-0.6726822257041931 1.6809793710708618 5.318100929260254 1 1 1
-1.0910778045654297 1.080930233001709 4.863709449768066 3 3 3
-0.4433690905570984 2.267993688583374 5.546201705932617 91 91 91
-0.6096848845481873 0.7778595685958862 5.171999454498291 65 65 65
-0.5815272331237793 -0.20304732024669647 5.159865856170654 88 88 88
0.468980073928833 2.7178597450256348 6.4482269287109375 3 3 3
-0.09310805052518845 -1.1133522987365723 5.512917518615723 29 29 29
0.21964967250823975 1.4907429218292236 6.060842990875244 4 4 4
0.6483103632926941 1.4051135778427124 6.417084217071533 3 3 3
-0.47796645760536194 2.5253589153289795 5.51643180847168 13 13 13
0.6485716700553894 1.4100897312164307 6.436496734619141 3 3 3
0.4747520387172699 0.78508460521698 6.24116325378418 3 3 3
0.29149773716926575 -0.25695815682411194 5.9547648429870605 20 20 20
-0.47795912623405457 2.5253355503082275 5.516396999359131 13 13 13
-1.3299450874328613 1.4957911968231201 4.715320110321045 69 69 69
-0.7907356023788452 -0.25161758065223694 4.984821796417236 57 57 57
-1.4936487674713135 0.2060677707195282 4.413459300994873 7 7 7
-1.038920283317566 -0.2317546159029007 4.7539896965026855 17 17 17
-1.2963358163833618 1.0535532236099243 4.652201175689697 142 142 142
-0.19833900034427643 1.0168044567108154 5.614089012145996 9 9 9
0.0011500149266794324 2.726541042327881 5.986870288848877 3 3 3
0.2761422395706177 0.35495051741600037 6.024394512176514 9 9 9
0.039409711956977844 0.792974054813385 5.798875331878662 43 43 43
-1.2006232738494873 0.24043339490890503 4.745811462402344 63 63 63
-0.7576369047164917 -0.4523952603340149 4.901159286499023 51 51 51
-0.229669451713562 1.8789068460464478 5.727205753326416 15 15 15
-1.5613075494766235 -1.2932227849960327 4.611752033233643 121 121 121
-0.6303698420524597 1.0740095376968384 5.223850250244141 110 110 110
-0.1806589812040329 0.7704906463623047 5.637885093688965 107 107 107
-1.171682357788086 0.230315700173378 4.6297993659973145 89 89 89
-0.6832046508789062 2.3307087421417236 5.344645977020264 3 3 3
-1.2787182331085205 0.02122240699827671 4.584731101989746 96 96 96
-0.7926254272460938 -0.42835119366645813 4.973762512207031 3 3 3
-0.9769968390464783 0.4350467622280121 4.9236907958984375 51 51 51
-0.7846053838729858 -1.3922739028930664 5.079959869384766 60 60 60
-1.539912462234497 -1.281976580619812 4.715487003326416 104 104 104
-1.040994644165039 0.26167944073677063 4.792895317077637 119 119 119
-1.4573115110397339 -0.9298326373100281 4.350363731384277 46 46 46
0.04934746026992798 0.6069157719612122 6.127721309661865 16 16 16
-1.3930623531341553 -0.18336589634418488 4.40098762512207 81 81 81
-1.2318471670150757 0.8961008191108704 4.69581937789917 122 122 122
-0.8989772200584412 2.329972267150879 5.168359756469727 76 76 76
-1.528599739074707 1.1081130504608154 4.4490132331848145 26 26 26
-0.9115655422210693 -1.3711968660354614 5.157371997833252 47 47 47
-1.3728500604629517 0.2710215747356415 4.54839563369751 102 102 102
-1.2202725410461426 -0.6908050775527954 4.554076194763184 126 126 126
-0.5409473180770874 2.3165977001190186 5.4764885902404785 52 52 52
0.07488121092319489 0.359945684671402 5.7792067527771 9 9 9
-1.232262372970581 -0.870991587638855 4.533480167388916 87 87 87
-0.3689498007297516 -0.003129035932943225 5.426840305328369 63 63 63
-1.2734228372573853 0.4207691252231598 4.6173906326293945 141 141 141
0.7414804100990295 3.1918551921844482 6.090400218963623 87 87 87
-1.2538671493530273 -0.42397964000701904 4.5858917236328125 22 22 22
0.06685374677181244 0.45804572105407715 5.828240871429443 87 87 87
-0.38900136947631836 0.9838184118270874 5.399673938751221 87 87 87
0.46236300468444824 1.2073862552642822 6.2599382400512695 80 80 80
-0.7762664556503296 1.9664896726608276 5.2283711433410645 96 96 96
-1.327534794807434 -0.35398638248443604 4.457755088806152 40 40 40
-1.204238772392273 0.23650425672531128 4.6093668937683105 109 109 109
-1.3778773546218872 -2.041212320327759 4.31992244720459 65 65 65
-0.523341953754425 -1.5621613264083862 5.119132995605469 28 28 28
-0.12684813141822815 -0.48524466156959534 5.684727668762207 23 23 23
2.259082794189453 1.2837872505187988 7.697946071624756 14 14 14
-0.7323817610740662 -1.124076008796692 5.021134376525879 87 87 87
-1.2944979667663574 -0.38436728715896606 4.506589412689209 47 47 47
-0.4672936499118805 0.18849621713161469 5.341134548187256 3 3 3
0.27188941836357117 0.14287012815475464 5.860905647277832 56 56 56
-0.4257082939147949 1.404713749885559 5.274158954620361 119 119 119
2.4812002182006836 2.6008071899414062 8.259852409362793 3 3 3
-1.5127151012420654 1.1058560609817505 4.470713138580322 119 119 119
-0.8686580061912537 2.141848087310791 5.215423107147217 70 70 70
-1.4749348163604736 0.4336535930633545 4.420804977416992 28 28 28
-0.468238890171051 0.19768112897872925 5.306517124176025 65 65 65
0.9529147744178772 3.1654694080352783 6.578084945678711 77 77 77
1.5175142288208008 0.9479323625564575 7.108286380767822 13 13 13
0.5126344561576843 0.1416597217321396 6.2239089012146 40 40 40
-0.9244213104248047 0.6121417284011841 4.901841163635254 30 30 30
1.5184214115142822 3.276827573776245 7.4287214279174805 92 92 92
-1.0604579448699951 -0.045992668718099594 4.779445648193359 74 74 74
-0.010548662394285202 2.239409923553467 5.8262410163879395 25 25 25
-0.3830515444278717 0.8267489075660706 5.450184345245361 25 25 25
-0.501563310623169 0.36016845703125 5.27371072769165 46 46 46
-0.3301908075809479 0.379131555557251 5.329390048980713 171 171 171
-0.1471400409936905 0.17222058773040771 5.597794055938721 38 38 38
-1.0894711017608643 0.6510557532310486 4.9384684562683105 31 31 31
-1.3099141120910645 1.2797603607177734 4.678062438964844 13 13 13
-0.7610169053077698 -1.1381587982177734 4.957343578338623 18 18 18
-1.539236068725586 0.8643369078636169 4.46989107131958 65 65 65
-0.7610214948654175 -1.1381601095199585 4.957355976104736 33 33 33
-1.4822739362716675 0.8370880484580994 4.370079040527344 110 110 110
-1.4938178062438965 0.20608729124069214 4.413751602172852 7 7 7
-0.35566872358322144 0.4084668457508087 5.4669694900512695 20 20 20
-1.0949254035949707 1.4854531288146973 4.889507293701172 10 10 10
-0.44038766622543335 1.675018548965454 5.531807899475098 3 3 3
-1.5409921407699585 1.5037850141525269 4.486222743988037 22 22 22
-0.22066496312618256 2.0931215286254883 5.778262615203857 2 2 2
-0.17028704285621643 -0.06305146217346191 5.617292404174805 88 88 88
-0.798227071762085 -0.6966947317123413 4.942733287811279 93 93 93
-1.1379388570785522 2.360914707183838 4.934020519256592 19 19 19
-1.3027901649475098 1.0357555150985718 4.671096324920654 99 99 99
-1.0355018377304077 0.379533976316452 4.816032409667969 106 106 106
-0.7875465750694275 -0.688086211681366 5.001465320587158 75 75 75
-1.483136534690857 -0.03311595320701599 4.354109764099121 65 65 65
-0.8207276463508606 0.40639394521713257 4.9915690422058105 16 16 16
0.06581147015094757 -0.04071192070841789 5.7949347496032715 10 10 10
0.6483080387115479 1.40509831905365 6.417029857635498 3 3 3
-0.043282486498355865 2.5140678882598877 5.934366226196289 11 11 11
-0.5636183023452759 -0.6671394109725952 5.148839950561523 52 52 52
-1.273411512374878 0.4207591712474823 4.617365837097168 141 141 141
-1.5002809762954712 0.4118551015853882 4.442373275756836 55 55 55
-0.6832261681556702 2.3307247161865234 5.344696998596191 3 3 3
-0.40031999349594116 0.991840124130249 5.4501872062683105 94 94 94
-0.19832606613636017 1.0167803764343262 5.613960266113281 9 9 9
-0.8307053446769714 -0.46195629239082336 4.906492233276367 15 15 15
-0.5588534474372864 -0.48545753955841064 5.169892311096191 107 107 107
-0.08589212596416473 -0.6459883451461792 5.309102535247803 16 16 16
-0.6831982731819153 2.3306996822357178 5.344624042510986 3 3 3
-0.8694174885749817 1.4763209819793701 5.141481876373291 72 72 72
0.2761431634426117 0.35495129227638245 6.02440881729126 9 9 9
-1.551877737045288 1.2992013692855835 4.541342258453369 115 115 115
-0.6707470417022705 2.1165051460266113 5.374112606048584 73 73 73
-1.2583868503570557 -0.44949883222579956 4.596972465515137 131 131 131
-0.7207615971565247 1.668426752090454 5.236942768096924 3 3 3
-0.9337086081504822 2.580963611602783 5.153680324554443 20 20 20
-0.6491163372993469 1.6430532932281494 5.302064418792725 86 86 86
-1.5441808700561523 1.285897135734558 4.459705829620361 63 63 63
2.275176525115967 1.293260097503662 7.751940727233887 14 14 14
-1.270935297012329 -0.014260808005928993 4.591285228729248 24 24 24
-0.8866531252861023 2.289323091506958 5.1293253898620605 91 91 91
-1.2612651586532593 -0.26629120111465454 4.586472988128662 7 7 7
-0.5800215005874634 0.3609178960323334 5.184971332550049 54 54 54
-0.47797760367393494 2.525394916534424 5.51648473739624 13 13 13
0.0011367968982085586 2.7266483306884766 5.9870781898498535 3 3 3
-0.6255874633789062 0.6105575561523438 5.227676868438721 5 5 5
-0.8989431858062744 2.3299055099487305 5.168198108673096 76 76 76
-0.9336625933647156 2.780081033706665 5.197202205657959 1 1 1
-0.5765203237533569 0.1801789551973343 5.109315872192383 73 73 73
-0.21379584074020386 1.6433905363082886 5.676387310028076 3 3 3
-0.720046877861023 -2.022655487060547 4.9029765129089355 38 38 38
-0.5558528900146484 -2.016469717025757 5.078865051269531 48 48 48
-0.6303704977035522 1.0740160942077637 5.22385835647583 110 110 110
-0.7684350609779358 -1.5806331634521484 4.98077392578125 30 30 30
-1.3960285186767578 -0.18353325128555298 4.410304069519043 81 81 81
0.2329738289117813 3.2418174743652344 6.091019153594971 49 49 49
-1.5548113584518433 -1.2906360626220703 4.759244441986084 63 63 63
-0.7350194454193115 -1.3459261655807495 4.95229959487915 5 5 5
1.8834208250045776 3.2312209606170654 7.0301971435546875 60 60 60
-0.581525444984436 -0.2030661702156067 5.159860134124756 88 88 88
-0.9115723967552185 -1.3712068796157837 5.157402992248535 47 47 47
-0.45627954602241516 2.372788906097412 5.709554195404053 131 131 131
-0.15445904433727264 0.1947074979543686 5.613995552062988 7 7 7
-0.834851861000061 -0.20806291699409485 4.9318156242370605 19 19 19
-1.3930504322052002 -0.18337205052375793 4.400918006896973 81 81 81
