ply
format ascii 1.0
element vertex 724
property float x
property float y
property float z
property uchar red
property uchar green
property uchar blue
end_header
0.22340629994869232 -0.04856745898723602 4.73155403137207 39 39 39
0.22421060502529144 -0.048466507345438004 4.725576877593994 40 40 40
0.22362783551216125 -0.9803416728973389 4.641716480255127 48 48 48
0.22996516525745392 0.7802717685699463 4.9473557472229 120 120 120
0.22761943936347961 -1.810017466545105 4.549429893493652 10 10 10
0.22761943936347961 -1.810017466545105 4.549429893493652 10 10 10
0.23418086767196655 -2.338188409805298 4.445846080780029 15 15 15
0.25367915630340576 0.008585931733250618 4.777248859405518 31 31 31
0.2560405731201172 0.01096700131893158 4.758105278015137 31 31 31
0.2491910755634308 -2.3523976802825928 4.525327682495117 23 23 23
0.2811497747898102 1.388171911239624 4.878138542175293 44 44 44
0.2495451122522354 -2.38250470161438 4.464579105377197 25 25 25
0.26907914876937866 -0.4004693329334259 4.703415870666504 32 32 32
0.26439061760902405 -0.9760310649871826 4.639077186584473 39 39 39
0.265999436378479 -1.7900341749191284 4.562276363372803 30 30 30
0.2730451226234436 -0.5972533822059631 4.692933559417725 50 50 50
0.3102355897426605 2.2620925903320312 5.0058274269104 35 35 35
0.3186705410480499 2.4727118015289307 5.048061847686768 36 36 36
0.3028816878795624 -0.6348146200180054 4.7465691566467285 40 40 40
0.3370285928249359 2.574889898300171 5.083625316619873 41 41 41
0.33692172169685364 1.7583966255187988 5.084444522857666 4 4 4
0.3215295970439911 1.0565353631973267 4.835323810577393 36 36 36
0.34047502279281616 1.254274606704712 4.8798747062683105 35 35 35
0.30883675813674927 -1.2208665609359741 4.675992965698242 12 12 12
0.3524342477321625 2.6146624088287354 5.073980808258057 35 35 35
0.32816648483276367 -1.7995187044143677 4.645520210266113 24 24 24
0.3776487112045288 2.397294521331787 5.112266540527344 9 9 9
0.3560977578163147 0.2846938371658325 4.825292110443115 35 35 35
0.3427417278289795 -1.6027530431747437 4.623434066772461 18 18 18
0.3632858097553253 0.578564465045929 4.890720844268799 31 31 31
0.3635045289993286 0.4847605228424072 4.890738487243652 33 33 33
0.35977891087532043 -0.7179899215698242 4.736593723297119 50 50 50
0.3753628432750702 -0.4484562277793884 4.794583320617676 49 49 49
0.3799594044685364 -1.7979289293289185 4.671616554260254 25 25 25
0.3856421709060669 -0.8658670783042908 4.7562456130981445 35 35 35
0.4245086908340454 0.25491008162498474 4.883505344390869 35 35 35
0.4176179766654968 -0.5159281492233276 4.779636859893799 35 35 35
0.44595521688461304 0.3851253092288971 4.9014129638671875 45 45 45
0.47867387533187866 1.6025124788284302 5.098193645477295 40 40 40
0.4779030382633209 0.16194570064544678 4.949855804443359 36 36 36
0.4802592992782593 -0.4196588695049286 4.914689064025879 10 10 10
0.4778952896595001 0.1619504690170288 4.949972629547119 36 36 36
0.47341352701187134 -0.8205904364585876 4.767767429351807 22 22 22
0.5119726657867432 0.9358929395675659 5.027005672454834 8 8 8
0.5077255964279175 0.20979999005794525 5.140206813812256 56 56 56
0.524555504322052 1.0808998346328735 5.0627336502075195 39 39 39
0.5066632628440857 -0.39743122458457947 4.881807804107666 36 36 36
0.5253333449363708 0.028134284541010857 4.926971435546875 34 34 34
0.5145516991615295 -1.5864765644073486 4.77207088470459 40 40 40
0.5738011598587036 2.6174769401550293 5.239462852478027 32 32 32
0.5438560843467712 -0.45741885900497437 4.918890476226807 48 48 48
0.6067867875099182 2.579789400100708 5.300480842590332 45 45 45
0.560144305229187 -0.49336957931518555 4.887653350830078 32 32 32
0.5392568707466125 -1.5938880443572998 4.776817321777344 21 21 21
0.5925477147102356 0.26639679074287415 5.00015926361084 35 35 35
0.6244463920593262 1.5150628089904785 5.184471607208252 9 9 9
0.6521859765052795 2.555884599685669 5.322761058807373 65 65 65
0.6236087679862976 -0.06860581785440445 4.953678131103516 62 62 62
0.6640352010726929 0.7518557906150818 5.167377948760986 52 52 52
0.6054861545562744 -2.210325002670288 4.713475227355957 27 27 27
0.7124705910682678 2.6779251098632812 5.479853630065918 29 29 29
0.6998056769371033 2.216000556945801 5.340478420257568 33 33 33
0.6423758864402771 -1.5208942890167236 4.896731853485107 28 28 28
0.7005957961082458 2.461775779724121 5.318320274353027 42 42 42
0.698665976524353 1.8741530179977417 5.275143623352051 44 44 44
0.6564158797264099 -1.2508026361465454 4.911145210266113 24 24 24
0.6564158797264099 -1.2508026361465454 4.911145210266113 24 24 24
0.6866859793663025 -0.04265918210148811 5.0635294914245605 51 51 51
0.7134103178977966 2.6347875595092773 5.347990036010742 31 31 31
0.7556346654891968 3.1104488372802734 5.555607318878174 27 27 27
0.7376148700714111 1.4420758485794067 5.202752113342285 31 31 31
0.7376148700714111 1.4420758485794067 5.202752113342285 31 31 31
0.7713806629180908 2.486199378967285 5.463942527770996 51 51 51
0.7258110046386719 -0.1526544839143753 5.050631999969482 29 29 29
0.7217181921005249 -1.6295689344406128 4.888424873352051 31 31 31
0.7343173623085022 -1.205568552017212 4.836556434631348 28 28 28
0.7343173623085022 -1.205568552017212 4.836556434631348 28 28 28
0.7603926658630371 -0.7207403182983398 5.005141735076904 44 44 44
0.8211879730224609 2.7919962406158447 5.451359272003174 49 49 49
0.8180689215660095 2.330186367034912 5.4029412269592285 50 50 50
0.8352655172348022 1.9098331928253174 5.35577392578125 28 28 28
0.830265462398529 2.466334104537964 5.415679454803467 35 35 35
0.8447203040122986 2.4061784744262695 5.582008361816406 77 77 77
0.7988796234130859 0.04618352651596069 5.128922939300537 32 32 32
0.8482890129089355 0.24222436547279358 5.263350963592529 35 35 35
0.8961946964263916 2.3484444618225098 5.4599432945251465 29 29 29
0.8240239024162292 -1.5217242240905762 4.951145172119141 38 38 38
0.9394572377204895 2.9991037845611572 5.587411403656006 48 48 48
0.8890707492828369 0.3515481650829315 5.270078182220459 10 10 10
0.9091923832893372 1.586020588874817 5.349599361419678 37 37 37
0.9438279867172241 2.403916835784912 5.535572052001953 31 31 31
0.9601498246192932 2.6518521308898926 5.558394908905029 50 50 50
0.9488953351974487 1.441409945487976 5.3966898918151855 32 32 32
0.9247584342956543 -0.38638511300086975 5.170567035675049 66 66 66
0.9918020963668823 2.4429800510406494 5.532622814178467 46 46 46
0.9097636342048645 -1.4316515922546387 5.117447853088379 33 33 33
0.9023195505142212 -2.291461229324341 4.950915336608887 27 27 27
1.0102643966674805 2.117190361022949 5.5294623374938965 69 69 69
0.93523108959198 -0.8044376373291016 5.128172874450684 28 28 28
0.9968674182891846 1.0743393898010254 5.390380859375 41 41 41
1.0456337928771973 2.322791576385498 5.591897487640381 17 17 17
1.009063959121704 1.2005716562271118 5.395034313201904 31 31 31
0.9633209109306335 -0.7158989906311035 5.137463092803955 23 23 23
0.9784711599349976 -0.34721478819847107 5.211785793304443 26 26 26
0.9981103539466858 0.16055281460285187 5.287689685821533 65 65 65
0.9718800783157349 -0.735684335231781 5.1446003913879395 26 26 26
0.9755174517631531 -0.9857680797576904 5.155893325805664 36 36 36
1.0456931591033936 2.322924852371216 5.592216491699219 17 17 17
1.0340131521224976 0.9055695533752441 5.415200233459473 33 33 33
1.052921175956726 1.2898551225662231 5.37607479095459 7 7 7
1.052921175956726 1.2898551225662231 5.37607479095459 7 7 7
1.0857791900634766 2.2698519229888916 5.617583274841309 49 49 49
0.9990407824516296 -0.8363733291625977 5.148929595947266 32 32 32
0.9946171641349792 -1.6036934852600098 5.085137367248535 15 15 15
1.0106279850006104 -0.8553095459938049 5.159162521362305 36 36 36
1.1197586059570312 0.8972549438476562 5.699180603027344 38 38 38
1.145646333694458 2.9403581619262695 5.723365306854248 41 41 41
1.1514296531677246 1.1458332538604736 5.550552845001221 52 52 52
1.1896493434906006 2.35345458984375 5.671915531158447 34 34 34
1.1064972877502441 -0.42663466930389404 5.357933044433594 5 5 5
1.1411406993865967 0.23721382021903992 5.418612003326416 42 42 42
1.0537713766098022 -1.5560741424560547 4.997387886047363 16 16 16
1.195806622505188 2.748037099838257 5.656154155731201 43 43 43
1.1522029638290405 0.7727992534637451 5.4207024574279785 33 33 33
1.2003337144851685 1.6158764362335205 5.607545375823975 39 39 39
1.2534873485565186 1.9176281690597534 5.704417705535889 67 67 67
1.2115017175674438 0.748195469379425 5.4911041259765625 68 68 68
1.195946216583252 -0.15467089414596558 5.33912467956543 28 28 28
1.2539335489273071 0.6894280910491943 5.539005756378174 58 58 58
1.240590214729309 0.5809036493301392 5.4937214851379395 56 56 56
1.244118571281433 0.15619948506355286 5.467283248901367 52 52 52
1.1895976066589355 -1.8058871030807495 5.2232465744018555 13 13 13
1.2977064847946167 0.6209545135498047 5.539724826812744 31 31 31
1.3233312368392944 0.5285659432411194 5.579275131225586 5 5 5
1.3230332136154175 0.33420905470848083 5.538447380065918 9 9 9
1.3297756910324097 0.8188709020614624 5.552557468414307 31 31 31
1.3302992582321167 0.1409848928451538 5.534985542297363 30 30 30
1.3216352462768555 -0.8389742374420166 5.423239231109619 18 18 18
1.3612288236618042 0.3598061203956604 5.541906356811523 31 31 31
1.3316471576690674 -0.7945766448974609 5.410305023193359 30 30 30
1.3092682361602783 -2.327608346939087 5.2312846183776855 12 12 12
1.4306058883666992 -1.4704593420028687 5.622367858886719 20 20 20
1.490903377532959 1.0425257682800293 5.726142406463623 11 11 11
1.3884505033493042 -1.5921458005905151 5.378220558166504 19 19 19
1.4147120714187622 -0.7821452021598816 5.40475606918335 35 35 35
1.5015935897827148 0.5292602777481079 5.6665263175964355 21 21 21
1.4761346578598022 -1.1848911046981812 5.489020347595215 33 33 33
1.4193975925445557 -1.749025821685791 5.273202896118164 18 18 18
1.5136719942092896 -0.15696921944618225 5.60878324508667 29 29 29
1.6144077777862549 2.004596471786499 5.977210998535156 33 33 33
1.5649200677871704 0.9787997603416443 5.792201042175293 37 37 37
1.6112871170043945 0.9487118721008301 5.787905216217041 59 59 59
1.6525332927703857 1.3134821653366089 5.844092845916748 31 31 31
1.5911216735839844 -1.0069458484649658 5.587963581085205 20 20 20
1.5911216735839844 -1.0069458484649658 5.587963581085205 20 20 20
1.7374684810638428 0.9483617544174194 5.953701972961426 33 33 33
1.6091527938842773 -1.8008809089660645 5.509576320648193 10 10 10
1.7859820127487183 1.8487857580184937 6.076145648956299 56 56 56
1.709457278251648 0.5419169068336487 5.815215110778809 56 56 56
1.7152608633041382 0.6694561243057251 5.81925106048584 34 34 34
1.6564565896987915 -1.2192972898483276 5.614262580871582 12 12 12
1.7261167764663696 0.49937137961387634 5.848258972167969 32 32 32
1.7265100479125977 1.0123515129089355 5.806956768035889 33 33 33
1.658293604850769 -1.3452781438827515 5.542792797088623 32 32 32
1.742204189300537 0.1274225115776062 5.78489351272583 10 10 10
1.623578667640686 -0.9564237594604492 5.365636825561523 15 15 15
1.8421965837478638 1.3313273191452026 6.016626358032227 37 37 37
1.715592622756958 -1.1961168050765991 5.576656818389893 13 13 13
1.8215835094451904 1.3021239042282104 5.916018962860107 38 38 38
1.9088852405548096 1.2892613410949707 6.0798821449279785 7 7 7
1.789438247680664 -0.655487596988678 5.679419994354248 32 32 32
1.8862971067428589 -1.3942372798919678 5.963109016418457 31 31 31
1.8052712678909302 -1.195226788520813 5.680588722229004 19 19 19
1.8355799913406372 -1.2007921934127808 5.64533805847168 16 16 16
1.9313948154449463 -0.23538000881671906 5.8791823387146 11 11 11
1.956470012664795 0.18185332417488098 5.943413734436035 45 45 45
1.950210690498352 -0.4557454288005829 5.873570919036865 35 35 35
2.023905038833618 -1.2228938341140747 5.838461875915527 12 12 12
2.10768723487854 0.008251717314124107 6.028047561645508 30 30 30
2.2047982215881348 0.18225079774856567 6.155150890350342 40 40 40
2.1617634296417236 -0.8625761270523071 6.034543514251709 34 34 34
2.1896159648895264 0.05416356399655342 6.086298942565918 48 48 48
2.189791440963745 -0.42721742391586304 6.096851825714111 13 13 13
2.1643192768096924 -0.793516218662262 5.9859185218811035 35 35 35
2.1737921237945557 -1.0065720081329346 5.96509313583374 23 23 23
1.6304564476013184 1.213914155960083 4.244208812713623 45 45 45
0.2730526328086853 -0.5972647070884705 4.692963123321533 50 50 50
0.4712957739830017 0.35262447595596313 4.916411399841309 13 13 13
0.4706490635871887 0.3531875014305115 4.909121513366699 13 13 13
-1.3232507705688477 0.205464705824852 3.6865453720092773 19 19 19
0.81805819272995 2.3301522731781006 5.402870178222656 50 50 50
-1.088352918624878 0.2060859203338623 3.815133571624756 59 59 59
-1.3138123750686646 -0.21072891354560852 3.647871732711792 114 114 114
-0.9146720767021179 1.7933541536331177 4.1355881690979 2 2 2
-0.7158194780349731 2.201498508453369 4.305168628692627 11 11 11
-1.1268733739852905 1.0107520818710327 3.8909144401550293 107 107 107
-0.6061742305755615 -0.8052042126655579 4.076152324676514 117 117 117
-0.3858363628387451 -0.22324851155281067 4.295386791229248 64 64 64
0.23615027964115143 0.5736464858055115 4.797691822052002 18 18 18
0.20902439951896667 0.569836437702179 4.823080539703369 32 32 32
-0.6868664622306824 0.21372322738170624 4.102548122406006 22 22 22
-1.2995058298110962 0.842654287815094 3.755038022994995 24 24 24
-0.1030467227101326 0.37579378485679626 4.546771049499512 90 90 90
0.3020072877407074 2.5623533725738525 5.083007335662842 2 2 2
0.3091210126876831 2.621856689453125 5.200340747833252 54 54 54
-1.1410822868347168 1.9765563011169434 3.9586031436920166 86 86 86
-1.1572842597961426 1.9894756078720093 3.983145236968994 101 101 101
-0.8431463241577148 -0.20750010013580322 3.9772403240203857 14 14 14
-0.5165432095527649 0.36458325386047363 4.238431453704834 104 104 104
-0.3750942647457123 -0.7943220138549805 4.21907901763916 29 29 29
0.37508153915405273 2.5074119567871094 5.099616527557373 44 44 44
-0.3481300175189972 -0.7979613542556763 4.240908145904541 64 64 64
-0.6383653283119202 0.36848127841949463 4.194572448730469 31 31 31
0.46689215302467346 2.6157660484313965 5.320982933044434 49 49 49
-0.7114850282669067 1.8040049076080322 4.290214538574219 4 4 4
-0.4852709174156189 2.171562671661377 4.456502437591553 40 40 40
-0.45579129457473755 2.184378147125244 4.497074604034424 107 107 107
-0.4738416075706482 2.1757938861846924 4.487818717956543 76 76 76
0.4166714549064636 2.130378007888794 5.101868629455566 64 64 64
-0.49294793605804443 0.2122657299041748 4.263190746307373 124 124 124
-1.1024175882339478 -1.8481241464614868 3.6315195560455322 29 29 29
-0.754137396812439 1.539290428161621 4.195336818695068 140 140 140
0.05039695277810097 -0.23123449087142944 4.601016521453857 76 76 76
-0.5962259769439697 0.20805028080940247 4.170264720916748 28 28 28
0.6242342591285706 2.540069103240967 5.295353889465332 10 10 10
-0.5391711592674255 -0.6209990382194519 4.118858337402344 58 58 58
0.014635204337537289 0.15487968921661377 4.68835973739624 39 39 39
-0.26438045501708984 2.2007625102996826 4.639512062072754 5 5 5
-1.370496392250061 1.791156530380249 3.7967188358306885 65 65 65
-0.41876021027565 0.3940100073814392 4.317153453826904 125 125 125
-0.8585180044174194 0.1895078718662262 4.00724983215332 8 8 8
-0.27244916558265686 2.183799982070923 4.640878677368164 8 8 8
-0.760538637638092 1.5159242153167725 4.203897953033447 77 77 77
0.4166802763938904 2.1304807662963867 5.102072238922119 64 64 64
-0.5618609189987183 -1.8180935382843018 4.026312351226807 57 57 57
-1.3185640573501587 0.4136556386947632 3.660627603530884 124 124 124
-1.1005083322525024 -0.18961679935455322 3.8064379692077637 17 17 17
0.29885709285736084 -0.8249035477638245 4.694821834564209 21 21 21
-0.19198951125144958 -0.19677171111106873 4.419449329376221 3 3 3
-0.5589513778686523 1.3972567319869995 4.386636257171631 110 110 110
-0.6961020827293396 1.9830362796783447 4.295713424682617 53 53 53
-0.19197534024715424 -0.19676509499549866 4.419393062591553 3 3 3
0.6520456075668335 0.5562929511070251 5.10445499420166 8 8 8
-0.7639832496643066 -1.6234254837036133 3.8804831504821777 11 11 11
-0.62095707654953 0.18683092296123505 4.1550068855285645 2 2 2
-0.7038836479187012 1.9594801664352417 4.292382717132568 102 102 102
-0.5585700869560242 0.1899171620607376 4.250870227813721 8 8 8
-1.1163372993469238 1.0439527034759521 3.845909833908081 70 70 70
-1.0173628330230713 0.42989397048950195 3.9169435501098633 92 92 92
-0.5720739364624023 -1.6336188316345215 4.0128302574157715 53 53 53
-1.0028871297836304 1.832697868347168 4.063459873199463 86 86 86
0.24891895055770874 0.16903986036777496 4.77358341217041 3 3 3
-0.4856659770011902 0.18874791264533997 4.24810791015625 36 36 36
-0.3645690977573395 -0.6922100186347961 4.245992183685303 94 94 94
-1.0173910856246948 0.42989951372146606 3.916990280151367 92 92 92
-1.2909339666366577 -0.6047080159187317 3.67211651802063 57 57 57
1.2714228630065918 2.070263147354126 5.709256649017334 66 66 66
0.6105230450630188 2.166515588760376 5.323421955108643 2 2 2
0.6399425268173218 1.907302975654602 5.2568278312683105 66 66 66
-1.0336321592330933 1.6226125955581665 3.996264934539795 107 107 107
-0.544163167476654 0.5645783543586731 4.273404598236084 56 56 56
-0.9927451014518738 0.7970393896102905 3.955444574356079 10 10 10
1.6992545127868652 1.088688850402832 5.844993591308594 10 10 10
1.2764960527420044 2.381115198135376 5.907346248626709 42 42 42
0.687519907951355 -0.0420912466943264 5.069796562194824 51 51 51
-1.139583945274353 1.5800082683563232 3.942338466644287 82 82 82
0.6866966485977173 -0.04264764487743378 5.063731670379639 51 51 51
-0.9080293774604797 1.2353603839874268 4.089472770690918 4 4 4
-1.2758831977844238 0.246967151761055 3.7064568996429443 94 94 94
-1.293131709098816 -0.7805930972099304 3.600931167602539 64 64 64
1.0919487476348877 0.704399049282074 5.438991069793701 60 60 60
0.0009987435769289732 0.8572725653648376 4.683442115783691 11 11 11
-1.2913742065429688 0.8627991080284119 3.7780816555023193 118 118 118
-0.3481252193450928 -0.7979549765586853 4.240900993347168 64 64 64
-0.45127391815185547 0.79346764087677 4.367654323577881 7 7 7
-0.45128363370895386 0.7934672236442566 4.367703437805176 7 7 7
-1.3852006196975708 -1.248702049255371 4.105020999908447 174 174 174
-0.44436222314834595 0.7796642184257507 4.299182891845703 9 9 9
-0.9373036623001099 2.206038475036621 4.177819728851318 33 33 33
0.6866849064826965 -0.042658835649490356 5.0636138916015625 51 51 51
-0.9465989470481873 2.2076478004455566 4.149808406829834 132 132 132
0.24890775978565216 -0.05141783133149147 4.753382205963135 78 78 78
-0.020101767033338547 2.6247830390930176 4.930828094482422 35 35 35
1.0689339637756348 1.7029742002487183 5.530632495880127 79 79 79
-0.002313924254849553 1.199215292930603 4.814135551452637 3 3 3
-0.16499285399913788 1.4178155660629272 4.600815296173096 24 24 24
-0.5086911916732788 2.4346892833709717 4.478649616241455 13 13 13
0.21582306921482086 1.1320379972457886 4.851017951965332 67 67 67
-0.446095734834671 1.3587583303451538 4.421603202819824 96 96 96
-0.0023279853630810976 1.152020812034607 4.627330303192139 59 59 59
-0.2325732409954071 0.7685302495956421 4.482661724090576 42 42 42
0.26034414768218994 -0.026581216603517532 4.776435852050781 9 9 9
-1.1016432046890259 -0.017844216898083687 3.826775550842285 74 74 74
-0.25250017642974854 1.742740273475647 4.520066738128662 61 61 61
0.8347653150558472 2.082758665084839 5.395624160766602 83 83 83
0.2821817100048065 -0.41934889554977417 4.687801837921143 81 81 81
1.4916502237319946 0.9146079421043396 5.693485260009766 11 11 11
-0.24314120411872864 -0.39185622334480286 4.317238807678223 34 34 34
-0.3914753198623657 -0.39332976937294006 4.276648044586182 16 16 16
-1.3639498949050903 -0.3350180983543396 3.607938528060913 29 29 29
-0.7687061429023743 -0.9965618252754211 3.9292335510253906 81 81 81
-0.7540539503097534 -1.0000171661376953 3.954660654067993 13 13 13
0.027219148352742195 -0.00407677935436368 4.606733798980713 1 1 1
-0.9080722332000732 1.2353945970535278 4.089572429656982 4 4 4
-1.2381234169006348 -0.35588565468788147 3.747643232345581 28 28 28
-1.3639527559280396 -0.3350168764591217 3.607947587966919 29 29 29
-0.63356614112854 -0.008723118342459202 4.149988174438477 11 11 11
-0.18601368367671967 -0.4218551814556122 4.412186145782471 87 87 87
-0.0444110743701458 1.1924408674240112 4.703184604644775 105 105 105
-0.912073016166687 -0.38805511593818665 3.9047560691833496 116 116 116
-0.916995644569397 -0.38602837920188904 3.886744499206543 10 10 10
-0.2446313202381134 1.380768060684204 4.568553924560547 3 3 3
0.4440940022468567 0.7559992671012878 4.976360321044922 4 4 4
-0.8539023399353027 0.009696432389318943 3.9343438148498535 44 44 44
-0.24694550037384033 1.557329535484314 4.558943271636963 69 69 69
-1.2260278463363647 -0.3745567798614502 3.6480748653411865 38 38 38
-1.3194671869277954 0.5464701056480408 3.7036802768707275 126 126 126
-1.0606169700622559 -0.8585928082466125 3.78322172164917 9 9 9
-0.14414183795452118 -0.9980265498161316 4.3731369972229 40 40 40
-1.170219898223877 0.9803704619407654 3.8303308486938477 111 111 111
-0.9080685973167419 1.2353821992874146 4.0895514488220215 4 4 4
-1.0565358400344849 -0.3996686637401581 3.795600414276123 49 49 49
-0.24767683446407318 1.5780003070831299 4.631429195404053 28 28 28
-0.7787413001060486 0.023437436670064926 4.035708904266357 41 41 41
-1.3060343265533447 -0.3910229206085205 3.6459596157073975 140 140 140
-1.1561055183410645 -0.3892681300640106 3.6684229373931885 126 126 126
-1.0774248838424683 0.241796612739563 3.7994751930236816 76 76 76
0.6591886281967163 0.720319390296936 5.116264820098877 71 71 71
0.6547154784202576 0.7144977450370789 5.110066890716553 100 100 100
0.6561281085014343 1.3574321269989014 5.2488226890563965 105 105 105
-1.293115496635437 -0.7805774807929993 3.6009137630462646 64 64 64
-1.185041069984436 -0.7924599051475525 3.6620209217071533 67 67 67
0.6277578473091125 1.348437786102295 5.187424659729004 4 4 4
-0.46320533752441406 0.9557636380195618 4.358209133148193 67 67 67
1.3045039176940918 0.7285824418067932 5.558803558349609 2 2 2
-0.22595778107643127 0.5817037224769592 4.4668378829956055 94 94 94
-0.4364453852176666 0.563231885433197 4.329357147216797 98 98 98
-1.3175560235977173 -0.41328784823417664 3.603586435317993 60 60 60
-0.19952331483364105 0.5712395906448364 4.4525227546691895 86 86 86
-1.325273871421814 0.2499190866947174 3.704848051071167 20 20 20
-1.3252662420272827 0.2499302178621292 3.704828977584839 20 20 20
-0.16666829586029053 -0.5902745127677917 4.389581203460693 19 19 19
-0.1383509635925293 -0.6056870222091675 4.484475135803223 73 73 73
-0.540198028087616 1.572745442390442 4.367691516876221 1 1 1
0.1023297980427742 -1.5911933183670044 4.470322608947754 38 38 38
-0.45757779479026794 -1.2112661600112915 4.140718460083008 29 29 29
0.5948638319969177 2.1117031574249268 5.19713020324707 49 49 49
0.4375976026058197 1.1562244892120361 5.034440517425537 101 101 101
-1.2969990968704224 -0.21432840824127197 3.6470234394073486 22 22 22
-1.317568063735962 -0.2116125524044037 3.6566848754882812 116 116 116
0.6866874098777771 -0.04265845566987991 5.063536643981934 51 51 51
-0.894851565361023 -0.1656373292207718 3.959294319152832 18 18 18
-0.18892018496990204 0.1884860247373581 4.473773002624512 19 19 19
-0.6690842509269714 0.5975013375282288 4.18781852722168 3 3 3
-1.2314403057098389 0.2345615178346634 3.7492780685424805 5 5 5
-0.06778066605329514 2.4105684757232666 4.867880821228027 27 27 27
-0.435472697019577 0.5628198385238647 4.326393127441406 98 98 98
-0.613987386226654 -0.5891030430793762 4.091620445251465 22 22 22
0.1448526531457901 2.5757360458374023 4.977902412414551 9 9 9
-0.8942135572433472 1.1990708112716675 4.084221839904785 156 156 156
-0.6675907969474792 1.1563575267791748 4.228250026702881 77 77 77
-0.6379008293151855 -0.1876727044582367 4.091297626495361 18 18 18
-1.2931177616119385 -0.7805789709091187 3.600916862487793 64 64 64
-1.1027387380599976 -0.16635937988758087 3.790285348892212 113 113 113
-0.25251996517181396 1.7381500005722046 4.512348175048828 57 57 57
-0.25699207186698914 1.7733416557312012 4.599777698516846 13 13 13
0.27304357290267944 -0.5972557663917542 4.692946910858154 50 50 50
-0.8893642425537109 -0.4016558527946472 3.9175913333892822 17 17 17
-0.8934211134910583 -0.3871477246284485 3.8685555458068848 66 66 66
-0.166663259267807 -0.5902740359306335 4.3895392417907715 19 19 19
-1.3402291536331177 1.1977697610855103 3.6953952312469482 72 72 72
0.273049533367157 -0.597267210483551 4.692987442016602 50 50 50
0.4493807256221771 1.310272455215454 5.016769886016846 50 50 50
0.6413253545761108 0.9469752311706543 5.149673938751221 54 54 54
0.029161449521780014 0.5380367636680603 4.643494129180908 76 76 76
0.020522788166999817 0.5460282564163208 4.69052791595459 62 62 62
-1.338464379310608 0.8101398944854736 3.675555467605591 58 58 58
0.0333576537668705 0.38739752769470215 4.649482727050781 3 3 3
-0.19340276718139648 0.37531915307044983 4.510306358337402 15 15 15
0.4793589413166046 -0.028252823278307915 4.79540491104126 40 40 40
-1.0861464738845825 0.20636014640331268 3.8074421882629395 66 66 66
-0.9080557227134705 1.2353878021240234 4.089529037475586 4 4 4
-0.8169280290603638 -0.3798048496246338 3.9557528495788574 99 99 99
-1.0883474349975586 0.2060852199792862 3.815124034881592 59 59 59
-0.6632369756698608 0.7666738629341125 4.201237201690674 109 109 109
-1.4556851387023926 -1.270467758178711 4.459235668182373 1 1 1
-0.8945213556289673 0.9720409512519836 4.053521633148193 113 113 113
-0.9080691337585449 1.2353821992874146 4.089552402496338 4 4 4
-0.2325732707977295 0.768530547618866 4.482662200927734 42 42 42
0.2161782830953598 1.1299240589141846 4.8424072265625 67 67 67
-0.015952622517943382 1.5683743953704834 4.7500433921813965 9 9 9
0.011623595841228962 1.3316067457199097 4.719203948974609 105 105 105
-1.2176276445388794 -0.3919571340084076 3.700779914855957 27 27 27
-0.0023384690284729004 1.1520380973815918 4.627385139465332 59 59 59
-0.41962510347366333 0.39370518922805786 4.319760799407959 125 125 125
-0.2469443678855896 1.5573276281356812 4.558938980102539 69 69 69
-0.528426468372345 0.5550667643547058 4.2294793128967285 4 4 4
0.6349522471427917 0.5388971567153931 4.972378253936768 59 59 59
1.4459477663040161 -0.14890696108341217 5.552988052368164 78 78 78
-0.759016215801239 1.5448989868164062 4.206987380981445 150 150 150
-0.8885595202445984 0.5722644329071045 4.026673316955566 64 64 64
-0.8146464228630066 -0.036638278514146805 3.972529411315918 105 105 105
0.7644708752632141 2.4910244941711426 5.311549663543701 32 32 32
0.35178083181381226 1.1398223638534546 4.918954372406006 7 7 7
-0.7547515034675598 -1.0082014799118042 3.958686590194702 77 77 77
-0.755034863948822 -1.0008161067962646 3.9599008560180664 13 13 13
-0.7053354382514954 -0.9864930510520935 3.973628520965576 109 109 109
-0.14414207637310028 -0.998023271560669 4.373137950897217 40 40 40
-0.1441420614719391 -0.9980273842811584 4.373142242431641 40 40 40
-0.5086886286735535 2.4346823692321777 4.478640556335449 13 13 13
1.0661998987197876 1.3543205261230469 5.5876359939575195 48 48 48
-0.5087012052536011 2.43471097946167 4.4786810874938965 13 13 13
-0.6335508823394775 -0.008721758611500263 4.149949550628662 11 11 11
-1.056544303894043 -0.3996710777282715 3.795619010925293 49 49 49
0.209553062915802 0.958740234375 4.817802429199219 79 79 79
-1.1935303211212158 0.9882831573486328 3.8529841899871826 18 18 18
0.62423175573349 2.540060043334961 5.295335292816162 10 10 10
-0.693167507648468 1.1678355932235718 4.214427947998047 53 53 53
-0.47409820556640625 2.1384952068328857 4.462319374084473 105 105 105
0.37592971324920654 2.502936840057373 5.091099739074707 44 44 44
0.8053524494171143 2.4975571632385254 5.3797712326049805 54 54 54
-1.1468913555145264 1.7959561347961426 3.91696834564209 54 54 54
-0.7010762691497803 1.961130142211914 4.2875165939331055 112 112 112
-1.147072196006775 1.809762954711914 3.9679126739501953 131 131 131
-0.375093013048172 -0.7943297624588013 4.219090938568115 29 29 29
-1.0059329271316528 1.8308205604553223 4.074974536895752 101 101 101
0.29885661602020264 -0.8249243497848511 4.694841384887695 21 21 21
0.4741341769695282 0.13988450169563293 4.926048755645752 65 65 65
0.7421586513519287 -0.8373851776123047 5.020496845245361 61 61 61
-1.2909334897994995 -0.6047074198722839 3.6721155643463135 57 57 57
0.04589952155947685 0.17393311858177185 4.6237311363220215 60 60 60
0.3893943727016449 2.1184158325195312 5.089038848876953 56 56 56
1.9203813076019287 1.0628076791763306 6.014966011047363 48 48 48
-1.0299830436706543 1.6192924976348877 3.9894542694091797 104 104 104
-0.5478676557540894 0.3605981767177582 4.205605983734131 20 20 20
-0.47635751962661743 1.807837724685669 4.536235332489014 18 18 18
-0.4840807616710663 1.7528107166290283 4.433637619018555 54 54 54
0.8565027117729187 1.6810158491134644 5.356884956359863 51 51 51
-0.8905502557754517 1.2134606838226318 4.087055683135986 52 52 52
-0.5116258263587952 0.21329134702682495 4.219442367553711 121 121 121
-0.11118526756763458 -1.6231083869934082 4.322751045227051 67 67 67
-1.2758840322494507 0.24696673452854156 3.7064571380615234 94 94 94
-0.7605345845222473 1.5159231424331665 4.20388126373291 77 77 77
-0.16500453650951385 1.4178171157836914 4.60081672668457 24 24 24
-0.25706642866134644 0.7816138863563538 4.466451644897461 116 116 116
-0.15517781674861908 -0.4047323763370514 4.427798271179199 38 38 38
1.074935793876648 0.9255829453468323 5.424858570098877 55 55 55
1.052931308746338 1.2899017333984375 5.376246452331543 7 7 7
-1.1024360656738281 -1.8481446504592896 3.6315500736236572 29 29 29
-1.3639631271362305 -0.3350253105163574 3.607957124710083 29 29 29
1.4918813705444336 0.9148610234260559 5.694316864013672 11 11 11
0.21536777913570404 1.5545915365219116 4.944397449493408 8 8 8
-0.42271921038627625 0.797649085521698 4.362804889678955 29 29 29
-0.843744695186615 -0.37034446001052856 3.958850622177124 3 3 3
0.45246440172195435 0.9207031726837158 4.997371196746826 66 66 66
0.6410174369812012 0.9468982815742493 5.146690368652344 54 54 54
0.42362600564956665 1.5243932008743286 4.989242076873779 83 83 83
-0.6139858961105347 -0.5891008973121643 4.09161901473999 22 22 22
-1.0773320198059082 0.24179431796073914 3.799316644668579 76 76 76
-1.249078631401062 -0.39665862917900085 3.657623052597046 7 7 7
-0.5199328064918518 0.3656923770904541 4.254497528076172 87 87 87
-1.2176419496536255 -0.3919660151004791 3.7008016109466553 27 27 27
-1.1099772453308105 -0.5830286741256714 3.718480348587036 12 12 12
-0.24798278510570526 -0.3978370130062103 4.400713920593262 58 58 58
-1.328007698059082 1.658874750137329 3.830847978591919 75 75 75
0.5971654653549194 2.364046812057495 5.314265251159668 89 89 89
-0.8254327774047852 0.17734703421592712 3.996086835861206 70 70 70
-0.5085631012916565 0.20271284878253937 4.259987831115723 5 5 5
-1.2913559675216675 0.8627884387969971 3.77805233001709 118 118 118
-0.4164877235889435 0.5814559459686279 4.362000465393066 39 39 39
-1.3508003950119019 0.5159310102462769 3.700515031814575 36 36 36
0.5396983027458191 0.7479373812675476 5.021913051605225 127 127 127
-0.662468433380127 1.011656403541565 4.19221305847168 95 95 95
-1.2519032955169678 0.242343932390213 3.7537519931793213 55 55 55
-1.2121992111206055 0.2396138608455658 3.7448623180389404 22 22 22
-0.817366898059845 -1.4384068250656128 3.9626903533935547 54 54 54
-0.0020768193062394857 1.1749457120895386 4.7125678062438965 15 15 15
-0.3445743918418884 -1.5987520217895508 4.17407751083374 34 34 34
-1.3540691137313843 0.5958747267723083 3.6979832649230957 75 75 75
1.491816759109497 0.9147932529449463 5.69408655166626 11 11 11
0.43759098649024963 1.1562045812606812 5.034360885620117 101 101 101
-1.291358232498169 0.8627936840057373 3.7780635356903076 118 118 118
-0.5761446356773376 -1.2348767518997192 4.057133674621582 40 40 40
-0.6248337626457214 -0.8245449662208557 4.0733866691589355 47 47 47
-0.6935482621192932 1.4087021350860596 4.261962890625 1 1 1
0.45351642370224 0.7704826593399048 5.084456920623779 5 5 5
-0.6935332417488098 1.4086970090866089 4.261934757232666 1 1 1
-0.6383620500564575 0.36847400665283203 4.194565296173096 31 31 31
-0.6589387059211731 0.5880542397499084 4.124087333679199 62 62 62
-1.0484169721603394 -0.8199303150177002 3.766544818878174 115 115 115
-0.3928019404411316 0.40308719873428345 4.340121269226074 36 36 36
0.06976012885570526 -0.7848882079124451 4.530508518218994 66 66 66
-1.2874133586883545 -0.6175255179405212 3.6048121452331543 94 94 94
-0.22599636018276215 0.5817263722419739 4.466977119445801 94 94 94
0.19798436760902405 1.489628791809082 4.830251693725586 36 36 36
-0.8796106576919556 0.4101787507534027 4.022015571594238 3 3 3
-0.8164586424827576 -0.6156182289123535 3.893066167831421 61 61 61
-0.05755520984530449 2.584991931915283 4.83433198928833 66 66 66
-0.5133328437805176 2.4021058082580566 4.478614807128906 12 12 12
-1.0173872709274292 0.4298987090587616 3.916985273361206 92 92 92
0.029161924496293068 0.5380440950393677 4.643526554107666 76 76 76
0.4218658208847046 1.5312038660049438 5.010117530822754 64 64 64
0.1404539942741394 2.519076347351074 4.874992370605469 50 50 50
-1.0852950811386108 -0.4257168769836426 3.7763736248016357 68 68 68
-1.171141505241394 -0.39443325996398926 3.7161598205566406 123 123 123
-1.317519187927246 0.538895308971405 3.701586961746216 128 128 128
-0.8893750309944153 -0.4016578197479248 3.917612314224243 17 17 17
-0.9018299579620361 -0.394095778465271 3.9025750160217285 28 28 28
-1.2996183633804321 -0.355546236038208 3.5992562770843506 19 19 19
-0.9444713592529297 2.0074875354766846 4.125756740570068 79 79 79
-0.47905802726745605 2.1822803020477295 4.502475261688232 21 21 21
0.6242311596870422 2.5400564670562744 5.295328617095947 10 10 10
-0.18960364162921906 -0.4237188994884491 4.388891220092773 56 56 56
-0.8450745344161987 -0.37586545944213867 3.944911003112793 18 18 18
0.4198894500732422 1.7105242013931274 5.075552463531494 81 81 81
-0.2724305987358093 2.1837854385375977 4.640834808349609 8 8 8
-1.3772052526474 1.7911590337753296 3.8069775104522705 70 70 70
-1.1559935808181763 1.8323894739151 3.9594058990478516 35 35 35
-0.6960293650627136 1.982983112335205 4.295558929443359 53 53 53
-1.1004996299743652 -0.1896180808544159 3.8064165115356445 17 17 17
-0.5752418637275696 -1.407577395439148 4.039280414581299 76 76 76
-1.1951160430908203 0.9893820285797119 3.855623483657837 22 22 22
-1.3162568807601929 -0.21203771233558655 3.6513516902923584 89 89 89
-0.3849991261959076 -0.2227807641029358 4.292697906494141 64 64 64
-1.100496768951416 -0.18964099884033203 3.806408166885376 17 17 17
-1.0709584951400757 -0.19475328922271729 3.8012332916259766 123 123 123
-1.100492238998413 -0.1896468997001648 3.8064019680023193 17 17 17
-1.1005040407180786 -0.1896367222070694 3.8064253330230713 17 17 17
0.018773667514324188 0.5476380586624146 4.699975490570068 59 59 59
0.8903362154960632 0.36395490169525146 5.258181095123291 35 35 35
0.03372189775109291 0.3688211739063263 4.651383876800537 9 9 9
0.6882402896881104 -0.22008265554904938 5.007114410400391 25 25 25
-0.6401019096374512 -0.1707191914319992 4.110603332519531 20 20 20
-0.6947564482688904 1.7619487047195435 4.1897430419921875 38 38 38
-0.37509065866470337 -0.7943218946456909 4.219069004058838 29 29 29
0.41259172558784485 2.114832878112793 5.129852294921875 67 67 67
0.6152722835540771 2.119920015335083 5.214362621307373 2 2 2
-0.20621225237846375 -0.033852577209472656 4.424005508422852 49 49 49
0.686687707901001 -0.04265899583697319 5.063519477844238 51 51 51
1.230936884880066 2.2962710857391357 5.695632457733154 6 6 6
-1.1016427278518677 -0.017843520268797874 3.8267734050750732 74 74 74
0.47942623496055603 -0.028255823999643326 4.794497013092041 40 40 40
-1.1341485977172852 1.569566011428833 3.929100751876831 61 61 61
-0.48763397336006165 1.7545464038848877 4.441720008850098 55 55 55
-0.9080384969711304 1.576137661933899 4.028624057769775 57 57 57
-0.8811301589012146 0.007870884612202644 3.9869778156280518 112 112 112
-0.27760884165763855 1.7790716886520386 4.607369422912598 127 127 127
0.4668935239315033 2.6157517433166504 5.320956707000732 49 49 49
-0.7636030912399292 1.5854382514953613 4.224584579467773 13 13 13
-0.6102672815322876 0.36950886249542236 4.190297603607178 43 43 43
-0.7607220411300659 1.5374130010604858 4.209236145019531 114 114 114
-1.3505038022994995 0.514463484287262 3.699974775314331 33 33 33
-1.0565451383590698 -0.39966991543769836 3.7956180572509766 49 49 49
-0.5723034739494324 -0.9813809990882874 3.9924845695495605 100 100 100
-0.8585254549980164 0.1895076334476471 4.007264137268066 8 8 8
-1.1158941984176636 1.3758834600448608 3.837766647338867 14 14 14
-0.7093672752380371 2.3516416549682617 4.304947376251221 72 72 72
-0.5086914300918579 2.434689521789551 4.478650093078613 13 13 13
-1.0861458778381348 0.20635999739170074 3.807441234588623 66 66 66
-0.46948206424713135 1.579769253730774 4.432761192321777 4 4 4
0.4238217771053314 1.525194525718689 4.991988182067871 83 83 83
-1.1468844413757324 1.7959496974945068 3.916956663131714 54 54 54
-0.8717147707939148 1.8214188814163208 4.17773962020874 18 18 18
-0.8556697368621826 1.8053662776947021 4.143802642822266 48 48 48
-0.5478537082672119 0.36058568954467773 4.205546855926514 20 20 20
-0.547865629196167 0.360591322183609 4.2055792808532715 20 20 20
0.4152674376964569 1.1593793630599976 5.025182723999023 99 99 99
0.8262151479721069 1.527458906173706 5.344725608825684 65 65 65
-0.5118994116783142 0.20296914875507355 4.27445125579834 5 5 5
-1.056541085243225 -0.3996703028678894 3.7956130504608154 49 49 49
0.24972334504127502 0.189763143658638 4.768320560455322 4 4 4
-0.41704726219177246 -0.2325778603553772 4.287968158721924 87 87 87
0.7645770907402039 2.491525888442993 5.313600540161133 32 32 32
0.22722671926021576 0.16854166984558105 4.7463226318359375 117 117 117
-1.039257526397705 1.6285550594329834 4.0070414543151855 96 96 96
0.6903746128082275 -0.04038863629102707 4.92693567276001 35 35 35
-0.715829074382782 0.09368379414081573 4.043149948120117 88 88 88
-0.7026320099830627 -0.986649751663208 3.9658150672912598 98 98 98
-1.1121654510498047 -0.5856973528862 3.7233920097351074 25 25 25
-0.19302524626255035 0.20849354565143585 4.462790012359619 9 9 9
-1.2417479753494263 0.5051556825637817 3.763475179672241 92 92 92
-1.361851453781128 -0.3451555669307709 3.641230583190918 34 34 34
-0.5877885818481445 -1.632569432258606 4.005092144012451 63 63 63
0.6398506760597229 0.9682846069335938 5.147488594055176 19 19 19
1.3134357929229736 0.7584861516952515 5.598664283752441 29 29 29
1.683032512664795 1.9108444452285767 5.998254299163818 32 32 32
-0.5798003077507019 2.3867766857147217 4.405622959136963 77 77 77
-1.1024285554885864 -1.8481415510177612 3.6315441131591797 29 29 29
-0.5720739960670471 -1.6336188316345215 4.012833118438721 53 53 53
-0.3445743918418884 -1.5987520217895508 4.17407751083374 34 34 34
-0.021183332428336143 2.1046676635742188 4.7450971603393555 46 46 46
-1.530974268913269 -1.1763911247253418 3.8537611961364746 45 45 45
-1.446315050125122 -1.3446903228759766 4.435330867767334 81 81 81
-1.4556818008422852 -1.2704622745513916 4.459218502044678 1 1 1
-0.9146654605865479 1.7933531999588013 4.13558292388916 2 2 2
-0.935514509677887 1.7722313404083252 4.093630790710449 52 52 52
-0.5834569334983826 -0.9958159923553467 4.062585353851318 112 112 112
-0.37962663173675537 -1.0358352661132812 4.232404708862305 41 41 41
-0.5974140167236328 -0.9813461899757385 4.0462799072265625 14 14 14
-0.39324644207954407 -0.7958921790122986 4.197371959686279 38 38 38
-0.37508320808410645 -0.7943248152732849 4.219050407409668 29 29 29
-1.0922093391418457 -0.5983245968818665 3.7736501693725586 96 96 96
-0.6139931678771973 -0.5891037583351135 4.09165096282959 22 22 22
0.07146669924259186 -0.6304430961608887 4.540253639221191 47 47 47
0.5065532922744751 -0.6399677991867065 4.828804969787598 60 60 60
-1.3060435056686401 -0.39101871848106384 3.645972728729248 140 140 140
-1.056539535522461 -0.39967668056488037 3.7956228256225586 49 49 49
-0.4880807399749756 1.7525904178619385 4.441773414611816 54 54 54
-1.0565441846847534 -0.39967095851898193 3.7956185340881348 49 49 49
-0.1921650916337967 -0.4263133406639099 4.399291515350342 57 57 57
-0.9395231604576111 1.6037043333053589 4.08676815032959 99 99 99
-0.28406041860580444 1.788954257965088 4.631178379058838 127 127 127
-0.8173584342002869 -0.34884119033813477 3.947291612625122 92 92 92
0.9207147359848022 -0.4172813892364502 5.195619583129883 24 24 24
0.8367195129394531 2.057671546936035 5.360834121704102 61 61 61
-0.8620310425758362 -0.23073936998844147 3.9563872814178467 84 84 84
-1.114305853843689 -0.19634710252285004 3.7969725131988525 65 65 65
-1.0633020401000977 -0.18790461122989655 3.743623971939087 84 84 84
0.05354565754532814 -0.2343572974205017 4.58994197845459 55 55 55
-0.8853366374969482 -0.19442977011203766 3.918431043624878 96 96 96
-0.7607229948043823 1.5374183654785156 4.20924186706543 114 114 114
-0.6379011869430542 -0.18767283856868744 4.0912981033325195 18 18 18
-0.8959261178970337 -0.16581103205680847 3.9613606929779053 18 18 18
-0.6394073367118835 -0.16930274665355682 4.10520076751709 35 35 35
-0.8948105573654175 -0.16563045978546143 3.959216356277466 18 18 18
-0.009511652402579784 1.7063254117965698 4.735050201416016 61 61 61
-0.48170995712280273 1.5654832124710083 4.378326416015625 107 107 107
-0.4081447124481201 -0.001179217011667788 4.273624897003174 90 90 90
0.027219131588935852 -0.004077508579939604 4.606727600097656 1 1 1
-0.4133516550064087 0.019653383642435074 4.290081977844238 11 11 11
-0.8949098587036133 1.3600600957870483 4.080194473266602 40 40 40
-0.6935340762138367 1.4086940288543701 4.2619309425354 1 1 1
-0.8288521766662598 0.17392513155937195 4.00308895111084 67 67 67
-0.8585254549980164 0.1895076334476471 4.007264137268066 8 8 8
-1.218091607093811 0.2249634712934494 3.7693755626678467 26 26 26
-1.1464775800704956 1.177314043045044 3.888667583465576 60 60 60
0.4706748127937317 0.3532509505748749 4.909431457519531 13 13 13
0.03372608497738838 0.36882108449935913 4.651360988616943 9 9 9
-0.6383682489395142 0.36847639083862305 4.194583892822266 31 31 31
1.501606822013855 0.5292813181877136 5.666660308837891 21 21 21
-0.41867417097091675 0.39400431513786316 4.316889762878418 125 125 125
-0.8796082735061646 0.4101962149143219 4.022048473358154 3 3 3
-1.1410305500030518 1.0832130908966064 3.906407117843628 31 31 31
0.4692576825618744 0.5225492119789124 4.919851303100586 43 43 43
0.6307443976402283 0.5523133277893066 5.099566459655762 123 123 123
0.02919895201921463 0.5374738574028015 4.643097400665283 76 76 76
0.21361227333545685 0.5821638107299805 4.929381847381592 60 60 60
1.5159809589385986 0.6825440526008606 5.6832275390625 42 42 42
0.20902450382709503 0.5698354840278625 4.823073387145996 32 32 32
-1.1268744468688965 1.0107505321502686 3.8909075260162354 107 107 107
0.6491143107414246 1.3935250043869019 5.366357326507568 45 45 45
-0.6845018267631531 0.5938466191291809 4.177424907684326 67 67 67
-1.3254026174545288 0.5776699185371399 3.6999874114990234 83 83 83
1.4666540622711182 1.3158189058303833 5.701721668243408 22 22 22
0.4375914931297302 1.1561976671218872 5.034348487854004 101 101 101
-0.4199962317943573 0.7947184443473816 4.357184886932373 46 46 46
-0.9136159420013428 0.8008572459220886 4.020010471343994 120 120 120
-0.997077465057373 1.8207402229309082 4.052623748779297 83 83 83
-1.1592206954956055 1.8369323015213013 3.9667630195617676 34 34 34
-0.24729104340076447 2.132680892944336 4.54523229598999 74 74 74
-0.26735806465148926 2.1385958194732666 4.5470733642578125 65 65 65
-0.47907474637031555 2.1823079586029053 4.5025248527526855 21 21 21
0.4669129550457001 2.6158411502838135 5.321141242980957 49 49 49
-0.08513069897890091 2.3650166988372803 4.7523393630981445 77 77 77
-0.25149330496788025 2.321518659591675 4.607756614685059 73 73 73
-0.0699259489774704 2.536278486251831 4.823660850524902 9 9 9
-1.3835419416427612 2.0245614051818848 3.809189796447754 64 64 64
-0.5324246287345886 2.401825189590454 4.464906692504883 111 111 111
-1.1674022674560547 2.2222325801849365 3.982757329940796 93 93 93
0.3450598120689392 1.1201045513153076 4.8169169425964355 48 48 48
-0.40730535984039307 0.2585640549659729 4.294511795043945 24 24 24
-0.7113677263259888 0.9967393279075623 4.204433917999268 77 77 77
1.9634199142456055 0.9094225168228149 6.1239705085754395 3 3 3
-1.1126964092254639 -0.5824043154716492 3.7237024307250977 23 23 23
-0.7044880390167236 -0.9878597855567932 3.970357894897461 98 98 98
-0.7533990740776062 0.5537272691726685 4.122853755950928 45 45 45
0.0961962416768074 0.17140255868434906 4.6181559562683105 65 65 65
0.2980490028858185 1.132167935371399 4.840654373168945 65 65 65
1.358950138092041 2.069147825241089 5.730415344238281 82 82 82
-1.1343395709991455 1.133533239364624 3.919224500656128 81 81 81
-1.1024231910705566 -1.8481385707855225 3.6315371990203857 29 29 29
-0.936226487159729 -1.8453612327575684 3.7406809329986572 63 63 63
-0.5752343535423279 -1.4075584411621094 4.039237976074219 76 76 76
-0.5760142803192139 -1.2345093488693237 4.056149959564209 40 40 40
-1.4463677406311035 -1.344738245010376 4.435466766357422 81 81 81
-0.6015775203704834 -0.9783493876457214 4.050014972686768 27 27 27
-1.077661156654358 -0.8272638916969299 3.7666656970977783 68 68 68
-0.624544620513916 -0.8315368890762329 4.071415424346924 54 54 54
-0.6304689645767212 -0.5974404215812683 4.070394992828369 87 87 87
-0.6139938831329346 -0.5891047716140747 4.091650485992432 22 22 22
-1.2953230142593384 -0.2161613255739212 3.6571483612060547 44 44 44
-0.38633546233177185 -0.24267196655273438 4.2840895652771 78 78 78
-1.0671952962875366 -0.1882849633693695 3.7502100467681885 84 84 84
-0.8431787490844727 -0.20752906799316406 3.9774420261383057 14 14 14
-0.6260473132133484 -0.1607362926006317 4.075088024139404 32 32 32
-1.1016429662704468 -0.017843790352344513 3.8267745971679688 74 74 74
0.4793936610221863 -0.028254149481654167 4.794875144958496 40 40 40
-0.20308417081832886 0.030579769983887672 4.440333366394043 109 109 109
0.47243794798851013 0.13168877363204956 4.913048267364502 65 65 65
0.6816908121109009 0.16605666279792786 5.0481953620910645 75 75 75
-0.43479716777801514 0.15801021456718445 4.28464412689209 64 64 64
0.24890078604221344 0.16899098455905914 4.773210048675537 3 3 3
-0.6209544539451599 0.18683066964149475 4.154999256134033 2 2 2
-0.6533413529396057 0.19793333113193512 4.1303277015686035 81 81 81
-1.3370954990386963 0.18748119473457336 3.655364751815796 14 14 14
-0.8585165143013 0.1895078718662262 4.0072455406188965 8 8 8
0.03372044488787651 0.36882084608078003 4.651391506195068 9 9 9
-0.42713215947151184 0.41758793592453003 4.346571445465088 35 35 35
-1.02741277217865 0.40609312057495117 3.9491121768951416 122 122 122
-1.3583388328552246 0.42097631096839905 3.699228525161743 122 122 122
0.11770278215408325 0.5699048638343811 4.741575717926025 81 81 81
-0.4475717544555664 0.5599766969680786 4.341081619262695 68 68 68
-0.8674235939979553 0.5649070143699646 4.03619384765625 72 72 72
-0.6690793037414551 0.5975052714347839 4.187798023223877 3 3 3
-1.1707608699798584 0.6169003248214722 3.843446731567383 121 121 121
-0.005227332469075918 0.7938952445983887 4.658053874969482 18 18 18
-0.9014846086502075 0.7849744558334351 3.9561307430267334 69 69 69
0.0023464784026145935 0.9242345094680786 4.664883613586426 77 77 77
1.4143919944763184 1.2688696384429932 5.620421409606934 52 52 52
-0.6940003037452698 1.0021411180496216 4.210133075714111 79 79 79
0.13443106412887573 1.1593210697174072 4.785605430603027 88 88 88
0.10139893740415573 1.17258882522583 4.82714319229126 38 38 38
-1.1895751953125 0.9871103763580322 3.8713202476501465 85 85 85
-1.1384612321853638 1.0287697315216064 3.889122724533081 4 4 4
