ply
format ascii 1.0
element vertex 711
property float x
property float y
property float z
property uchar red
property uchar green
property uchar blue
end_header
-3.0163772106170654 15.923245429992676 30.981952667236328 109 109 109
-2.3946540355682373 6.668972969055176 25.6738338470459 44 44 44
-2.1242825984954834 5.067034721374512 23.482254028320312 61 61 61
-2.264824867248535 4.858097076416016 25.357044219970703 70 70 70
-2.264824867248535 4.858097076416016 25.357044219970703 70 70 70
-2.2400755882263184 6.728297233581543 25.555959701538086 117 117 117
-2.307415008544922 2.1707377433776855 25.754344940185547 53 53 53
-2.307415008544922 2.1707377433776855 25.754344940185547 53 53 53
-2.127168655395508 3.1929352283477783 25.268526077270508 53 53 53
-2.0949554443359375 4.33683443069458 25.26961326599121 18 18 18
-2.5332772731781006 16.934432983398438 31.0982723236084 111 111 111
-2.130100727081299 11.351983070373535 26.675397872924805 104 104 104
-2.0232009887695312 2.9720325469970703 25.488731384277344 111 111 111
-1.8332388401031494 2.1430532932281494 23.291656494140625 66 66 66
-1.973258376121521 2.1120007038116455 25.522523880004883 94 94 94
-1.973258376121521 2.1120007038116455 25.522523880004883 94 94 94
-1.9160716533660889 4.73915433883667 25.652252197265625 87 87 87
-1.931931495666504 4.941191673278809 25.590757369995117 119 119 119
-1.9179697036743164 6.987765789031982 25.46079444885254 119 119 119
-1.9285918474197388 1.7700576782226562 25.768178939819336 135 135 135
-2.0016703605651855 2.8655574321746826 25.72584342956543 19 19 19
-2.0016703605651855 2.8655574321746826 25.72584342956543 19 19 19
-1.8390625715255737 7.326540946960449 25.542003631591797 84 84 84
-2.1407253742218018 15.295778274536133 29.86467933654785 61 61 61
-1.841165542602539 1.968790888786316 26.423873901367188 64 64 64
-1.8043789863586426 3.870924949645996 25.471385955810547 42 42 42
-1.8787051439285278 8.115447998046875 26.990428924560547 175 175 175
-1.770039677619934 2.1884994506835938 25.734670639038086 114 114 114
-1.68024480342865 3.8924031257629395 25.087251663208008 100 100 100
-1.7165248394012451 9.094573020935059 25.84066390991211 15 15 15
-1.6605217456817627 6.9530510902404785 25.00618553161621 116 116 116
-1.5987694263458252 6.975361347198486 24.194477081298828 77 77 77
-1.7038315534591675 6.250489234924316 26.046710968017578 43 43 43
-1.7912557125091553 12.315506935119629 27.588613510131836 117 117 117
-1.5837880373001099 1.6939188241958618 24.71280860900879 118 118 118
-1.4984893798828125 4.379472732543945 24.070758819580078 103 103 103
-1.7932026386260986 -7.840548038482666 28.086029052734375 226 226 226
-1.588191270828247 5.366426944732666 25.624591827392578 52 52 52
-1.540239930152893 2.694788694381714 25.309690475463867 87 87 87
-1.579986810684204 5.136342525482178 26.475400924682617 52 52 52
-1.4664852619171143 3.7960450649261475 25.442764282226562 97 97 97
-1.4226113557815552 4.2487664222717285 24.764806747436523 24 24 24
-1.4512513875961304 4.197931289672852 25.578290939331055 43 43 43
-1.4512513875961304 4.197931289672852 25.578290939331055 43 43 43
-1.3760141134262085 4.43009090423584 25.718799591064453 18 18 18
-1.3760141134262085 4.43009090423584 25.718799591064453 18 18 18
-1.3760141134262085 4.43009090423584 25.718799591064453 18 18 18
-1.3759902715682983 4.429906845092773 25.717897415161133 18 18 18
-1.3117530345916748 7.244577884674072 24.623905181884766 102 102 102
-1.3540130853652954 3.394425868988037 25.45272445678711 70 70 70
-1.3540130853652954 3.394425868988037 25.45272445678711 70 70 70
-1.259417176246643 1.8972111940383911 23.85591697692871 141 141 141
-1.3714102506637573 5.083676815032959 25.529069900512695 120 120 120
-1.265069603919983 3.5132029056549072 25.465229034423828 49 49 49
-1.3328564167022705 8.178749084472656 26.820837020874023 100 100 100
-1.1734479665756226 5.2927680015563965 25.101806640625 54 54 54
-1.2877068519592285 5.079843521118164 27.58975601196289 58 58 58
-1.233456015586853 3.0517702102661133 27.458602905273438 25 25 25
-1.2021793127059937 7.97736120223999 26.722896575927734 103 103 103
-1.0967562198638916 0.4487062990665436 25.354909896850586 199 199 199
-1.0967562198638916 0.4487062990665436 25.354909896850586 199 199 199
-1.0634119510650635 10.2929105758667 26.098482131958008 68 68 68
-1.0606765747070312 10.454258918762207 26.344844818115234 65 65 65
-0.9940741062164307 9.00167179107666 24.964195251464844 11 11 11
-0.9809909462928772 3.5948641300201416 24.96364974975586 4 4 4
-1.0182197093963623 6.591782569885254 26.078466415405273 32 32 32
-0.9925347566604614 4.606688976287842 25.76619529724121 45 45 45
-0.9750775098800659 3.456855058670044 25.46464729309082 46 46 46
-0.9941034317016602 7.707950592041016 26.525014877319336 130 130 130
-0.9127724170684814 0.5608909130096436 25.35105323791504 254 254 254
-0.9123347997665405 2.6856753826141357 25.821224212646484 68 68 68
-0.8849416375160217 8.747583389282227 25.702709197998047 28 28 28
-0.8603916764259338 10.952054023742676 26.614309310913086 110 110 110
-0.7670567035675049 3.1028831005096436 25.116615295410156 61 61 61
-0.7220091223716736 4.238203525543213 25.584997177124023 30 30 30
-0.6799308657646179 -8.025776863098145 24.610458374023438 35 35 35
-0.6198311448097229 4.0078959465026855 25.61325454711914 39 39 39
-0.5565832853317261 3.3237767219543457 24.817228317260742 58 58 58
-0.5135459899902344 2.7389461994171143 24.56208038330078 14 14 14
-0.6193764209747314 15.310672760009766 30.349637985229492 137 137 137
-0.5208774209022522 8.30695915222168 26.26605796813965 11 11 11
-0.4622114300727844 9.860818862915039 25.45614242553711 64 64 64
-0.4052620232105255 1.4471449851989746 25.304927825927734 51 51 51
-0.36522749066352844 10.328160285949707 26.188140869140625 45 45 45
-0.24539759755134583 2.551182270050049 25.924503326416016 100 100 100
-0.21531885862350464 4.708847522735596 24.973920822143555 37 37 37
-0.11805568635463715 11.530413627624512 27.20958137512207 52 52 52
-0.08689245581626892 3.1639440059661865 25.259925842285156 72 72 72
-0.040720995515584946 3.457249879837036 26.05936622619629 41 41 41
-0.024293426424264908 3.8051493167877197 26.280418395996094 105 105 105
-0.03751319646835327 -14.84731388092041 29.92780303955078 44 44 44
-0.026710357517004013 5.151693344116211 25.917531967163086 44 44 44
0.012430313043296337 3.9117074012756348 25.81073760986328 29 29 29
0.020165061578154564 9.623414993286133 25.486085891723633 80 80 80
-0.024636225774884224 3.807596206665039 26.297574996948242 105 105 105
0.12823551893234253 -2.11706280708313 26.95285987854004 14 14 14
0.1440785676240921 6.088761806488037 26.06589698791504 74 74 74
0.30338054895401 -2.642853021621704 24.313507080078125 104 104 104
0.30338054895401 -2.642853021621704 24.313507080078125 104 104 104
0.4363429546356201 14.61436653137207 28.798460006713867 58 58 58
0.45724034309387207 13.296828269958496 28.61304473876953 64 64 64
0.5276265144348145 9.040143013000488 32.25334930419922 74 74 74
0.5687358975410461 13.915874481201172 27.060558319091797 84 84 84
0.6736587285995483 3.7006590366363525 30.92306137084961 189 189 189
0.7231842875480652 5.556390285491943 30.819597244262695 50 50 50
0.638934314250946 1.3914138078689575 30.963603973388672 24 24 24
0.6902966499328613 -0.9458404779434204 31.9144344329834 87 87 87
1.0088138580322266 0.643932580947876 32.77105712890625 55 55 55
1.0185961723327637 5.124819278717041 30.555051803588867 56 56 56
1.031297206878662 3.562748432159424 31.186983108520508 64 64 64
1.0996384620666504 4.936359882354736 30.63324546813965 61 61 61
1.1195309162139893 6.564648151397705 29.80264663696289 49 49 49
1.0811095237731934 15.37684154510498 28.394094467163086 75 75 75
1.2106034755706787 0.7949137687683105 31.516834259033203 79 79 79
1.2106034755706787 0.7949137687683105 31.516834259033203 79 79 79
1.2745511531829834 1.9787753820419312 31.682119369506836 47 47 47
1.2745511531829834 1.9787753820419312 31.682119369506836 47 47 47
1.2689881324768066 4.180149555206299 30.794715881347656 55 55 55
1.308606743812561 -2.770407199859619 31.747377395629883 63 63 63
1.2914528846740723 15.064790725708008 32.752479553222656 26 26 26
1.3215181827545166 -4.951932907104492 31.791383743286133 74 74 74
1.2675340175628662 5.888644695281982 29.077207565307617 44 44 44
1.2929391860961914 9.280797004699707 28.041704177856445 30 30 30
1.7785046100616455 1.2654929161071777 29.470706939697266 32 32 32
1.864678144454956 1.4646440744400024 30.75801658630371 100 100 100
1.9757004976272583 -0.9512538909912109 31.594200134277344 85 85 85
1.8955318927764893 11.018854141235352 30.97828483581543 40 40 40
2.0459070205688477 -3.4946038722991943 31.579708099365234 153 153 153
1.990079641342163 0.23207418620586395 31.45492935180664 40 40 40
1.8766257762908936 11.799825668334961 29.47481918334961 56 56 56
2.0844860076904297 7.2804951667785645 33.313140869140625 70 70 70
2.07037091255188 2.2004551887512207 31.182588577270508 123 123 123
-7.3151445388793945 -3.163735866546631 23.909833908081055 3 3 3
-4.368793487548828 5.753568649291992 25.14858055114746 212 212 212
-6.1686272621154785 5.635010242462158 24.418455123901367 104 104 104
-5.920247554779053 -1.8681694269180298 25.694467544555664 243 243 243
-5.408210277557373 0.34203746914863586 22.807146072387695 11 11 11
-5.537447929382324 -3.066171646118164 23.056835174560547 68 68 68
-7.378228664398193 -1.5710391998291016 20.980937957763672 38 38 38
-8.238663673400879 0.9146417379379272 21.65077018737793 197 197 197
-8.566189765930176 0.9484784603118896 22.419710159301758 197 197 197
-8.169989585876465 -3.6894590854644775 23.92296028137207 144 144 144
-7.422605514526367 -0.5124291777610779 23.06290626525879 232 232 232
-8.492734909057617 -3.9161384105682373 25.470853805541992 184 184 184
-11.518823623657227 -7.7187323570251465 25.3858585357666 60 60 60
0.6740617752075195 3.7003955841064453 30.920106887817383 189 189 189
-8.203873634338379 0.8856009840965271 21.564481735229492 197 197 197
-5.298518180847168 1.0264334678649902 24.699928283691406 251 251 251
-9.741968154907227 -3.8290348052978516 24.64180564880371 20 20 20
-8.774612426757812 4.833615303039551 23.521745681762695 16 16 16
-0.008609273470938206 2.9437291622161865 26.083932876586914 115 115 115
-0.41159144043922424 17.97098731994629 31.49599838256836 76 76 76
-8.52883243560791 0.9182725548744202 22.32723045349121 197 197 197
-5.3227386474609375 -2.9566092491149902 23.02969741821289 192 192 192
-5.322673320770264 -2.9565818309783936 23.029441833496094 192 192 192
-5.2980055809021 1.0263360738754272 24.697912216186523 251 251 251
0.5755950212478638 -2.0673317909240723 29.595674514770508 99 99 99
-6.836148738861084 -1.0215604305267334 23.33396339416504 133 133 133
-6.1884613037109375 -3.2986061573028564 23.732851028442383 208 208 208
-7.491397857666016 -1.132348656654358 23.616443634033203 5 5 5
-7.117997646331787 -2.992368459701538 23.95182228088379 213 213 213
-9.002411842346191 -2.7446773052215576 25.21306800842285 91 91 91
-5.280189514160156 -2.938093423843384 23.310110092163086 122 122 122
-5.381666660308838 0.3376304805278778 22.69405174255371 11 11 11
-6.183521747589111 4.984099388122559 24.487327575683594 17 17 17
-6.091332912445068 -3.300710916519165 23.993053436279297 185 185 185
0.37329038977622986 -2.108753204345703 28.471864700317383 117 117 117
-0.4199111759662628 15.784000396728516 30.024906158447266 173 173 173
-5.263765811920166 -2.900203227996826 21.19854164123535 177 177 177
-5.348644256591797 0.3339138329029083 24.815677642822266 207 207 207
-5.868863105773926 -3.2283902168273926 24.22295379638672 108 108 108
-5.349299907684326 0.33395060896873474 24.8182430267334 207 207 207
-5.226789474487305 5.74765157699585 24.603118896484375 181 181 181
-5.381342887878418 0.33754515647888184 22.69281768798828 11 11 11
-7.44688081741333 0.44145330786705017 29.105100631713867 107 107 107
-5.409160137176514 -2.9962048530578613 23.40673065185547 169 169 169
-6.453804969787598 -1.332961916923523 21.773773193359375 235 235 235
-6.4548211097717285 -1.3331130743026733 21.776756286621094 235 235 235
-4.345028400421143 5.727872848510742 25.037099838256836 212 212 212
-6.554279327392578 -1.3283531665802002 21.790721893310547 239 239 239
-7.0136637687683105 -1.409156322479248 23.117246627807617 147 147 147
-5.973598003387451 0.038888830691576004 23.369644165039062 188 188 188
-5.081864356994629 4.48091459274292 25.334230422973633 98 98 98
-5.972792148590088 0.038893766701221466 23.366941452026367 188 188 188
-7.355969429016113 12.99652099609375 27.8304500579834 55 55 55
2.045853614807129 -3.494441270828247 31.578243255615234 153 153 153
-5.580621719360352 -1.2963066101074219 23.887296676635742 144 144 144
-7.422752857208252 -0.5124473571777344 23.063308715820312 232 232 232
-5.435368537902832 6.514975070953369 25.058984756469727 2 2 2
-6.008306980133057 -2.289551258087158 24.462114334106445 128 128 128
-1.806542158126831 12.880940437316895 27.527341842651367 154 154 154
-5.363767147064209 15.12794303894043 29.728906631469727 172 172 172
-7.078039646148682 4.9294867515563965 24.26190757751465 24 24 24
-3.342869997024536 5.049615859985352 25.09895133972168 24 24 24
1.9902769327163696 0.23201599717140198 31.4576473236084 40 40 40
-5.243069171905518 4.9019999504089355 24.05336570739746 195 195 195
-8.302218437194824 4.76350212097168 23.23666000366211 1 1 1
-7.717004776000977 -1.862580418586731 22.853906631469727 229 229 229
-5.480074405670166 5.036139965057373 25.04768180847168 6 6 6
-4.352248191833496 5.739474296569824 25.071884155273438 212 212 212
-6.479853630065918 -2.9062304496765137 23.97062110900879 219 219 219
-7.2346577644348145 -1.9774574041366577 23.845582962036133 79 79 79
-7.701695919036865 -1.0904622077941895 23.894243240356445 162 162 162
-5.551814079284668 -1.3331351280212402 23.297910690307617 177 177 177
-4.941934585571289 15.157230377197266 29.28117561340332 73 73 73
-5.298025608062744 1.02634859085083 24.697948455810547 251 251 251
-0.8458556532859802 0.6596482992172241 24.786073684692383 244 244 244
-4.308038234710693 7.160035610198975 24.98457908630371 177 177 177
-4.3079328536987305 7.1598920822143555 24.984081268310547 177 177 177
-5.275595664978027 5.030121326446533 24.784093856811523 177 177 177
-2.5725080966949463 15.378666877746582 29.912443161010742 147 147 147
-2.624403715133667 14.962553024291992 29.627758026123047 163 163 163
0.7272379994392395 2.5782463550567627 30.864116668701172 151 151 151
-3.6046833992004395 0.684479296207428 23.973752975463867 88 88 88
0.6269340515136719 6.875351428985596 30.235397338867188 120 120 120
0.6751255989074707 0.22605112195014954 31.397939682006836 160 160 160
-6.32260274887085 4.3251237869262695 24.69348907470703 64 64 64
-4.477550506591797 4.315402984619141 25.02519416809082 155 155 155
-8.076766967773438 0.6484529972076416 24.988815307617188 116 116 116
-4.099632263183594 13.973700523376465 28.799894332885742 60 60 60
-2.5743978023529053 10.08937931060791 25.82969856262207 136 136 136
-9.604179382324219 0.6835419535636902 26.653711318969727 205 205 205
-0.37580153346061707 15.675325393676758 31.124494552612305 148 148 148
-4.678643226623535 4.478461742401123 24.847063064575195 202 202 202
-5.0314040184021 4.5397443771362305 24.96062660217285 5 5 5
-5.369099140167236 16.317411422729492 30.302448272705078 170 170 170
-5.476613521575928 -1.3693816661834717 25.0894832611084 72 72 72
-1.866897463798523 5.267027378082275 26.329273223876953 1 1 1
-7.487030029296875 -5.830668926239014 25.607501983642578 144 144 144
-6.930355548858643 0.3927462100982666 22.398679733276367 242 242 242
-5.340317249298096 5.8715128898620605 25.039772033691406 181 181 181
-6.4774250984191895 18.318565368652344 31.05792999267578 67 67 67
-10.06041431427002 0.6427011489868164 23.392038345336914 223 223 223
-10.557969093322754 -2.42020845413208 24.087421417236328 125 125 125
-5.997009754180908 5.071368217468262 24.967979431152344 27 27 27
-5.65537166595459 -0.5130870342254639 22.853580474853516 208 208 208
-4.67722749710083 14.898216247558594 29.142417907714844 148 148 148
-8.466231346130371 -3.6742546558380127 24.741065979003906 176 176 176
-9.037975311279297 3.5534231662750244 23.828264236450195 88 88 88
-5.498836517333984 -1.0894783735275269 25.232954025268555 229 229 229
-8.843694686889648 5.546727180480957 23.530702590942383 51 51 51
-1.9007329940795898 10.256514549255371 25.776968002319336 61 61 61
-8.92487621307373 -5.794699668884277 25.28630256652832 133 133 133
-6.077680587768555 15.629178047180176 30.1829891204834 27 27 27
-5.9953227043151855 -5.97655725479126 25.97323989868164 136 136 136
-6.713569641113281 0.04721730202436447 23.765783309936523 152 152 152
-5.946111679077148 -3.0107526779174805 20.776697158813477 103 103 103
-1.0901618003845215 7.620941162109375 26.192087173461914 130 130 130
-7.84369421005249 0.560132622718811 21.767698287963867 209 209 209
-2.44260835647583 15.785979270935059 30.256397247314453 71 71 71
0.014257416129112244 -6.634141445159912 28.78265953063965 82 82 82
-2.1457881927490234 4.56449556350708 26.683856964111328 62 62 62
-8.836776733398438 0.6515396237373352 25.381160736083984 125 125 125
-6.530168533325195 0.9350463151931763 25.794485092163086 230 230 230
-3.7401583194732666 14.408751487731934 29.181072235107422 155 155 155
-8.583035469055176 12.758755683898926 27.34897232055664 115 115 115
-4.7182111740112305 12.247172355651855 26.80460548400879 88 88 88
-3.6046881675720215 0.6844707131385803 23.973796844482422 88 88 88
-6.16042423248291 17.386098861694336 31.5643253326416 118 118 118
-4.281607627868652 4.5626749992370605 25.178342819213867 80 80 80
0.038881655782461166 -2.681515693664551 24.721595764160156 35 35 35
-5.278130531311035 4.727280616760254 25.983734130859375 21 21 21
-1.6083004474639893 17.155975341796875 31.17495346069336 175 175 175
-5.585229396820068 -0.7204667925834656 22.367767333984375 169 169 169
-6.463955402374268 16.375131607055664 29.979188919067383 80 80 80
-9.968361854553223 0.6327744722366333 23.178102493286133 110 110 110
0.611826479434967 -3.534538984298706 32.6183967590332 96 96 96
-7.481579303741455 -1.4257216453552246 22.662199020385742 213 213 213
-6.599907875061035 -2.073528528213501 23.577308654785156 34 34 34
-5.706455230712891 5.161191463470459 25.412601470947266 0 0 0
-0.006645930930972099 4.0887227058410645 25.594524383544922 23 23 23
-0.38696566224098206 5.122984886169434 25.525087356567383 17 17 17
-8.302189826965332 4.763485908508301 23.236587524414062 1 1 1
-3.001981496810913 -3.5071165561676025 12.416461944580078 23 23 23
0.010205961763858795 -3.632049083709717 26.184181213378906 5 5 5
-6.738458156585693 6.246762752532959 24.610448837280273 38 38 38
-6.307632923126221 7.249711513519287 24.867685317993164 144 144 144
-4.218863010406494 4.172651767730713 25.231582641601562 13 13 13
-6.590824127197266 6.131351947784424 24.076587677001953 33 33 33
-1.9006857872009277 10.256343841552734 25.77655029296875 61 61 61
-7.961589336395264 9.883964538574219 23.880910873413086 37 37 37
0.14963048696517944 -2.8727974891662598 25.969940185546875 92 92 92
-6.199779987335205 0.9232692718505859 24.414133071899414 100 100 100
-5.680999755859375 -3.397479772567749 21.899404525756836 96 96 96
-5.2015814781188965 4.173915863037109 24.927892684936523 137 137 137
-6.016717433929443 -3.268587350845337 23.73923683166504 101 101 101
-1.0901790857315063 7.621085166931152 26.19256019592285 130 130 130
-2.8346190452575684 1.7636011838912964 24.640722274780273 93 93 93
-6.004263877868652 -0.9150373935699463 22.373218536376953 156 156 156
-5.7649407386779785 -1.2506592273712158 26.229944229125977 116 116 116
-0.008393019437789917 4.097972869873047 25.640478134155273 23 23 23
1.8527110815048218 5.705371379852295 29.909053802490234 99 99 99
-6.622739315032959 -2.596571922302246 22.54540252685547 41 41 41
-5.370500087738037 16.321104049682617 30.309022903442383 170 170 170
-5.381131172180176 -1.1738134622573853 22.563589096069336 252 252 252
-6.738295078277588 -2.680107593536377 22.940183639526367 231 231 231
-5.526839256286621 -0.7488347291946411 23.164060592651367 186 186 186
-11.517599105834961 -7.717770576477051 25.382783889770508 60 60 60
-5.476606845855713 -1.3693792819976807 25.089460372924805 72 72 72
-8.302724838256836 4.763789176940918 23.23808479309082 1 1 1
-5.541971206665039 -1.329118251800537 23.064170837402344 214 214 214
-7.078978061676025 4.930080413818359 24.26483154296875 24 24 24
-7.077950954437256 4.929432392120361 24.26163673400879 24 24 24
-7.137982368469238 12.035470008850098 25.334463119506836 89 89 89
-5.388059616088867 4.959721565246582 24.628427505493164 21 21 21
-7.067457675933838 5.632915496826172 24.088497161865234 28 28 28
-3.8258678913116455 6.993720531463623 24.30730628967285 3 3 3
-7.66243839263916 -2.943814516067505 24.488555908203125 128 128 128
-6.454614162445068 -1.3330774307250977 21.776147842407227 235 235 235
-6.475648403167725 18.314250946044922 31.04949188232422 67 67 67
-5.299014568328857 1.0265100002288818 24.702239990234375 251 251 251
-5.299158573150635 1.0265374183654785 24.70280647277832 251 251 251
-2.046109437942505 13.137173652648926 28.096284866333008 59 59 59
-7.422609329223633 -0.51242995262146 23.062915802001953 232 232 232
-6.18342399597168 4.984004497528076 24.48699951171875 17 17 17
-4.668497085571289 -7.599488258361816 25.71324920654297 170 170 170
-1.7674237489700317 12.135130882263184 27.189041137695312 152 152 152
-6.183333873748779 4.983989238739014 24.486696243286133 17 17 17
-5.046138763427734 16.681720733642578 30.20981788635254 104 104 104
-5.655265808105469 -0.5130864381790161 22.853130340576172 208 208 208
-7.077988624572754 4.929457187652588 24.261762619018555 24 24 24
-9.604802131652832 0.6835926175117493 26.655277252197266 205 205 205
-7.422767162322998 -0.5123689770698547 23.063472747802734 232 232 232
-9.9846773147583 -4.532344341278076 29.480892181396484 239 239 239
-8.504776000976562 -3.921565532684326 25.50699806213379 184 184 184
-8.503227233886719 -3.9209625720977783 25.502824783325195 184 184 184
-8.775943756103516 4.834339141845703 23.525320053100586 16 16 16
-5.32275915145874 -2.9566168785095215 23.029756546020508 192 192 192
-10.05820083618164 0.642367422580719 23.387313842773438 223 223 223
-1.2222858667373657 15.817781448364258 30.765552520751953 161 161 161
-6.108455657958984 -3.0696043968200684 23.409399032592773 29 29 29
-7.208578109741211 -0.43899714946746826 24.093612670898438 206 206 206
-5.742177486419678 -1.8340455293655396 25.375133514404297 234 234 234
-2.0770163536071777 5.8089985847473145 25.457242965698242 19 19 19
-7.8869099617004395 -1.6896483898162842 23.08951759338379 17 17 17
-5.4353742599487305 6.514978885650635 25.05901336669922 2 2 2
-9.748373031616211 -3.831749200820923 24.656343460083008 20 20 20
-5.334583282470703 5.869414329528809 25.03000831604004 181 181 181
-4.677356243133545 14.898579597473145 29.143129348754883 148 148 148
-8.184294700622559 -3.693358898162842 23.961223602294922 112 112 112
-5.467280387878418 -2.9970126152038574 21.8865966796875 119 119 119
-9.276911735534668 -3.7141404151916504 24.657072067260742 170 170 170
-5.320605754852295 0.8323447704315186 24.705097198486328 228 228 228
-5.467549800872803 -1.9853562116622925 24.99547004699707 244 244 244
-5.880735397338867 -3.2301533222198486 23.815608978271484 150 150 150
-9.96530532836914 0.6327758431434631 23.171667098999023 110 110 110
-6.754518508911133 -0.23682063817977905 22.702594757080078 135 135 135
-4.120903015136719 0.6967957019805908 23.824630737304688 125 125 125
-6.01635217666626 -3.268414258956909 23.737810134887695 101 101 101
-1.2935457229614258 15.999807357788086 28.520832061767578 128 128 128
-7.709197044372559 -1.8600292205810547 22.830883026123047 229 229 229
-7.038204193115234 -3.4910621643066406 25.244312286376953 141 141 141
-6.617825508117676 -1.7822304964065552 21.49628448486328 200 200 200
-6.016211032867432 -3.2683584690093994 23.73732566833496 101 101 101
-7.23415994644165 -1.9773050546646118 23.844173431396484 79 79 79
-7.476325988769531 -1.901581048965454 22.697355270385742 73 73 73
-5.091731548309326 16.995235443115234 30.160619735717773 86 86 86
-3.995569944381714 16.373844146728516 28.909496307373047 179 179 179
-6.127601146697998 -0.0705990120768547 25.307661056518555 185 185 185
-5.486215591430664 17.24166488647461 30.456501007080078 97 97 97
-5.794461250305176 -0.9322607517242432 22.911516189575195 187 187 187
-5.890585899353027 -0.8786206841468811 24.119173049926758 239 239 239
-8.558733940124512 -1.7938038110733032 23.940044403076172 81 81 81
0.7273163199424744 2.5784690380096436 30.866727828979492 151 151 151
-5.555788993835449 13.976736068725586 28.149948120117188 191 191 191
0.6751304864883423 0.22604797780513763 31.397476196289062 160 160 160
1.989948034286499 0.23208217322826385 31.449241638183594 40 40 40
-3.3312816619873047 5.033433437347412 25.01305389404297 24 24 24
-7.704021453857422 7.039119720458984 24.33989143371582 18 18 18
-7.410421371459961 -3.4787983894348145 22.56475830078125 214 214 214
-10.111261367797852 -3.760401487350464 25.783069610595703 98 98 98
-4.247297763824463 4.084895133972168 22.50575065612793 109 109 109
-4.307303428649902 7.158945560455322 24.980669021606445 177 177 177
-10.547061920166016 -2.417407989501953 24.064817428588867 125 125 125
2.0034780502319336 0.23724797368049622 31.66173553466797 40 40 40
-7.446498394012451 17.30690574645996 30.871891021728516 136 136 136
-8.990662574768066 4.0140838623046875 23.148921966552734 116 116 116
-4.922227382659912 0.32638654112815857 20.762306213378906 133 133 133
-9.9832181930542 -8.693591117858887 25.87111473083496 149 149 149
-2.6570234298706055 15.161188125610352 30.002479553222656 119 119 119
-2.834662914276123 1.763608694076538 24.641000747680664 93 93 93
-1.5977543592453003 4.288433074951172 25.208797454833984 47 47 47
-8.935004234313965 3.512439012527466 23.58300018310547 88 88 88
-1.1607517004013062 7.585996627807617 25.609466552734375 22 22 22
-4.330014228820801 5.702855587005615 24.966482162475586 211 211 211
-4.5239033699035645 4.307887077331543 24.958904266357422 147 147 147
-4.486300468444824 4.31507682800293 25.009540557861328 102 102 102
-4.661330699920654 4.829446792602539 27.876646041870117 137 137 137
-9.946483612060547 -8.465814590454102 25.809450149536133 27 27 27
-1.0902601480484009 7.621405124664307 26.193506240844727 130 130 130
-6.168676376342773 5.6350555419921875 24.418622970581055 104 104 104
-6.32260274887085 4.3251237869262695 24.69348907470703 64 64 64
-5.233758926391602 4.274600982666016 24.341272354125977 30 30 30
-5.103074550628662 4.499687671661377 25.440216064453125 98 98 98
-4.554795265197754 4.347535610198975 24.374279022216797 0 0 0
-6.899034023284912 6.300687313079834 27.309280395507812 54 54 54
-5.017058849334717 4.5238189697265625 25.086828231811523 202 202 202
-6.307685852050781 7.249765872955322 24.86786651611328 144 144 144
2.0458405017852783 -3.494415521621704 31.57799530029297 153 153 153
-5.415532112121582 0.342469722032547 22.838043212890625 11 11 11
-5.057034015655518 4.530200481414795 25.048229217529297 11 11 11
-8.071088790893555 -2.488337755203247 22.565385818481445 50 50 50
-11.022966384887695 2.765187978744507 23.820884704589844 46 46 46
0.6118606925010681 -3.5342330932617188 32.61532974243164 96 96 96
2.0460145473480225 -3.495011568069458 31.58330726623535 153 153 153
-6.71269416809082 0.38201141357421875 21.73932647705078 238 238 238
-1.0901434421539307 7.620874404907227 26.191858291625977 130 130 130
-7.222134113311768 0.24181227385997772 22.949119567871094 157 157 157
-7.387820720672607 0.6116597056388855 24.372835159301758 180 180 180
-7.068510055541992 5.633797645568848 24.09206199645996 28 28 28
-5.225464344024658 15.68729305267334 29.133769989013672 86 86 86
-5.2285308837890625 15.696344375610352 29.150522232055664 86 86 86
-1.6854952573776245 12.038039207458496 27.096370697021484 155 155 155
-0.6405379176139832 17.243812561035156 31.636863708496094 41 41 41
-5.526828765869141 -0.7488269805908203 23.164024353027344 186 186 186
-5.972535610198975 0.038936033844947815 23.36594009399414 188 188 188
-1.7627875804901123 14.063677787780762 27.103858947753906 124 124 124
-8.147748947143555 3.6016387939453125 24.167268753051758 11 11 11
-6.765646934509277 6.2783684730529785 24.711278915405273 41 41 41
-4.20965576171875 4.347008228302002 24.627920150756836 120 120 120
-1.4996473789215088 8.941020965576172 26.266929626464844 73 73 73
-2.734337091445923 13.868223190307617 28.61024284362793 144 144 144
0.014189964160323143 -6.634206771850586 28.78394889831543 82 82 82
-7.516938209533691 14.005437850952148 27.194536209106445 105 105 105
-6.6132659912109375 -6.366957187652588 26.099531173706055 97 97 97
-2.9079949855804443 8.032387733459473 26.435407638549805 178 178 178
-5.9966583251953125 5.071070194244385 24.966718673706055 27 27 27
-9.844566345214844 5.37249231338501 26.101699829101562 14 14 14
-8.350996971130371 4.239813327789307 24.06200408935547 2 2 2
-1.5346304178237915 17.531082153320312 31.611474990844727 108 108 108
-5.281242847442627 4.486325263977051 25.514007568359375 18 18 18
-3.655618667602539 12.596999168395996 28.132827758789062 27 27 27
-1.1489145755767822 6.7029643058776855 25.350698471069336 158 158 158
0.6751412749290466 0.2260390669107437 31.397804260253906 160 160 160
-5.937008857727051 -1.9690977334976196 23.340242385864258 188 188 188
-6.314347267150879 -3.2120745182037354 23.044097900390625 173 173 173
-6.463196754455566 -1.7804452180862427 21.299205780029297 160 160 160
0.6736926436424255 3.7010788917541504 30.92638397216797 189 189 189
-7.703953266143799 7.039061546325684 24.339702606201172 18 18 18
-5.4704790115356445 -2.1245150566101074 24.960975646972656 220 220 220
1.88042151927948 3.574517011642456 30.60877227783203 51 51 51
-5.715173244476318 -2.0946781635284424 25.44983673095703 209 209 209
-11.021490097045898 2.764852285385132 23.81795310974121 46 46 46
0.7272162437438965 2.578129291534424 30.862760543823242 151 151 151
-1.090256690979004 7.621385097503662 26.193466186523438 130 130 130
-1.0107104778289795 7.88099479675293 26.723840713500977 125 125 125
-7.716884613037109 -1.8624531030654907 22.853517532348633 229 229 229
-1.2629938125610352 18.57778549194336 31.78255844116211 114 114 114
-6.899092197418213 6.300734519958496 27.30948257446289 54 54 54
-6.168766498565674 5.635133266448975 24.418874740600586 104 104 104
-5.873229026794434 -3.2266645431518555 23.789596557617188 150 150 150
-10.557544708251953 -2.4200868606567383 24.086545944213867 125 125 125
-0.8406187891960144 6.676238059997559 23.062971115112305 160 160 160
0.2302064746618271 -5.489794731140137 31.210559844970703 88 88 88
-6.3043212890625 7.246364116668701 24.85643196105957 144 144 144
-8.50454330444336 0.9224845170974731 22.271400451660156 197 197 197
-4.369197368621826 5.753996849060059 25.150577545166016 212 212 212
-1.4488422870635986 6.731223106384277 25.243825912475586 8 8 8
-8.906453132629395 3.508070707321167 23.48270034790039 88 88 88
-6.3204827308654785 -1.2646442651748657 20.833820343017578 158 158 158
-6.016420841217041 -3.2684643268585205 23.738149642944336 101 101 101
-5.335646152496338 5.872747421264648 25.034221649169922 181 181 181
-5.613892555236816 -1.3156657218933105 22.906644821166992 193 193 193
-5.5968499183654785 -1.342909812927246 23.30939483642578 253 253 253
-5.52354621887207 -1.2922910451889038 22.595659255981445 251 251 251
-6.7304158210754395 -1.2104123830795288 22.043455123901367 241 241 241
-5.580593109130859 -2.9516842365264893 21.376968383789062 247 247 247
-5.278834342956543 4.897086143493652 24.638954162597656 200 200 200
-1.866527795791626 5.266320705413818 26.325870513916016 1 1 1
0.010379564948379993 -3.572758913040161 25.789226531982422 5 5 5
1.884688138961792 4.723308563232422 30.70960235595703 74 74 74
-5.476424694061279 -1.3692625761032104 25.08843421936035 72 72 72
-10.180291175842285 0.6354325413703918 23.668472290039062 240 240 240
0.6612695455551147 4.766330718994141 30.82454490661621 199 199 199
-0.8413732647895813 0.656195878982544 24.654531478881836 244 244 244
-7.07801628112793 4.929471492767334 24.26183319091797 24 24 24
-8.775365829467773 4.834101676940918 23.523775100708008 16 16 16
-6.323226451873779 -1.26517915725708 20.841617584228516 158 158 158
-6.016576766967773 -3.2685229778289795 23.738759994506836 101 101 101
-7.156883716583252 -1.4188659191131592 23.179853439331055 252 252 252
-9.464288711547852 -3.537057638168335 24.282270431518555 26 26 26
-5.763559818267822 -1.0448931455612183 22.926897048950195 248 248 248
-7.482307434082031 -1.4258549213409424 22.66413688659668 213 213 213
-4.375284194946289 5.147899627685547 25.300796508789062 16 16 16
-9.983257293701172 -8.693692207336426 25.87118148803711 149 149 149
-10.425814628601074 -8.84083080291748 26.334102630615234 71 71 71
-6.18350887298584 4.984097003936768 24.487319946289062 17 17 17
-6.812321662902832 -0.9426431059837341 22.919137954711914 174 174 174
-1.090172290802002 7.6210174560546875 26.192340850830078 130 130 130
-7.492832183837891 -0.9131050109863281 22.74651527404785 184 184 184
-8.30267333984375 4.763759136199951 23.237945556640625 1 1 1
-5.796692848205566 -0.9320410490036011 22.919307708740234 187 187 187
-5.416540145874023 0.34259292483329773 22.841917037963867 11 11 11
-7.367323875427246 5.096048355102539 24.76589012145996 115 115 115
-4.907471179962158 -2.8585219383239746 19.00988006591797 165 165 165
-5.362107276916504 4.945165157318115 24.50984764099121 34 34 34
0.6544313430786133 -10.284130096435547 33.06871795654297 7 7 7
-5.348655700683594 0.33391812443733215 24.815776824951172 207 207 207
-3.8258845806121826 6.993746757507324 24.307403564453125 3 3 3
-1.59773850440979 4.288390636444092 25.208642959594727 47 47 47
0.6678160429000854 5.93478536605835 30.920137405395508 139 139 139
0.6751347780227661 0.22604675590991974 31.3973331451416 160 160 160
2.0458717346191406 -3.4945125579833984 31.578866958618164 153 153 153
-9.986793518066406 -2.7550339698791504 24.83358383178711 253 253 253
-4.211512088775635 6.611124038696289 25.91818618774414 124 124 124
-5.923213005065918 -2.9191436767578125 21.89617919921875 136 136 136
-5.5378899574279785 -3.0663890838623047 23.058439254760742 68 68 68
-4.746866226196289 -7.914727687835693 26.007038116455078 128 128 128
-11.51749038696289 -7.717705726623535 25.382564544677734 60 60 60
-4.283604621887207 4.301919937133789 24.97130012512207 26 26 26
-4.10455322265625 4.479283332824707 25.731822967529297 2 2 2
-9.049836158752441 4.05354642868042 23.2872371673584 130 130 130
-8.170797348022461 -3.689819574356079 23.925230026245117 112 112 112
-4.371805667877197 5.144443988800049 25.280378341674805 16 16 16
-9.74836540222168 -3.8317391872406006 24.656328201293945 20 20 20
-2.5747733116149902 10.090278625488281 25.83205223083496 136 136 136
-4.668447971343994 -7.59942102432251 25.713029861450195 170 170 170
-3.995450735092163 16.373424530029297 28.908803939819336 179 179 179
-6.5249857902526855 -0.07754834741353989 22.879981994628906 141 141 141
-5.412449836730957 -0.5817441940307617 23.615846633911133 152 152 152
-7.422400951385498 -0.5124051570892334 23.06235122680664 232 232 232
-5.0368547439575195 4.520866870880127 24.944934844970703 10 10 10
-6.7962141036987305 -2.4794716835021973 23.182601928710938 143 143 143
-5.166562080383301 4.385979652404785 24.628742218017578 162 162 162
-5.103466987609863 4.499966144561768 25.441850662231445 98 98 98
-4.607541084289551 4.391577243804932 24.606401443481445 6 6 6
-6.391643524169922 -0.548637866973877 24.04711151123047 210 210 210
-5.6556878089904785 -0.5131030082702637 22.854856491088867 208 208 208
-8.504749298095703 -3.921557664871216 25.506925582885742 184 184 184
-8.687643051147461 -3.4494428634643555 22.222787857055664 102 102 102
-4.123721122741699 0.755852997303009 26.677366256713867 166 166 166
-4.67715311050415 14.897979736328125 29.141979217529297 148 148 148
-8.086816787719727 4.224358558654785 23.965242385864258 158 158 158
-4.283825874328613 4.402363300323486 24.978839874267578 141 141 141
-8.086764335632324 4.224336624145508 23.965103149414062 158 158 158
-4.120207786560059 0.696660578250885 23.820592880249023 125 125 125
-7.704005241394043 7.03910493850708 24.339847564697266 18 18 18
-5.47678279876709 -1.3694099187850952 25.090036392211914 72 72 72
-6.086245059967041 3.906733989715576 24.59573745727539 37 37 37
-5.679414749145508 -8.623388290405273 26.55006980895996 48 48 48
-4.219675540924072 4.109539031982422 24.930259704589844 98 98 98
-9.209583282470703 -3.8627169132232666 25.020971298217773 238 238 238
-0.006140258628875017 4.086182594299316 25.58115005493164 23 23 23
-9.120122909545898 0.6381298899650574 24.55738639831543 129 129 129
-9.3424654006958 12.39077377319336 26.694915771484375 121 121 121
-2.6570632457733154 15.161412239074707 30.002893447875977 119 119 119
-2.834604024887085 1.7635910511016846 24.64063835144043 93 93 93
-5.435305595397949 6.51489782333374 25.05870246887207 2 2 2
-9.871208190917969 17.823122024536133 30.543415069580078 77 77 77
-9.056653022766113 3.9933345317840576 23.038862228393555 119 119 119
-3.6047661304473877 0.6844845414161682 23.974239349365234 88 88 88
-0.9369564652442932 6.1423234939575195 23.14874839782715 132 132 132
-1.2239986658096313 6.9461750984191895 26.238201141357422 132 132 132
-9.46024227142334 6.046104907989502 22.86524772644043 21 21 21
-1.1055402755737305 7.305395603179932 25.574092864990234 46 46 46
-8.870715141296387 0.644140899181366 24.302865982055664 224 224 224
-8.744404792785645 4.375368118286133 23.498201370239258 138 138 138
-5.199624538421631 4.172671318054199 24.920024871826172 137 137 137
-5.91471004486084 13.219369888305664 27.35206413269043 150 150 150
-1.1359405517578125 16.717479705810547 31.236953735351562 75 75 75
-6.1852569580078125 3.9778966903686523 24.94161033630371 77 77 77
-5.113051891326904 -4.343149662017822 20.52630615234375 23 23 23
-6.183554649353027 4.9841203689575195 24.487455368041992 17 17 17
-5.358989238739014 4.552126884460449 25.545074462890625 153 153 153
-4.547049045562744 4.34649133682251 24.340639114379883 2 2 2
-6.328083038330078 -2.6999001502990723 26.726511001586914 152 152 152
-6.5662078857421875 -0.632104218006134 23.79886245727539 177 177 177
-5.682088851928711 -2.0868029594421387 25.2990665435791 209 209 209
-2.076995611190796 5.808923721313477 25.456912994384766 19 19 19
-7.332387924194336 -1.999799132347107 24.169178009033203 121 121 121
-5.319762229919434 5.868417739868164 25.042490005493164 88 88 88
-8.8798246383667 1.428915023803711 24.598865509033203 92 92 92
-7.077977657318115 4.929454803466797 24.261747360229492 24 24 24
0.5370592474937439 -3.0777015686035156 28.557579040527344 70 70 70
-6.168668746948242 5.635045528411865 24.418577194213867 104 104 104
-7.722565174102783 -1.8589410781860352 22.872243881225586 229 229 229
0.13113781809806824 -2.4371442794799805 22.311378479003906 61 61 61
-5.149713516235352 5.722819805145264 24.823734283447266 0 0 0
-7.030495643615723 -2.622173309326172 23.44308090209961 112 112 112
-10.036454200744629 -2.775547742843628 24.917579650878906 193 193 193
0.5928256511688232 -3.3576877117156982 29.927576065063477 131 131 131
-5.204207897186279 -0.8637708425521851 23.94489097595215 221 221 221
-5.439708232879639 -0.8571736812591553 22.206138610839844 185 185 185
-6.807910919189453 -0.9418612122535706 22.90436363220215 174 174 174
-7.493213176727295 -0.9131656885147095 22.747661590576172 184 184 184
-5.798842430114746 -1.050144910812378 23.04668617248535 248 248 248
-7.821010589599609 -2.253084421157837 24.828289031982422 236 236 236
0.729302167892456 2.585617780685425 30.95062255859375 151 151 151
-6.394869327545166 -1.7289537191390991 20.741525650024414 238 238 238
0.7292791604995728 2.5853569507598877 30.947288513183594 151 151 151
-6.021345138549805 -1.130159616470337 23.400876998901367 203 203 203
-6.163883686065674 -1.070055603981018 21.792125701904297 79 79 79
0.7522276043891907 -5.502807140350342 29.54744529724121 97 97 97
-5.6844024658203125 -9.858732223510742 27.313732147216797 22 22 22
-5.476483345031738 -1.369301438331604 25.08880043029785 72 72 72
-7.192994117736816 -2.9040558338165283 23.4366512298584 60 60 60
-2.574869394302368 10.090738296508789 25.833219528198242 136 136 136
-5.653235912322998 -1.3364472389221191 23.88047981262207 253 253 253
-5.496960163116455 -1.3206145763397217 22.95684814453125 249 249 249
-8.744468688964844 4.375389575958252 23.498367309570312 138 138 138
-9.90429401397705 -8.617704391479492 25.66840934753418 106 106 106
-5.322956085205078 -2.9566826820373535 23.030492782592773 192 192 192
-6.237245082855225 -2.9749245643615723 23.017494201660156 150 150 150
0.13107840716838837 -4.791651248931885 26.91149139404297 130 130 130
-6.01666259765625 -3.268561363220215 23.739051818847656 101 101 101
-6.292129039764404 -1.261588215827942 20.738544464111328 158 158 158
-6.147440433502197 -3.134752035140991 22.432598114013672 107 107 107
-7.184116840362549 -1.4026395082473755 22.520910263061523 62 62 62
-6.578110694885254 -3.5027642250061035 25.228178024291992 169 169 169
-7.482327938079834 -1.4258571863174438 22.664201736450195 213 213 213
-5.580593109130859 -2.9516842365264893 21.376968383789062 247 247 247
-4.746840953826904 -7.914700508117676 26.006933212280273 128 128 128
-7.092695236206055 -1.4123711585998535 23.381040573120117 144 144 144
-5.924602031707764 -1.9706374406814575 23.289594650268555 157 157 157
-1.5213254690170288 9.024008750915527 26.493778228759766 103 103 103
-7.421847820281982 -3.2455742359161377 20.964691162109375 172 172 172
-7.705067157745361 -3.5092177391052246 22.706558227539062 201 201 201
-8.354058265686035 -3.8684840202331543 25.078662872314453 236 236 236
-5.9369683265686035 -1.9690860509872437 23.340091705322266 188 188 188
-8.44287395477295 -3.896918535232544 25.320327758789062 195 195 195
-2.475266695022583 3.6293728351593018 25.65361213684082 56 56 56
-4.307625770568848 7.159430980682373 24.982444763183594 177 177 177
-7.389477252960205 1.0674737691879272 23.252872467041016 140 140 140
-0.024351323023438454 3.804438829421997 26.275562286376953 105 105 105
0.667357861995697 5.941720962524414 30.958667755126953 139 139 139
-8.932992935180664 3.511650323867798 23.578285217285156 88 88 88
-8.271566390991211 -1.5773696899414062 22.94725799560547 132 132 132
-6.822030067443848 -3.8513221740722656 24.833223342895508 76 76 76
-2.6951780319213867 8.089067459106445 27.083356857299805 162 162 162
-7.274194717407227 -2.0160322189331055 22.720870971679688 85 85 85
-1.0106836557388306 7.880951881408691 26.723878860473633 125 125 125
0.5668348073959351 -2.044872522354126 29.175216674804688 99 99 99
-1.0902860164642334 7.621533393859863 26.19384002685547 130 130 130
-8.12236499786377 -1.5919508934020996 23.086742401123047 85 85 85
-7.704002857208252 7.039102554321289 24.339839935302734 18 18 18
-8.942005157470703 -9.75079345703125 26.786584854125977 82 82 82
-5.4774169921875 -1.3695733547210693 25.0929012298584 72 72 72
0.6611329913139343 4.7679877281188965 30.837080001831055 199 199 199
-5.423953533172607 5.0141730308532715 25.209726333618164 191 191 191
-6.087157726287842 3.907282829284668 24.598913192749023 37 37 37
-5.410131931304932 -2.9633214473724365 21.337522506713867 81 81 81
-11.154199600219727 -4.339261531829834 27.881328582763672 19 19 19
-4.0302653312683105 6.923959732055664 24.205467224121094 39 39 39
-6.766806125640869 -1.2331434488296509 25.790447235107422 84 84 84
0.5519456267356873 -2.2890965938568115 29.982627868652344 141 141 141
-2.4049367904663086 4.226955413818359 25.32244873046875 76 76 76
-0.47261378169059753 7.0793023109436035 25.84700584411621 32 32 32
-8.086440086364746 0.8777445554733276 21.289531707763672 197 197 197
-5.299121856689453 1.0265307426452637 24.702653884887695 251 251 251
-9.323421478271484 0.8518735766410828 24.031827926635742 11 11 11
-1.5977531671524048 4.288424968719482 25.208829879760742 47 47 47
-7.587040901184082 0.4466310739517212 23.02184295654297 49 49 49
-6.814871788024902 0.3776702880859375 22.01088523864746 112 112 112
-5.568716526031494 5.107712745666504 25.4001522064209 29 29 29
-6.109891414642334 0.3844693899154663 25.765201568603516 73 73 73
-6.9816789627075195 0.2689265310764313 22.769325256347656 4 4 4
-5.348935604095459 0.3340052366256714 24.817001342773438 207 207 207
-5.381679058074951 0.33762115240097046 22.69403648376465 11 11 11
-0.8057791590690613 7.1106390953063965 26.799907684326172 16 16 16
0.67514568567276 0.22603783011436462 31.39739227294922 160 160 160
-4.617367267608643 4.373076915740967 25.452730178833008 92 92 92
0.675130307674408 0.226047083735466 31.398160934448242 160 160 160
1.989856243133545 0.2321140468120575 31.44753646850586 40 40 40
-4.677371025085449 14.898662567138672 29.143287658691406 148 148 148
-5.454002380371094 -0.1456225961446762 22.521699905395508 121 121 121
-8.885126113891602 3.978595495223999 22.904510498046875 109 109 109
-7.077965259552002 4.929442405700684 24.26169204711914 24 24 24
0.6684398055076599 5.92374849319458 30.86049461364746 139 139 139
-4.2395477294921875 4.2936272621154785 24.84573745727539 28 28 28
-4.566651344299316 4.45754337310791 25.552799224853516 22 22 22
-8.086790084838867 4.224349498748779 23.965166091918945 158 158 158
-6.322591304779053 4.3251142501831055 24.69344139099121 64 64 64
-6.322575092315674 4.325105667114258 24.693387985229492 64 64 64
-5.6553754806518555 -0.5130868554115295 22.853599548339844 208 208 208
-6.300117015838623 -0.5516843199729919 23.69949722290039 175 175 175
0.130238875746727 -2.1053316593170166 26.589399337768555 11 11 11
-5.412156105041504 -0.5817132592201233 23.614559173583984 152 152 152
-4.183894157409668 6.5568623542785645 25.750696182250977 84 84 84
0.6269852519035339 6.875133514404297 30.234046936035156 120 120 120
-7.7160115242004395 -2.465289831161499 23.238428115844727 242 242 242
-4.364701747894287 5.746781349182129 25.12940216064453 212 212 212
-9.456110000610352 1.2874399423599243 24.134471893310547 63 63 63
-9.969517707824707 1.2961218357086182 23.722505569458008 161 161 161
-5.175560474395752 4.49749755859375 24.671131134033203 29 29 29
-7.369298934936523 5.100064754486084 24.77186393737793 115 115 115
-2.761213541030884 9.140738487243652 25.900081634521484 85 85 85
-4.371885776519775 5.14451265335083 25.280763626098633 16 16 16
-6.1728010177612305 -5.472638130187988 25.7842960357666 35 35 35
-5.7589216232299805 0.8344422578811646 23.14997100830078 161 161 161
-3.995526075363159 16.373600006103516 28.909141540527344 179 179 179
-4.403989791870117 4.33980131149292 24.278343200683594 151 151 151
-4.063068389892578 6.249840259552002 24.801654815673828 51 51 51
-8.18652057647705 0.627016007900238 24.71173095703125 135 135 135
-7.843581199645996 0.5601915717124939 21.767383575439453 209 209 209
-5.250661373138428 4.20927095413208 25.125892639160156 197 197 197
-0.5722248554229736 17.600099563598633 31.386608123779297 30 30 30
-6.736284255981445 -1.8077706098556519 23.333539962768555 185 185 185
-10.456460952758789 -4.394587516784668 28.532878875732422 219 219 219
-6.530452251434326 0.4131944179534912 25.949451446533203 142 142 142
-3.3981752395629883 4.953111171722412 24.473257064819336 5 5 5
-4.279641151428223 6.5645527839660645 25.69417953491211 125 125 125
-9.475000381469727 5.878194808959961 22.614261627197266 77 77 77
-9.460857391357422 6.046459197998047 22.866714477539062 21 21 21
-1.2396090030670166 4.584917068481445 23.065303802490234 69 69 69
-3.872978448867798 0.03011598251760006 24.510684967041016 171 171 171
-8.313169479370117 15.11375904083252 27.566389083862305 89 89 89
-4.281052112579346 -0.11897002905607224 24.89853858947754 154 154 154
-3.8882272243499756 -0.27216020226478577 24.50615882873535 125 125 125
-5.668822765350342 3.645681858062744 25.24629020690918 37 37 37
-6.7774834632873535 4.783446311950684 23.750070571899414 164 164 164
-6.48016881942749 -6.4178948402404785 25.88475227355957 52 52 52
