ply
format ascii 1.0
element vertex 169
property float x
property float y
property float z
property uchar red
property uchar green
property uchar blue
end_header
-14.256118774414062 -15.045235633850098 30.61486053466797 89 89 89
-12.401098251342773 -10.620627403259277 26.661582946777344 60 60 60
-12.725486755371094 -11.647626876831055 27.415084838867188 132 132 132
-11.865132331848145 -15.313638687133789 25.768789291381836 81 81 81
-10.912938117980957 -15.040026664733887 24.35489845275879 69 69 69
-10.499211311340332 -15.658753395080566 24.549108505249023 60 60 60
-13.398331642150879 -22.21076011657715 34.96902084350586 54 54 54
-11.293230056762695 -7.424163341522217 29.464599609375 140 140 140
-8.541536331176758 -13.037972450256348 22.546106338500977 96 96 96
-10.450234413146973 -19.382387161254883 30.016273498535156 40 40 40
-10.954538345336914 -20.336828231811523 31.826847076416016 99 99 99
-8.119839668273926 -12.792140007019043 23.650484085083008 64 64 64
-10.314298629760742 -20.037839889526367 30.575546264648438 39 39 39
-10.448805809020996 -18.736125946044922 30.990697860717773 104 104 104
-10.234737396240234 -16.333621978759766 31.046335220336914 128 128 128
-7.970592498779297 -15.89673900604248 25.473468780517578 93 93 93
-10.941609382629395 -19.819929122924805 36.863731384277344 119 119 119
-10.442063331604004 -19.382780075073242 35.646217346191406 129 129 129
-12.022989273071289 -4.468096733093262 41.03438949584961 102 102 102
-9.599508285522461 -20.301198959350586 33.338382720947266 107 107 107
-9.56904411315918 -18.14788818359375 33.45417022705078 116 116 116
-7.8376874923706055 -18.476089477539062 29.21179962158203 111 111 111
-9.092438697814941 -21.530189514160156 35.15590286254883 130 130 130
-8.0258207321167 -19.555051803588867 31.806961059570312 118 118 118
-9.818580627441406 -20.127586364746094 39.046836853027344 61 61 61
-9.579219818115234 -20.92623519897461 38.27216720581055 137 137 137
-9.052872657775879 -22.22141456604004 36.45045471191406 120 120 120
-9.197589874267578 -21.378040313720703 38.150489807128906 143 143 143
-8.714714050292969 -23.808828353881836 39.03036117553711 100 100 100
-9.37894344329834 -22.051542282104492 43.110565185546875 59 59 59
-8.97964096069336 -25.330163955688477 43.03400421142578 105 105 105
-3.94942045211792 -4.479960918426514 21.09921646118164 57 57 57
-5.518184185028076 -7.019074440002441 30.54998016357422 128 128 128
-5.102423191070557 -6.723391532897949 28.75840950012207 138 138 138
-3.694016218185425 -4.725826740264893 21.901880264282227 189 189 189
-3.694016218185425 -4.725826740264893 21.901880264282227 189 189 189
-4.693369388580322 -6.69014835357666 28.098037719726562 138 138 138
-4.411532878875732 -6.0180511474609375 26.521909713745117 137 137 137
-4.760594367980957 -6.989489555358887 29.706111907958984 31 31 31
-4.760594367980957 -6.989489555358887 29.706111907958984 31 31 31
-4.630611896514893 -6.803091526031494 28.90218734741211 31 31 31
-4.630611896514893 -6.803091526031494 28.90218734741211 31 31 31
-5.681796073913574 -8.634273529052734 35.63923645019531 165 165 165
-7.570444583892822 -11.108146667480469 48.887107849121094 135 135 135
-7.570444583892822 -11.108146667480469 48.887107849121094 135 135 135
-4.678788185119629 -6.950817108154297 31.154939651489258 27 27 27
-4.938160419464111 -7.796525955200195 34.305702209472656 133 133 133
-5.74226713180542 -9.634256362915039 40.60676956176758 36 36 36
-5.74226713180542 -9.634256362915039 40.60676956176758 36 36 36
-3.8351082801818848 -5.832965850830078 27.337417602539062 148 148 148
-5.042078495025635 -24.4256534576416 41.71804428100586 117 117 117
-0.5748856067657471 -8.111106872558594 24.79096031188965 111 111 111
0.5130502581596375 5.497695446014404 11.932072639465332 9 9 9
-3.9426968097686768 -4.472405910491943 21.063312530517578 57 57 57
-3.986412763595581 -6.054749011993408 26.51312255859375 8 8 8
-4.820826053619385 -6.91131067276001 29.77242660522461 198 198 198
-4.826984405517578 -6.001080513000488 25.886320114135742 27 27 27
-4.5392656326293945 -6.295114994049072 26.282482147216797 4 4 4
-5.690358638763428 -8.647065162658691 35.691463470458984 165 165 165
-3.9442105293273926 -5.267168045043945 24.656408309936523 152 152 152
-5.649843692779541 -8.136467933654785 36.964786529541016 6 6 6
-3.69179105758667 -4.722944736480713 21.88846778869629 189 189 189
-4.468677997589111 -5.372681140899658 26.950061798095703 153 153 153
-2.0885009765625 -3.413778305053711 15.40478801727295 159 159 159
-9.228665351867676 -20.257204055786133 37.58534240722656 149 149 149
-5.332577228546143 -8.098528861999512 36.8838996887207 167 167 167
-4.282350063323975 -5.164069652557373 23.59822654724121 194 194 194
-9.228511810302734 -20.256675720214844 37.584381103515625 149 149 149
-3.6772849559783936 -5.65329647064209 25.7882080078125 204 204 204
-3.837951183319092 -5.837303161621094 27.35784912109375 148 148 148
-10.059959411621094 -19.72412872314453 36.997596740722656 56 56 56
-9.400405883789062 -17.878538131713867 33.678016662597656 74 74 74
-10.356878280639648 -15.216407775878906 29.482406616210938 47 47 47
-10.1195650100708 -18.371671676635742 34.81121063232422 65 65 65
0.5548951029777527 5.988869667053223 12.994462966918945 40 40 40
-9.400096893310547 -17.877910614013672 33.67680740356445 74 74 74
-3.9427263736724854 -4.472439289093018 21.063472747802734 57 57 57
-3.6905176639556885 -4.721437454223633 21.881349563598633 189 189 189
-3.691228151321411 -4.722253322601318 21.88521957397461 189 189 189
-4.819519519805908 -6.683908462524414 27.9533634185791 6 6 6
-1.9960153102874756 -3.026106834411621 12.485918998718262 89 89 89
-4.152096271514893 -5.769059181213379 24.12234878540039 6 6 6
-4.2951765060424805 -5.7571702003479 24.577268600463867 193 193 193
-4.219092845916748 -6.712389945983887 30.74710464477539 160 160 160
-4.5533857345581055 -6.986721515655518 31.856510162353516 192 192 192
-4.963264465332031 -7.158026218414307 32.259273529052734 10 10 10
-5.610440731048584 -8.871663093566895 39.30056381225586 208 208 208
-18.144451141357422 3.3981213569641113 45.6410026550293 183 183 183
-0.1113046258687973 -0.2920686900615692 43.36410140991211 32 32 32
-10.115022659301758 -18.363676071166992 34.795997619628906 65 65 65
-5.680283546447754 -8.632011413574219 35.62998580932617 165 165 165
-9.460567474365234 -0.9992273449897766 34.78498458862305 75 75 75
-3.8408010005950928 -5.841487884521484 27.377717971801758 148 148 148
-3.6925270557403564 -4.723897457122803 21.892929077148438 189 189 189
-5.852536201477051 -7.04463005065918 32.36552810668945 150 150 150
-5.118461608886719 -7.8072710037231445 35.712589263916016 153 153 153
-3.502131700515747 -4.150571823120117 18.841264724731445 45 45 45
-3.4842748641967773 -5.046894073486328 22.759666442871094 33 33 33
-5.580597400665283 -8.827354431152344 39.009159088134766 162 162 162
-5.271976947784424 -7.488834857940674 32.3985710144043 182 182 182
-6.793726444244385 -11.008691787719727 47.447174072265625 183 183 183
-4.827633857727051 -6.001874923706055 25.889812469482422 27 27 27
-4.786023139953613 -6.637776851654053 27.75545310974121 6 6 6
-11.57291316986084 -14.285139083862305 28.302637100219727 75 75 75
-0.11123525351285934 -0.2919882833957672 43.35494613647461 32 32 32
-9.228459358215332 -20.25655746459961 37.58415985107422 149 149 149
-4.964362621307373 -6.752079963684082 28.0010986328125 124 124 124
-5.6804609298706055 -8.632281303405762 35.63113021850586 165 165 165
-4.5420002937316895 -6.298891544342041 26.29829978942871 4 4 4
-4.876455783843994 -7.144565105438232 29.938739776611328 161 161 161
-4.765325546264648 -6.61006498336792 27.638893127441406 6 6 6
-6.341308116912842 -10.24191665649414 44.236549377441406 136 136 136
-4.849876880645752 -6.677509784698486 28.622913360595703 141 141 141
-4.969682693481445 -7.683509826660156 33.93674850463867 150 150 150
-4.76654052734375 -6.936636447906494 31.27242660522461 31 31 31
-4.65270471572876 -7.114236831665039 32.40547180175781 148 148 148
-4.921644687652588 -5.9568867683410645 27.28238296508789 118 118 118
-3.6933555603027344 -4.724969863891602 21.89786720275879 189 189 189
-3.9415132999420166 -4.471066474914551 21.056987762451172 57 57 57
-4.083852767944336 -4.700007438659668 24.8267822265625 39 39 39
-9.783272743225098 -22.10904884338379 40.938255310058594 160 160 160
-12.512700080871582 -1.3741034269332886 41.345497131347656 93 93 93
-4.541094779968262 -6.2976226806640625 26.29305076599121 4 4 4
-7.6313252449035645 -10.044900894165039 42.946632385253906 139 139 139
-3.720911979675293 -5.975851058959961 25.911216735839844 148 148 148
-3.8834428787231445 -5.69705867767334 25.603776931762695 29 29 29
-5.210972309112549 -6.362616062164307 28.988080978393555 175 175 175
-3.5942089557647705 -5.430826187133789 24.78390121459961 132 132 132
-3.6886179447174072 -4.719001770019531 21.869983673095703 189 189 189
-3.8389294147491455 -5.8385233879089355 27.363664627075195 148 148 148
-4.46846342086792 -5.372408866882324 26.94868278503418 153 153 153
-9.228424072265625 -20.256484985351562 37.584022521972656 149 149 149
-11.57336139678955 -14.285640716552734 28.30366325378418 75 75 75
-10.300682067871094 0.7152414321899414 38.50687026977539 57 57 57
-5.523332118988037 -8.1080904006958 36.3297119140625 29 29 29
-8.595077514648438 -0.9498691558837891 33.25851821899414 73 73 73
-10.339362144470215 -19.727798461914062 37.15244674682617 144 144 144
-16.647871017456055 -17.868629455566406 40.534934997558594 135 135 135
-9.484238624572754 -9.546631813049316 22.146875381469727 90 90 90
-2.3545918464660645 -3.584401845932007 14.808463096618652 81 81 81
-4.826943874359131 -6.001034259796143 25.886119842529297 27 27 27
-4.23038911819458 -6.068769454956055 25.84135627746582 32 32 32
-5.031384468078613 -6.527655124664307 28.01331329345703 134 134 134
-4.553081035614014 -6.059938907623291 26.23139762878418 44 44 44
-5.1841864585876465 -8.052001953125 35.4618034362793 192 192 192
-6.700101375579834 -10.930025100708008 49.19801712036133 188 188 188
-5.032463073730469 -7.552021503448486 34.45628356933594 155 155 155
-1.5899360179901123 -1.8647364377975464 8.575213432312012 27 27 27
-7.110962867736816 -8.826181411743164 40.95608901977539 18 18 18
-4.472348213195801 -5.377058982849121 26.971878051757812 153 153 153
-9.758100509643555 -22.783222198486328 41.794349670410156 37 37 37
-9.571985244750977 -16.411312103271484 31.100929260253906 53 53 53
-4.57754373550415 -6.349221706390381 26.517066955566406 7 7 7
-4.39368200302124 -5.624176502227783 23.706274032592773 99 99 99
-7.9108500480651855 -10.178434371948242 43.751983642578125 134 134 134
-3.9910411834716797 -6.061531066894531 26.543350219726562 8 8 8
-5.464819431304932 -7.472072601318359 34.1260986328125 30 30 30
-4.469717025756836 -5.373905181884766 26.95604705810547 153 153 153
-7.367569923400879 1.316617727279663 24.220399856567383 78 78 78
-10.944812774658203 -22.152385711669922 41.2104606628418 136 136 136
-9.40023136138916 -17.878145217895508 33.677268981933594 74 74 74
-9.007840156555176 -15.859992980957031 29.960439682006836 145 145 145
-5.577295780181885 -7.218311786651611 30.301881790161133 84 84 84
-4.189826965332031 -6.190065860748291 26.006874084472656 32 32 32
-6.4847917556762695 -10.890935897827148 45.71976089477539 36 36 36
-4.492927551269531 -5.888979911804199 25.638511657714844 24 24 24
-3.7223196029663086 -5.117350101470947 23.157983779907227 18 18 18
-3.446589469909668 -4.083014011383057 18.531938552856445 45 45 45
-4.468465328216553 -5.372425079345703 26.948787689208984 153 153 153
