ply
format ascii 1.0
element vertex 627
property float x
property float y
property float z
property uchar red
property uchar green
property uchar blue
end_header
-13.605727195739746 17.52842903137207 27.393957138061523 72 72 72
-13.605727195739746 17.52842903137207 27.393957138061523 72 72 72
-19.177812576293945 16.879650115966797 38.99445724487305 95 95 95
-20.007410049438477 17.43315315246582 40.92893600463867 37 37 37
-19.419069290161133 15.79797649383545 39.70535659790039 53 53 53
-18.76828384399414 8.439379692077637 38.80332565307617 78 78 78
-14.978316307067871 19.139135360717773 31.292993545532227 64 64 64
-20.818326950073242 16.641620635986328 43.7407341003418 43 43 43
-19.254886627197266 14.56704044342041 40.42906951904297 69 69 69
-19.454862594604492 17.304096221923828 40.88784408569336 32 32 32
-14.451140403747559 17.212968826293945 30.193349838256836 56 56 56
-22.01726722717285 8.244720458984375 46.39997100830078 37 37 37
-21.680015563964844 12.13525104522705 45.78836441040039 123 123 123
-21.03852653503418 15.26647663116455 44.52048110961914 75 75 75
-20.44378089904785 16.569196701049805 43.247947692871094 74 74 74
-20.17487907409668 17.788991928100586 42.704307556152344 55 55 55
-21.476896286010742 9.296809196472168 45.53870391845703 43 43 43
-17.629701614379883 6.766479015350342 37.407325744628906 59 59 59
-20.109716415405273 5.445244312286377 42.76924514770508 71 71 71
-20.338916778564453 15.7053804397583 43.09638595581055 67 67 67
-20.338916778564453 15.7053804397583 43.09638595581055 67 67 67
-19.310409545898438 16.802213668823242 41.14229965209961 39 39 39
-19.310409545898438 16.802213668823242 41.14229965209961 39 39 39
-21.238080978393555 17.176502227783203 45.37675476074219 78 78 78
-21.117691040039062 11.80575942993164 45.172733306884766 88 88 88
-21.663654327392578 7.8785881996154785 46.38239288330078 77 77 77
-18.45536994934082 4.675968170166016 39.539329528808594 78 78 78
-21.555683135986328 13.293465614318848 46.20532989501953 111 111 111
-16.76612091064453 18.540908813476562 35.99321746826172 59 59 59
-20.690475463867188 18.635276794433594 44.4346923828125 27 27 27
-19.739986419677734 13.655451774597168 42.53303527832031 54 54 54
-16.242294311523438 18.900497436523438 35.11494445800781 62 62 62
-16.87975311279297 13.534523963928223 37.121253967285156 71 71 71
-20.821237564086914 14.872005462646484 45.777034759521484 56 56 56
-20.105308532714844 14.980892181396484 44.468048095703125 69 69 69
-17.23764991760254 18.45184326171875 38.188621520996094 38 38 38
-16.952972412109375 16.910736083984375 37.752891540527344 78 78 78
-16.405305862426758 18.670936584472656 36.607208251953125 58 58 58
-12.511052131652832 17.240646362304688 27.810007095336914 90 90 90
-18.246858596801758 23.385536193847656 40.9034309387207 106 106 106
-17.50443458557129 15.514230728149414 39.559207916259766 71 71 71
-15.232365608215332 18.980979919433594 34.72532272338867 60 60 60
-14.368097305297852 18.962909698486328 32.924102783203125 58 58 58
-18.3009090423584 -2.946106433868408 42.18416976928711 117 117 117
-20.063684463500977 19.090211868286133 46.04476547241211 110 110 110
-16.75567626953125 14.504112243652344 38.70257568359375 66 66 66
-14.826689720153809 19.608667373657227 34.18488693237305 59 59 59
-19.261526107788086 18.270021438598633 44.60205841064453 46 46 46
-13.329058647155762 20.193485260009766 31.030620574951172 61 61 61
-18.831653594970703 17.647808074951172 44.311431884765625 45 45 45
-15.27825927734375 19.8225154876709 35.91624069213867 155 155 155
-14.185256004333496 16.527008056640625 33.374080657958984 87 87 87
-18.268274307250977 17.724056243896484 43.1529426574707 125 125 125
-19.179691314697266 18.35526466369629 45.68853759765625 42 42 42
-18.00576400756836 13.850948333740234 43.407222747802734 93 93 93
-14.559539794921875 19.850112915039062 35.190895080566406 77 77 77
-12.232605934143066 17.855371475219727 29.906429290771484 109 109 109
-14.608510971069336 20.571544647216797 35.3875846862793 89 89 89
-12.79932689666748 20.665498733520508 31.919340133666992 105 105 105
-17.931217193603516 18.418804168701172 44.89912796020508 57 57 57
-16.83091163635254 5.781344890594482 42.602352142333984 48 48 48
-13.367730140686035 20.682748794555664 34.13652038574219 57 57 57
-14.298874855041504 20.07210922241211 36.78746032714844 70 70 70
-18.241436004638672 6.236955165863037 47.16101837158203 63 63 63
-14.940953254699707 19.25623893737793 38.82775115966797 49 49 49
-14.591157913208008 19.736547470092773 38.630496978759766 65 65 65
-13.543987274169922 21.231657028198242 36.1279411315918 58 58 58
-17.192110061645508 4.231391906738281 46.681007385253906 77 77 77
-12.57235336303711 21.777271270751953 34.26717758178711 58 58 58
-15.482897758483887 22.1239013671875 42.55390548706055 116 116 116
-16.555341720581055 4.18070125579834 45.7555046081543 68 68 68
-12.28902816772461 21.0093936920166 34.15737533569336 87 87 87
-14.970128059387207 21.400894165039062 42.12972640991211 59 59 59
-15.64128589630127 10.616890907287598 44.2365837097168 82 82 82
-16.520526885986328 18.598451614379883 47.17847442626953 61 61 61
-11.698602676391602 21.53013038635254 33.5515251159668 157 157 157
-11.782140731811523 20.747440338134766 35.48695373535156 124 124 124
-11.782140731811523 20.747440338134766 35.48695373535156 124 124 124
-10.942122459411621 19.827476501464844 34.0742073059082 49 49 49
-12.89026927947998 24.31260108947754 40.43382263183594 120 120 120
-11.5325288772583 23.733871459960938 36.510948181152344 156 156 156
-13.926219940185547 21.769880294799805 44.28301239013672 50 50 50
-11.21606731414795 22.009132385253906 35.75928497314453 85 85 85
-11.21606731414795 22.009132385253906 35.75928497314453 85 85 85
-12.481485366821289 22.64298439025879 40.568851470947266 62 62 62
-12.85822868347168 22.503564834594727 43.784332275390625 69 69 69
-10.645232200622559 18.148300170898438 36.34844207763672 65 65 65
-12.43457317352295 22.54629135131836 42.7120361328125 73 73 73
-9.982697486877441 19.137081146240234 34.735836029052734 101 101 101
-12.424168586730957 22.957406997680664 44.09230422973633 50 50 50
-12.424168586730957 22.957406997680664 44.09230422973633 50 50 50
-9.74179458618164 20.863750457763672 34.547061920166016 113 113 113
-10.615545272827148 24.05784797668457 38.859012603759766 129 129 129
-10.912388801574707 23.117441177368164 43.76266098022461 74 74 74
-10.912388801574707 23.117441177368164 43.76266098022461 74 74 74
-8.57013988494873 22.60581398010254 34.629600524902344 72 72 72
-8.818456649780273 23.61334228515625 35.83952713012695 114 114 114
-10.695667266845703 23.326114654541016 44.0755615234375 52 52 52
-10.463905334472656 23.354660034179688 43.34897232055664 57 57 57
-9.12190055847168 22.9460391998291 38.87864685058594 145 145 145
-10.036555290222168 23.81697654724121 42.908573150634766 67 67 67
-9.38217544555664 23.8389835357666 41.39622116088867 72 72 72
-8.545106887817383 24.479990005493164 37.52498245239258 120 120 120
-8.500650405883789 21.46916389465332 40.8848991394043 65 65 65
-8.849730491638184 23.635948181152344 45.74043273925781 66 66 66
-8.849730491638184 23.635948181152344 45.74043273925781 66 66 66
-7.3729987144470215 24.656206130981445 38.7977294921875 99 99 99
-7.350050926208496 24.622596740722656 38.76576232910156 52 52 52
-6.751698970794678 23.807641983032227 36.59803009033203 89 89 89
-6.866446018218994 23.356876373291016 37.375244140625 73 73 73
-6.613920211791992 22.879125595092773 37.90532684326172 60 60 60
-8.002143859863281 4.818821907043457 46.20578384399414 55 55 55
-7.561854839324951 24.072154998779297 45.125244140625 91 91 91
-6.986332416534424 26.516515731811523 42.357810974121094 49 49 49
-7.33326530456543 23.878742218017578 44.15911102294922 127 127 127
-7.33326530456543 23.878742218017578 44.15911102294922 127 127 127
-7.042094707489014 25.178997039794922 42.970157623291016 128 128 128
-6.986151218414307 26.517375946044922 42.35889434814453 49 49 49
-6.986151218414307 26.517375946044922 42.35889434814453 49 49 49
-7.022773265838623 25.555267333984375 43.62022399902344 144 144 144
-7.022773265838623 25.555267333984375 43.62022399902344 144 144 144
-6.542208671569824 26.09598731994629 40.500545501708984 89 89 89
-6.856451034545898 25.249147415161133 43.89869689941406 88 88 88
-6.48228120803833 25.43389320373535 43.154640197753906 61 61 61
-6.921341896057129 3.036916971206665 46.84007263183594 164 164 164
-5.938170909881592 26.010677337646484 41.7408561706543 143 143 143
-6.898705959320068 8.357083320617676 48.490684509277344 90 90 90
-5.565434455871582 25.190866470336914 41.369239807128906 98 98 98
-6.455677509307861 -21.18640899658203 49.3826789855957 87 87 87
-5.299892902374268 25.978002548217773 41.53638458251953 57 57 57
-5.299892902374268 25.978002548217773 41.53638458251953 57 57 57
-5.30833625793457 24.838102340698242 44.15336990356445 47 47 47
-5.30833625793457 24.838102340698242 44.15336990356445 47 47 47
-5.389309406280518 -12.364903450012207 48.6449089050293 145 145 145
-4.190062999725342 24.671878814697266 39.002540588378906 69 69 69
-4.448883056640625 22.431354522705078 41.31883239746094 99 99 99
-4.986115455627441 -23.764299392700195 47.27366256713867 67 67 67
-3.491529703140259 22.901700973510742 34.78472137451172 137 137 137
-3.491529703140259 22.901700973510742 34.78472137451172 137 137 137
-4.936116695404053 13.761642456054688 49.538902282714844 66 66 66
-5.155105113983154 -16.158004760742188 49.612979888916016 109 109 109
-3.8763620853424072 25.75116729736328 39.51356506347656 136 136 136
-4.586298942565918 -2.9002342224121094 46.44660186767578 71 71 71
-4.547667026519775 -20.676589965820312 50.2236442565918 121 121 121
-4.297356128692627 -18.366445541381836 47.89236831665039 129 129 129
-3.479907751083374 25.196392059326172 46.936954498291016 115 115 115
-3.246457099914551 25.728391647338867 42.4989128112793 65 65 65
-3.545118570327759 -25.638774871826172 47.22513961791992 61 61 61
-3.6889326572418213 -10.194238662719727 49.799468994140625 24 24 24
-3.2652063369750977 -23.34086799621582 45.50834655761719 75 75 75
-3.3391361236572266 -23.044723510742188 47.6351203918457 141 141 141
-3.242330312728882 -15.247632026672363 49.43903732299805 159 159 159
-2.737760066986084 24.839908599853516 41.993896484375 86 86 86
-2.9134678840637207 23.75590705871582 45.33767318725586 52 52 52
-2.800677537918091 -23.663183212280273 44.94165802001953 97 97 97
-2.783987283706665 27.309680938720703 47.18010711669922 74 74 74
-2.690441846847534 -22.575138092041016 45.94310760498047 143 143 143
-2.5066113471984863 -17.46989631652832 48.50531005859375 50 50 50
-2.162975788116455 -23.37415885925293 42.01837158203125 77 77 77
-2.080082654953003 28.095373153686523 45.70186233520508 115 115 115
-2.1905601024627686 -22.230491638183594 45.53409194946289 90 90 90
-1.743054747581482 -22.341331481933594 43.386314392089844 108 108 108
-1.5272568464279175 -22.878726959228516 40.9088134765625 63 63 63
-1.6077775955200195 27.820510864257812 44.66215133666992 87 87 87
-1.6077775955200195 27.820510864257812 44.66215133666992 87 87 87
-1.4753742218017578 -16.674686431884766 44.25782012939453 146 146 146
-1.4816001653671265 -18.514060974121094 45.79458236694336 141 141 141
-1.0105547904968262 27.844776153564453 46.079505920410156 60 60 60
-0.7014986276626587 -21.824220657348633 38.81424331665039 24 24 24
-0.7014986276626587 -21.824220657348633 38.81424331665039 24 24 24
-0.938805103302002 -16.89130973815918 40.255409240722656 19 19 19
-0.8096136450767517 -15.795726776123047 44.21101760864258 54 54 54
-0.5755839347839355 -22.266216278076172 40.759273529052734 131 131 131
-0.3865099847316742 -20.527009963989258 42.41135787963867 46 46 46
0.02391822636127472 -16.221359252929688 41.54616165161133 12 12 12
0.02391822636127472 -16.221359252929688 41.54616165161133 12 12 12
0.04483466595411301 -15.928382873535156 41.25071716308594 12 12 12
0.43882763385772705 -15.662656784057617 42.772823333740234 63 63 63
0.46297284960746765 -17.56748390197754 36.30549621582031 128 128 128
0.6226968169212341 -20.248517990112305 36.94560241699219 114 114 114
0.7138980031013489 -22.242870330810547 41.0549430847168 33 33 33
0.7022262811660767 -21.815998077392578 37.325584411621094 24 24 24
0.7022262811660767 -21.815998077392578 37.325584411621094 24 24 24
0.8852761387825012 -15.73730754852295 43.19374084472656 40 40 40
0.8647582530975342 -21.789432525634766 37.08406448364258 33 33 33
0.9113353490829468 -20.433704376220703 37.451175689697266 99 99 99
1.559041142463684 27.71303939819336 44.33209228515625 157 157 157
1.2407703399658203 -17.856822967529297 33.56093215942383 108 108 108
1.4849951267242432 -21.329172134399414 34.547569274902344 68 68 68
1.5144485235214233 -20.6003475189209 34.2920036315918 32 32 32
1.7953526973724365 -20.0235595703125 35.048553466796875 132 132 132
1.853948712348938 -19.851242065429688 35.79592514038086 112 112 112
1.8499656915664673 -18.09813690185547 35.41941833496094 44 44 44
1.954691767692566 -21.84477424621582 36.65599822998047 103 103 103
1.9505094289779663 -19.872419357299805 35.30480194091797 31 31 31
2.059645652770996 -16.06134605407715 34.882850646972656 141 141 141
2.150603771209717 -17.78617286682129 33.989009857177734 46 46 46
2.2668137550354004 -19.625606536865234 32.93379592895508 97 97 97
2.4557578563690186 -19.71831703186035 35.07283020019531 88 88 88
2.5098764896392822 -20.69607162475586 34.009090423583984 73 73 73
2.856712579727173 -14.862565994262695 37.64169692993164 28 28 28
2.994596242904663 -14.620375633239746 37.07820129394531 44 44 44
2.487267017364502 -18.600601196289062 30.317371368408203 67 67 67
3.233611583709717 -19.594221115112305 36.506004333496094 39 39 39
3.233611583709717 -19.594221115112305 36.506004333496094 39 39 39
2.988739013671875 -18.853378295898438 31.135496139526367 81 81 81
3.197279691696167 -14.281100273132324 33.27505874633789 131 131 131
3.307156562805176 -19.938562393188477 32.745967864990234 18 18 18
3.2465627193450928 -18.84703826904297 31.924362182617188 26 26 26
3.4461262226104736 -13.921987533569336 32.76906204223633 141 141 141
4.8399481773376465 -6.2437944412231445 43.54030990600586 10 10 10
4.976955890655518 -6.263277053833008 45.6780891418457 111 111 111
4.976955890655518 -6.263277053833008 45.6780891418457 111 111 111
5.24739408493042 -7.105108737945557 45.55760955810547 154 154 154
3.6915807723999023 -17.320846557617188 31.84370994567871 118 118 118
5.5107245445251465 -6.462983131408691 45.64556121826172 195 195 195
5.61873197555542 -7.159067630767822 45.64231872558594 145 145 145
5.61873197555542 -7.159067630767822 45.64231872558594 145 145 145
4.819169044494629 -4.683318138122559 38.157989501953125 126 126 126
3.6411209106445312 -15.57239818572998 28.940994262695312 121 121 121
5.766883850097656 -7.194852352142334 45.14948272705078 30 30 30
5.655473232269287 -6.132185459136963 44.26918029785156 187 187 187
5.655473232269287 -6.132185459136963 44.26918029785156 187 187 187
4.2338151931762695 -13.092207908630371 31.9354248046875 47 47 47
4.51790189743042 -13.865029335021973 33.272743225097656 19 19 19
5.339043140411377 -5.887588977813721 39.52379608154297 86 86 86
5.339043140411377 -5.887588977813721 39.52379608154297 86 86 86
6.102970123291016 -6.350356101989746 44.512062072753906 32 32 32
4.303825378417969 -13.35295581817627 30.6322021484375 84 84 84
4.303825378417969 -13.35295581817627 30.6322021484375 84 84 84
4.1131367683410645 -17.04413414001465 30.013582229614258 98 98 98
4.314842224121094 -13.382372856140137 30.69692039489746 84 84 84
4.314842224121094 -13.382372856140137 30.69692039489746 84 84 84
4.701228141784668 -13.583767890930176 33.566680908203125 37 37 37
6.107663154602051 -7.23203706741333 44.05130386352539 57 57 57
6.393474578857422 -6.740605354309082 45.04610824584961 155 155 155
6.309979438781738 -6.98793363571167 42.43247604370117 238 238 238
5.169898986816406 -13.82115364074707 32.9604606628418 55 55 55
7.673519134521484 1.9673470258712769 46.909523010253906 41 41 41
7.673519134521484 1.9673470258712769 46.909523010253906 41 41 41
4.801255702972412 -13.448412895202637 28.756954193115234 76 76 76
5.417970180511475 -13.390533447265625 31.44470977783203 47 47 47
5.417849063873291 -13.390214920043945 31.44394302368164 47 47 47
4.778578758239746 -15.786200523376465 27.52945899963379 89 89 89
5.774449825286865 -13.56102466583252 31.68950843811035 52 52 52
5.774449825286865 -13.56102466583252 31.68950843811035 52 52 52
5.22882080078125 -12.981792449951172 28.641887664794922 91 91 91
5.0225749015808105 -11.861411094665527 26.978015899658203 33 33 33
5.0225749015808105 -11.861411094665527 26.978015899658203 33 33 33
7.131380558013916 4.939247131347656 36.13689041137695 54 54 54
6.170051097869873 -3.9535231590270996 31.289474487304688 143 143 143
6.383264541625977 -4.443357944488525 32.39716720581055 115 115 115
6.5178399085998535 -4.856244087219238 32.45237731933594 88 88 88
5.8580474853515625 -9.230230331420898 29.425012588500977 40 40 40
6.766116142272949 -3.311624526977539 33.16480255126953 78 78 78
5.962395191192627 -11.433247566223145 28.70766830444336 118 118 118
6.489241123199463 -6.801740646362305 31.681013107299805 24 24 24
5.951312065124512 -11.681897163391113 28.436885833740234 37 37 37
5.951312065124512 -11.681897163391113 28.436885833740234 37 37 37
7.320640563964844 4.147060871124268 32.7874641418457 49 49 49
8.660508155822754 12.74418830871582 38.51094436645508 119 119 119
1.8210939168930054 -18.15572166442871 35.25941467285156 5 5 5
-0.6113139986991882 -24.417449951171875 46.770790100097656 13 13 13
-5.5511298179626465 27.31566047668457 43.35335922241211 179 179 179
0.9816246628761292 -15.450139999389648 39.18670654296875 78 78 78
7.075952529907227 1.6172491312026978 44.76239776611328 57 57 57
-4.425853252410889 -6.133638381958008 44.765132904052734 99 99 99
-2.4804086685180664 -16.977487564086914 46.39548873901367 6 6 6
-1.608629584312439 27.142839431762695 43.5744514465332 120 120 120
-1.9999325275421143 26.180912017822266 43.729339599609375 144 144 144
-3.6890881061553955 -10.194784164428711 49.801937103271484 24 24 24
-3.15665340423584 -17.62037467956543 48.84425354003906 69 69 69
6.697516441345215 -1.0115066766738892 33.09756851196289 78 78 78
6.489004611968994 -6.801519393920898 31.679931640625 24 24 24
-8.913561820983887 26.06498146057129 47.25169372558594 92 92 92
-10.108784675598145 23.484619140625 42.4129753112793 99 99 99
6.489051342010498 -6.801540374755859 31.680131912231445 24 24 24
-6.033990859985352 26.73581314086914 41.73167037963867 156 156 156
5.763718605041504 -7.350742340087891 44.61343765258789 224 224 224
-10.110936164855957 23.48944091796875 42.421993255615234 99 99 99
5.762757778167725 -7.349633693695068 44.60649871826172 224 224 224
6.310279846191406 -6.988250255584717 42.43415451049805 238 238 238
-2.524953603744507 27.4964656829834 44.07697677612305 201 201 201
5.032447338104248 -7.287576675415039 45.39064025878906 67 67 67
5.620414733886719 -7.161465644836426 45.656917572021484 145 145 145
5.5540361404418945 -7.439748764038086 47.38336944580078 198 198 198
6.023439407348633 -6.751852035522461 43.02626419067383 241 241 241
6.429213523864746 -6.904689311981201 44.062618255615234 88 88 88
5.012410640716553 -7.1185455322265625 45.54003143310547 3 3 3
5.577538013458252 -6.887379169464111 44.31622314453125 214 214 214
6.25192403793335 -6.827950477600098 46.01019287109375 153 153 153
5.213517189025879 -6.867209434509277 45.755496978759766 7 7 7
-9.36728286743164 24.900848388671875 43.50813674926758 170 170 170
6.2493791580200195 -6.824886798858643 45.99162673950195 142 142 142
6.248938083648682 -6.8244309425354 45.98870086669922 142 142 142
2.9454474449157715 -14.583253860473633 35.20549011230469 148 148 148
6.188992977142334 -6.569828987121582 45.84478759765625 4 4 4
2.843576192855835 -15.052928924560547 36.359283447265625 162 162 162
-7.627241134643555 26.423934936523438 45.39788818359375 131 131 131
-7.3133225440979 25.007701873779297 46.335594177246094 185 185 185
0.04498891159892082 -15.914776802062988 41.21842575073242 12 12 12
-1.6261450052261353 25.02704620361328 46.14768600463867 133 133 133
1.9665666818618774 -14.937919616699219 36.97647476196289 49 49 49
1.9663560390472412 -14.936553955078125 36.97327423095703 49 49 49
-2.039247989654541 26.2891845703125 45.051536560058594 74 74 74
1.8063596487045288 -17.999475479125977 34.95741653442383 5 5 5
1.8197176456451416 -18.127981185913086 35.20759582519531 5 5 5
-4.4747395515441895 -7.271188259124756 42.30144500732422 102 102 102
-9.582686424255371 23.352901458740234 39.91912841796875 199 199 199
0.9816756248474121 -15.451127052307129 39.188968658447266 78 78 78
2.1893391609191895 -19.335006713867188 37.09220504760742 58 58 58
-21.610172271728516 11.854979515075684 46.86500549316406 58 58 58
2.777768135070801 -18.100852966308594 34.082054138183594 42 42 42
2.649906873703003 -14.136443138122559 34.26915740966797 167 167 167
-11.18779468536377 24.023664474487305 45.17558670043945 110 110 110
-8.726997375488281 25.62077522277832 45.69588851928711 172 172 172
-3.1169686317443848 -21.401500701904297 47.056827545166016 12 12 12
-2.999403238296509 -19.50935935974121 43.031856536865234 18 18 18
-0.39270806312561035 -20.207612991333008 41.77220153808594 46 46 46
-0.9451476335525513 -16.17378807067871 42.91633605957031 70 70 70
-2.4803385734558105 -16.977828979492188 46.39626693725586 6 6 6
5.0555596351623535 -7.317715644836426 45.5846061706543 67 67 67
-6.986250400543213 26.517810821533203 42.35960006713867 49 49 49
4.405708312988281 -13.666300773620605 31.299802780151367 87 87 87
-8.78951644897461 22.26259994506836 41.628475189208984 104 104 104
-3.000624656677246 -19.52111053466797 43.0570182800293 18 18 18
-12.034090995788574 23.140480041503906 46.682586669921875 114 114 114
5.6557087898254395 -6.132452011108398 44.270877838134766 187 187 187
-7.2524003982543945 24.75847625732422 44.250213623046875 187 187 187
6.248356342315674 -6.163414001464844 43.72696304321289 15 15 15
-5.030698299407959 -13.62169075012207 48.90505599975586 4 4 4
5.217972755432129 -5.61743688583374 38.86712646484375 92 92 92
5.229184150695801 -6.858850002288818 46.30813217163086 135 135 135
6.250307559967041 -6.826058387756348 45.99870681762695 153 153 153
6.274430274963379 -6.823493480682373 44.705989837646484 225 225 225
6.289392471313477 -6.724207878112793 42.99221420288086 12 12 12
6.310573577880859 -6.729765892028809 43.066959381103516 73 73 73
4.994723796844482 -7.085038661956787 45.29195022583008 6 6 6
6.147488117218018 -6.905860424041748 43.86020278930664 143 143 143
5.347516059875488 -7.219417572021484 45.83856201171875 192 192 192
5.62018346786499 -7.161174297332764 45.655277252197266 145 145 145
6.491147518157959 -3.803025245666504 32.073612213134766 28 28 28
5.030074119567871 -7.283914089202881 45.37062072753906 67 67 67
5.141086578369141 -5.876389026641846 37.23624801635742 159 159 159
5.858410358428955 -9.230865478515625 29.426929473876953 40 40 40
-8.57788372039795 24.943105697631836 46.58729553222656 138 138 138
-2.999417304992676 -19.5095157623291 43.032188415527344 18 18 18
5.053775310516357 -7.317379474639893 45.580814361572266 67 67 67
5.253942966461182 -7.372649192810059 45.26560974121094 36 36 36
4.5136494636535645 -4.076746940612793 35.905120849609375 135 135 135
-5.710097789764404 25.618085861206055 43.290950775146484 115 115 115
6.491163730621338 -3.80303692817688 32.07368850708008 28 28 28
6.518864631652832 -5.312659740447998 31.884443283081055 19 19 19
-7.538539886474609 24.832223892211914 43.572998046875 48 48 48
6.6934590339660645 -1.0107851028442383 33.07688903808594 78 78 78
6.520572185516357 -5.5229105949401855 32.734107971191406 14 14 14
2.088887929916382 -18.45757484436035 35.40760803222656 49 49 49
1.8168312311172485 -18.092594146728516 35.147361755371094 5 5 5
-2.4803173542022705 -16.976991653442383 46.39409637451172 6 6 6
-4.43619441986084 25.276790618896484 46.90586471557617 114 114 114
-2.480482578277588 -16.978759765625 46.3988037109375 6 6 6
-4.474740505218506 -7.271188259124756 42.30144119262695 102 102 102
-0.9452043771743774 -16.182945251464844 42.93968963623047 70 70 70
-7.158737659454346 24.10323143005371 40.991607666015625 82 82 82
-3.156597375869751 -17.619873046875 48.8428840637207 69 69 69
1.9666962623596191 -14.938962936401367 36.978885650634766 49 49 49
1.966640591621399 -14.938424110412598 36.977630615234375 49 49 49
6.460408687591553 -2.443206787109375 32.86540222167969 120 120 120
2.7249972820281982 -14.508132934570312 35.11124801635742 170 170 170
-8.636674880981445 23.751407623291016 45.07036590576172 127 127 127
7.6065168380737305 4.106834888458252 38.8141975402832 138 138 138
3.561495304107666 -13.756023406982422 32.35110092163086 47 47 47
6.435090065002441 4.9399638175964355 33.04220962524414 77 77 77
0.7021711468696594 23.823421478271484 38.6971321105957 105 105 105
4.083309173583984 -12.682878494262695 28.91553497314453 109 109 109
-6.346817493438721 24.11610221862793 43.587825775146484 170 170 170
2.189298152923584 -19.334877014160156 37.09193420410156 58 58 58
-8.643865585327148 23.64838409423828 41.9576301574707 76 76 76
-4.5038042068481445 23.731185913085938 42.24832534790039 117 117 117
-21.611133575439453 11.85550308227539 46.867183685302734 58 58 58
-21.610570907592773 11.855151176452637 46.86570739746094 58 58 58
6.516944885253906 -1.0803502798080444 33.60651397705078 124 124 124
-9.434686660766602 23.036272048950195 44.86099624633789 152 152 152
4.7167534828186035 -13.612676620483398 30.840314865112305 41 41 41
-9.840449333190918 22.437721252441406 41.7452392578125 110 110 110
-4.977261543273926 23.218170166015625 40.59929656982422 94 94 94
6.333938121795654 -6.3651814460754395 45.36830139160156 133 133 133
-10.339754104614258 22.914661407470703 42.86143493652344 44 44 44
-3.1481308937072754 25.872949600219727 41.101749420166016 92 92 92
-10.655872344970703 22.22705841064453 41.200462341308594 161 161 161
-9.546497344970703 24.57988739013672 46.055397033691406 145 145 145
-1.1941099166870117 -16.470972061157227 43.968475341796875 167 167 167
-0.3866838812828064 -20.519638061523438 42.396331787109375 46 46 46
-6.138506889343262 23.160858154296875 39.656097412109375 101 101 101
3.5614852905273438 -13.756020545959473 32.35110092163086 47 47 47
4.224899768829346 -16.502235412597656 29.359745025634766 75 75 75
6.937939167022705 1.6106328964233398 43.882102966308594 69 69 69
6.310081481933594 -6.988054275512695 42.43311309814453 238 238 238
5.184327125549316 -7.147209644317627 44.03090286254883 3 3 3
5.104364395141602 -5.827678203582764 36.97874069213867 158 158 158
2.035834789276123 -17.847888946533203 33.86692428588867 114 114 114
-21.611928939819336 11.855892181396484 46.86878204345703 58 58 58
5.353061199188232 -7.256223678588867 45.951454162597656 174 174 174
5.619166374206543 -7.159760475158691 45.64634704589844 145 145 145
5.736854076385498 -7.2652764320373535 47.30412292480469 4 4 4
6.152848243713379 -6.685888767242432 43.90678405761719 226 226 226
-5.0695977210998535 -13.85727310180664 49.78647994995117 26 26 26
1.8222044706344604 -17.523778915405273 35.55462646484375 13 13 13
6.248808860778809 -6.824178218841553 45.98710250854492 142 142 142
-5.6409912109375 26.931896209716797 43.905582427978516 86 86 86
-0.9702667593955994 26.30462646484375 44.2518424987793 50 50 50
-5.144853115081787 -15.56538200378418 50.08035659790039 47 47 47
6.517099857330322 -3.807030439376831 32.161643981933594 29 29 29
6.491411209106445 -3.803225517272949 32.074893951416016 28 28 28
4.544126987457275 -13.45954704284668 30.669876098632812 19 19 19
-1.777774691581726 26.67367172241211 43.88907241821289 168 168 168
5.055179119110107 -7.320240497589111 45.59418487548828 67 67 67
3.7793216705322266 -11.765646934509277 26.972423553466797 123 123 123
3.5612947940826416 -13.755226135253906 32.34940719604492 47 47 47
2.9455325603485107 -14.5836763381958 35.2064323425293 148 148 148
-4.474765300750732 -7.271249771118164 42.30179214477539 102 102 102
6.460563659667969 -2.443269968032837 32.86609649658203 120 120 120
-0.9453750252723694 -16.185401916503906 42.94611740112305 70 70 70
-2.100538969039917 -17.405384063720703 47.23985290527344 86 86 86
-3.156459331512451 -17.619096755981445 48.840885162353516 69 69 69
-3.7949776649475098 26.55765151977539 43.893272399902344 112 112 112
6.3276896476745605 4.857769012451172 32.517913818359375 20 20 20
0.901332676410675 23.327539443969727 38.70408248901367 136 136 136
6.693371295928955 -1.0107710361480713 33.07652282714844 78 78 78
-3.156597375869751 -17.619873046875 48.8428840637207 69 69 69
6.308952331542969 -5.37244987487793 31.86172866821289 46 46 46
-19.518444061279297 14.121997833251953 46.48994445800781 7 7 7
0.8948355317115784 -20.563743591308594 37.339332580566406 104 104 104
-3.660167932510376 24.915834426879883 47.838897705078125 188 188 188
-0.7055128216743469 -19.825702667236328 40.76342010498047 185 185 185
-12.043427467346191 23.159151077270508 46.721336364746094 114 114 114
-9.175150871276855 23.998823165893555 41.63783264160156 178 178 178
-4.837299346923828 -11.814528465270996 49.406044006347656 2 2 2
-6.7284417152404785 24.39990234375 39.75656509399414 84 84 84
-8.780404090881348 21.733808517456055 44.03781509399414 112 112 112
-5.710597991943359 25.62075424194336 43.29552459716797 115 115 115
-6.966677665710449 25.37706756591797 43.30897521972656 121 121 121
-10.857331275939941 6.154390811920166 48.9343376159668 83 83 83
-6.265337944030762 -6.592083930969238 48.006065368652344 51 51 51
-18.257247924804688 12.235380172729492 45.73543930053711 118 118 118
-3.425496816635132 -19.883560180664062 43.81366729736328 127 127 127
6.309398651123047 -6.987388610839844 42.429264068603516 238 238 238
2.296006441116333 -22.77150535583496 40.55746078491211 85 85 85
0.9390611052513123 -21.585201263427734 39.137386322021484 108 108 108
-0.7812156677246094 -20.855077743530273 40.26803207397461 155 155 155
-0.14153367280960083 -19.518875122070312 40.10258483886719 1 1 1
-3.0000741481781006 -19.51532745361328 43.0443000793457 18 18 18
-5.041274070739746 -15.468697547912598 50.372406005859375 174 174 174
-3.1564218997955322 -17.618820190429688 48.84014892578125 69 69 69
4.35309362411499 -13.545002937316895 31.022817611694336 81 81 81
2.929508686065674 -15.53010082244873 37.42422866821289 178 178 178
2.5909974575042725 -13.921223640441895 33.75700378417969 170 170 170
2.809631109237671 -15.76957893371582 38.317420959472656 85 85 85
0.045146599411964417 -15.914385795593262 41.21751022338867 12 12 12
0.04501084238290787 -15.912853240966797 41.213748931884766 12 12 12
3.5068747997283936 -17.710575103759766 32.65887451171875 140 140 140
-4.436803340911865 -6.143166542053223 44.75272750854492 68 68 68
0.9817624092102051 -15.452062606811523 39.191246032714844 78 78 78
0.04537968337535858 -15.929788589477539 41.25492858886719 12 12 12
-5.11012077331543 -15.670193672180176 50.35960006713867 26 26 26
-2.61635160446167 -15.229321479797363 50.4351692199707 58 58 58
6.491663932800293 -3.8034164905548096 32.076114654541016 28 28 28
-0.5481483936309814 -20.94937515258789 40.096527099609375 6 6 6
6.328073978424072 4.857989311218262 32.51979064941406 20 20 20
4.976147651672363 -6.262270927429199 45.67097473144531 111 111 111
6.248557090759277 -6.163608074188232 43.728271484375 15 15 15
5.510406970977783 -6.462652683258057 45.64360046386719 195 195 195
4.820270538330078 -6.2178263664245605 43.34794235229492 10 10 10
6.275206565856934 -6.538732528686523 44.94078063964844 137 137 137
6.069186687469482 -6.84610652923584 44.645992279052734 56 56 56
5.737486839294434 -7.2660603523254395 47.308773040771484 4 4 4
6.299340724945068 -6.81584358215332 43.700828552246094 44 44 44
5.111177444458008 -6.944433212280273 44.14173126220703 137 137 137
5.053699493408203 -7.314740180969238 45.567054748535156 67 67 67
-3.4617185592651367 -20.034793853759766 44.105892181396484 114 114 114
-10.108935356140137 23.48491668701172 42.41352462768555 99 99 99
-3.6446967124938965 25.73238754272461 46.43028259277344 177 177 177
2.3594727516174316 -19.313751220703125 36.803070068359375 44 44 44
-17.49352264404297 7.969334602355957 38.506038665771484 98 98 98
1.0397461652755737 -20.21654510498047 40.969825744628906 160 160 160
-0.991527259349823 -20.66549301147461 43.36130142211914 18 18 18
-2.4805333614349365 -16.97924041748047 46.400089263916016 6 6 6
8.938450813293457 3.2517335414886475 46.60649871826172 64 64 64
-6.426440715789795 25.26323890686035 46.410194396972656 103 103 103
-7.128664493560791 24.112112045288086 39.250614166259766 143 143 143
5.595541477203369 -14.476557731628418 32.03908920288086 104 104 104
-8.972426414489746 24.619869232177734 46.96957778930664 156 156 156
-8.755247116088867 21.54496192932129 37.21998977661133 100 100 100
4.06191873550415 -16.80677604675293 29.699588775634766 75 75 75
4.2248053550720215 -16.501842498779297 29.35910415649414 75 75 75
1.8501977920532227 -19.751291275024414 35.39844512939453 110 110 110
0.9363522529602051 -20.845638275146484 37.800750732421875 101 101 101
0.6495276689529419 -20.903871536254883 38.14729690551758 109 109 109
2.130960464477539 -18.675228118896484 35.314361572265625 116 116 116
2.642284393310547 -18.046016693115234 34.25580978393555 160 160 160
2.9603893756866455 -19.041370391845703 36.24202346801758 7 7 7
-0.7937061786651611 -20.247346878051758 39.14596176147461 143 143 143
-1.8671021461486816 -23.21546745300293 45.01719284057617 97 97 97
1.6073614358901978 -17.917123794555664 35.065879821777344 157 157 157
1.8206623792648315 -17.509082794189453 35.52507400512695 13 13 13
1.0034712553024292 -19.72640609741211 40.01848220825195 163 163 163
-3.5270276069641113 -23.26457405090332 48.00274658203125 135 135 135
-3.7882394790649414 -21.928314208984375 48.11347961425781 116 116 116
-2.9995853900909424 -19.511686325073242 43.036827087402344 18 18 18
-3.7206766605377197 -21.84398651123047 48.27470397949219 29 29 29
4.309223651885986 -13.368026733398438 30.665010452270508 84 84 84
-0.018351232632994652 -15.901784896850586 40.711143493652344 89 89 89
0.22698670625686646 -16.2968807220459 42.02469253540039 141 141 141
-4.997454643249512 -15.35433292388916 50.05441665649414 175 175 175
-2.617008686065674 -14.966839790344238 49.58613967895508 104 104 104
-2.3922839164733887 -14.833717346191406 49.95234298706055 176 176 176
5.027162551879883 -7.279689788818359 45.34442901611328 67 67 67
5.145947456359863 -7.057924270629883 45.19028854370117 151 151 151
7.2673726081848145 -7.251474380493164 49.28546905517578 25 25 25
4.728363990783691 -5.757091522216797 40.552181243896484 114 114 114
6.249485492706299 -6.164528846740723 43.73411178588867 15 15 15
4.976693153381348 -6.262878894805908 45.67567825317383 111 111 111
-4.701416969299316 -6.613006591796875 47.786746978759766 89 89 89
-2.7527294158935547 -16.958681106567383 46.230010986328125 138 138 138
-14.550687789916992 10.23169231414795 46.250457763671875 52 52 52
-6.293403148651123 1.7876040935516357 45.80116653442383 61 61 61
-19.51898956298828 14.122438430786133 46.49142837524414 7 7 7
-9.300535202026367 24.267175674438477 42.005401611328125 93 93 93
-5.861547946929932 25.525070190429688 45.553436279296875 94 94 94
1.7472752332687378 -19.441810607910156 34.86875915527344 68 68 68
4.013418197631836 -16.016077041625977 28.73036003112793 119 119 119
0.9754682779312134 -21.707536697387695 39.20771789550781 101 101 101
1.7393994331359863 -19.21857261657715 34.71049118041992 115 115 115
0.52159583568573 -19.437877655029297 35.462120056152344 109 109 109
0.9107174277305603 -20.427888870239258 37.440677642822266 99 99 99
2.324416160583496 -14.902510643005371 28.08534812927246 30 30 30
2.62168025970459 -18.176250457763672 34.54767990112305 134 134 134
-1.8048173189163208 -22.639070510864258 43.81455612182617 101 101 101
-0.8743454813957214 -20.69855308532715 40.054931640625 152 152 152
1.5283889770507812 -17.06769371032715 33.50624084472656 146 146 146
-0.30591991543769836 -17.51776885986328 36.26472091674805 68 68 68
-1.2250118255615234 -19.497474670410156 41.30117416381836 112 112 112
-3.1744649410247803 -21.233619689941406 46.731903076171875 13 13 13
5.192529678344727 -15.337214469909668 34.66120910644531 76 76 76
4.386154651641846 -13.616938591003418 31.232404708862305 114 114 114
3.2126803398132324 -13.05860710144043 30.823732376098633 148 148 148
2.4073398113250732 -14.463860511779785 35.19309616088867 111 111 111
1.1405531167984009 -14.804895401000977 37.183223724365234 140 140 140
0.22221530973911285 -15.633942604064941 40.057838439941406 137 137 137
-1.776684284210205 -16.83328628540039 45.138763427734375 150 150 150
-4.826389312744141 -17.07670783996582 49.74003601074219 33 33 33
-5.396623134613037 -16.866357803344727 50.18597412109375 140 140 140
-5.080182075500488 -15.556170463562012 50.079734802246094 38 38 38
-2.553586721420288 -14.390539169311523 47.75457000732422 98 98 98
6.107450008392334 -7.231781005859375 44.04973220825195 57 57 57
4.69236946105957 -6.479016304016113 41.76325607299805 155 155 155
5.822693824768066 -6.570602893829346 42.899742126464844 44 44 44
6.285186290740967 -6.717698097229004 42.959716796875 12 12 12
5.447135925292969 -7.094054698944092 46.887725830078125 51 51 51
6.063431262969971 -6.462798118591309 43.348663330078125 155 155 155
7.268523216247559 -7.252696514129639 49.292823791503906 25 25 25
5.4922027587890625 -6.772223949432373 46.534061431884766 146 146 146
5.641106128692627 -5.140029430389404 45.09619903564453 161 161 161
-4.95729398727417 -0.563883364200592 48.6337890625 46 46 46
6.578324794769287 1.566953420639038 41.83009338378906 84 84 84
-3.452941656112671 24.71171760559082 45.50899124145508 180 180 180
-14.550475120544434 10.231555938720703 46.24977493286133 52 52 52
-8.334911346435547 -4.584873676300049 45.45580291748047 91 91 91
-19.520183563232422 14.12326717376709 46.49420928955078 7 7 7
3.907984495162964 -15.623528480529785 28.063617706298828 124 124 124
1.7029545307159424 -18.852550506591797 33.98521041870117 112 112 112
0.9107217192649841 -20.42793083190918 37.44075393676758 99 99 99
-1.7572637796401978 -22.439729690551758 43.39134216308594 101 101 101
-0.7687520384788513 -19.807275772094727 40.52299880981445 129 129 129
1.000672698020935 -19.462373733520508 39.805580139160156 118 118 118
3.5671207904815674 -13.28792667388916 30.83627700805664 139 139 139
3.2504920959472656 -13.285371780395508 31.326313018798828 138 138 138
2.9581384658813477 -14.183147430419922 33.81755447387695 130 130 130
1.9667023420333862 -14.93912124633789 36.97925567626953 49 49 49
-0.010246793739497662 -16.07024383544922 41.12459945678711 100 100 100
-0.20880214869976044 -16.665287017822266 43.168678283691406 145 145 145
-0.9451700448989868 -16.181583404541016 42.93618392944336 70 70 70
-2.480189085006714 -16.976064682006836 46.39168167114258 6 6 6
-4.669519424438477 -16.54464340209961 48.33843231201172 29 29 29
-5.063006401062012 -15.461798667907715 49.43159484863281 108 108 108
-3.657946825027466 -15.866949081420898 50.15223693847656 31 31 31
-3.8937318325042725 -8.682065963745117 49.74137878417969 81 81 81
6.575010776519775 -7.168975353240967 44.841468811035156 156 156 156
5.038802623748779 -7.297196388244629 45.449153900146484 67 67 67
4.9352216720581055 -6.788513660430908 43.58895492553711 152 152 152
6.219855308532715 -6.98419189453125 44.82183074951172 35 35 35
5.714448928833008 -7.043176651000977 47.41804885864258 158 158 158
6.543471336364746 -6.8121562004089355 47.21383285522461 20 20 20
-4.5505194664001465 3.0592639446258545 44.864742279052734 59 59 59
-4.926665782928467 -0.5500237345695496 48.412635803222656 46 46 46
7.002845764160156 1.798285961151123 44.30241012573242 16 16 16
1.8198658227920532 -17.502464294433594 35.51145935058594 13 13 13
-0.8721611499786377 -22.896156311035156 43.856048583984375 42 42 42
-3.6212029457092285 -19.787662506103516 44.03929901123047 42 42 42
-5.262451171875 26.476463317871094 47.11414337158203 163 163 163
2.5258948802948 -18.083417892456055 34.29015350341797 6 6 6
0.808738112449646 -17.32506561279297 34.374366760253906 26 26 26
-3.0027823448181152 -21.58103370666504 43.53696823120117 66 66 66
1.8201022148132324 -17.504276275634766 35.51496505737305 13 13 13
0.05721794441342354 -18.89570426940918 38.36159896850586 43 43 43
-3.3577585220336914 -22.863521575927734 47.235565185546875 140 140 140
-2.8265655040740967 -19.69315528869629 42.893638610839844 58 58 58
-3.9491024017333984 -21.425878524780273 47.5059928894043 64 64 64
2.650825023651123 -13.84078598022461 33.39007568359375 31 31 31
1.2783689498901367 -16.278995513916016 40.621395111083984 138 138 138
-1.427846074104309 -18.11939239501953 47.917877197265625 150 150 150
-0.9451281428337097 -16.174884796142578 42.91908264160156 70 70 70
-1.776366949081421 -17.45469093322754 46.50412368774414 145 145 145
-3.567324638366699 -17.87911033630371 49.44684982299805 125 125 125
-4.260332107543945 -15.103939056396484 49.52437210083008 20 20 20
-2.4387364387512207 -14.684304237365723 49.45979309082031 163 163 163
-12.67125129699707 -12.198850631713867 47.32666015625 54 54 54
-6.077987194061279 -12.119843482971191 49.70458221435547 144 144 144
-4.050445079803467 -11.164373397827148 46.7682991027832 60 60 60
6.110095024108887 -7.236178398132324 44.07086181640625 57 57 57
4.385063648223877 -6.285953998565674 39.164676666259766 12 12 12
6.180301666259766 -7.0553083419799805 44.86098861694336 26 26 26
6.251039981842041 -6.826831340789795 46.003963470458984 153 153 153
5.598423480987549 -7.227265357971191 50.35417938232422 8 8 8
-4.033422470092773 -0.8660315871238708 50.04600143432617 33 33 33
-7.2836012840271 0.7635165452957153 45.81450271606445 125 125 125
7.380368232727051 1.8375742435455322 46.588443756103516 25 25 25
