ply
format ascii 1.0
element vertex 709
property float x
property float y
property float z
property uchar red
property uchar green
property uchar blue
end_header
-1.5185354948043823 0.09813452512025833 3.6426615715026855 50 50 50
-1.4683347940444946 -0.729154646396637 3.5342016220092773 88 88 88
-1.5510483980178833 1.012089729309082 3.745901346206665 81 81 81
-1.4662384986877441 -0.7143540978431702 3.5522704124450684 103 103 103
-1.4474385976791382 -0.9937999248504639 3.5154547691345215 116 116 116
-1.5279450416564941 0.5236133337020874 3.728562593460083 18 18 18
-1.4524766206741333 -0.6736218929290771 3.5498881340026855 106 106 106
-1.5066006183624268 0.40095579624176025 3.685131549835205 84 84 84
-1.511522889137268 0.49563512206077576 3.699068069458008 83 83 83
-1.5715869665145874 1.7417062520980835 3.8260080814361572 25 25 25
-1.4951961040496826 0.03393074870109558 3.634181022644043 101 101 101
-1.4832662343978882 0.13520659506320953 3.641711711883545 93 93 93
-1.5370805263519287 0.32967907190322876 3.761131525039673 150 150 150
-1.5751149654388428 1.9383786916732788 3.8834195137023926 63 63 63
-1.4676579236984253 -0.031752463430166245 3.6267478466033936 84 84 84
-1.441092610359192 -0.58992600440979 3.563272714614868 60 60 60
-1.5316827297210693 0.929802656173706 3.796137571334839 15 15 15
-1.4929429292678833 0.5741807818412781 3.6998021602630615 89 89 89
-1.4811314344406128 0.661346435546875 3.6736373901367188 91 91 91
-1.537952184677124 1.7342908382415771 3.833833932876587 38 38 38
-1.384340763092041 -1.5929687023162842 3.4578776359558105 27 27 27
-1.4018266201019287 -1.1193372011184692 3.5029098987579346 87 87 87
-1.4038012027740479 -1.175886869430542 3.515679359436035 31 31 31
-1.5239527225494385 1.5678972005844116 3.8230082988739014 94 94 94
-1.4709277153015137 0.302136093378067 3.6906604766845703 35 35 35
-1.4519987106323242 -0.12600570917129517 3.657663106918335 23 23 23
-1.5322269201278687 1.9506373405456543 3.864860773086548 93 93 93
-1.4635555744171143 0.3186206519603729 3.6973788738250732 172 172 172
-1.3636841773986816 -1.7674472332000732 3.446204423904419 78 78 78
-1.5025042295455933 0.7317594289779663 3.7768969535827637 55 55 55
-1.4351396560668945 -0.23410102725028992 3.641416072845459 114 114 114
-1.4103139638900757 -0.7440513372421265 3.5861899852752686 131 131 131
-1.5017445087432861 1.3901113271713257 3.814497232437134 79 79 79
-1.4367672204971313 -0.10250432789325714 3.664848804473877 124 124 124
-1.4497809410095215 0.11449224501848221 3.7005815505981445 130 130 130
-1.4525099992752075 0.30048757791519165 3.7205002307891846 14 14 14
-1.445623517036438 0.09749915450811386 3.6949403285980225 42 42 42
-1.318192720413208 -1.992180347442627 3.402445077896118 94 94 94
-1.428765058517456 -0.07071453332901001 3.661026954650879 90 90 90
-1.5000429153442383 1.5552794933319092 3.845735549926758 128 128 128
-1.4262160062789917 -0.07124651968479156 3.657437801361084 89 89 89
-1.4156793355941772 -0.25390711426734924 3.63456130027771 66 66 66
-1.4145830869674683 -0.2540064752101898 3.63303279876709 72 72 72
-1.438774824142456 0.1970529407262802 3.6955575942993164 107 107 107
-1.5090088844299316 1.7386677265167236 3.862595796585083 65 65 65
-1.5093988180160522 1.9274616241455078 3.894946575164795 44 44 44
-1.3549636602401733 -1.3490067720413208 3.506108283996582 111 111 111
-1.4743314981460571 1.5271600484848022 3.850071907043457 27 27 27
-1.4733461141586304 1.1370081901550293 3.8232524394989014 41 41 41
-1.450575351715088 0.7224681973457336 3.793309450149536 83 83 83
-1.481683611869812 1.7411528825759888 3.8818142414093018 113 113 113
-1.4451018571853638 0.839238166809082 3.77815580368042 101 101 101
-1.4451018571853638 0.839238166809082 3.77815580368042 101 101 101
-1.4782394170761108 1.7233184576034546 3.887162685394287 49 49 49
-1.4592467546463013 1.8096163272857666 3.85953426361084 55 55 55
-1.3053245544433594 -1.979482889175415 3.4445531368255615 115 115 115
-1.4201908111572266 0.30069586634635925 3.747868061065674 42 42 42
-1.4201908111572266 0.30069586634635925 3.747868061065674 42 42 42
-1.4373793601989746 1.3207368850708008 3.824284553527832 89 89 89
-1.4503673315048218 0.7224722504615784 3.7928857803344727 83 83 83
-1.3798270225524902 -0.10846801847219467 3.692427635192871 69 69 69
-1.435349941253662 0.9309172034263611 3.8036983013153076 112 112 112
-1.3523567914962769 -0.696505069732666 3.590690851211548 116 116 116
-1.3813843727111816 0.10135522484779358 3.698333501815796 93 93 93
-1.3971474170684814 0.15834178030490875 3.7121756076812744 79 79 79
-1.466752290725708 1.7410515546798706 3.901744842529297 124 124 124
-1.4329603910446167 0.7147945761680603 3.8347554206848145 22 22 22
-1.4270719289779663 0.9442992210388184 3.81876540184021 17 17 17
-1.3862630128860474 0.12876634299755096 3.7109107971191406 83 83 83
-1.4393306970596313 1.5313011407852173 3.881596088409424 91 91 91
-1.4508949518203735 1.784713864326477 3.902745485305786 49 49 49
-1.3429934978485107 -0.6281227469444275 3.6178138256073 127 127 127
-1.4087156057357788 0.7097935080528259 3.8006365299224854 11 11 11
-1.3191652297973633 -1.2180259227752686 3.542943000793457 124 124 124
-1.3858267068862915 0.2652479410171509 3.7561166286468506 97 97 97
-1.3934406042099 0.6838565468788147 3.7795844078063965 103 103 103
-1.3286819458007812 -0.659648060798645 3.629154682159424 93 93 93
-1.3032134771347046 -1.1956361532211304 3.560601234436035 115 115 115
-1.2992233037948608 -1.1755039691925049 3.5509793758392334 32 32 32
-1.2992233037948608 -1.1755039691925049 3.5509793758392334 32 32 32
-1.4312024116516113 0.8530524969100952 3.876157522201538 89 89 89
-1.415993332862854 1.5691792964935303 3.8653793334960938 85 85 85
-1.3908113241195679 0.7255847454071045 3.8154637813568115 147 147 147
-1.3615080118179321 0.3793494403362274 3.730863332748413 78 78 78
-1.3615080118179321 0.3793494403362274 3.730863332748413 78 78 78
-1.3618581295013428 0.08697906881570816 3.7390246391296387 38 38 38
-1.379050612449646 0.5116856694221497 3.788450002670288 39 39 39
-1.4213392734527588 1.7633328437805176 3.912978410720825 55 55 55
-1.3998795747756958 1.0891823768615723 3.853586196899414 115 115 115
-1.3945581912994385 1.08389151096344 3.844912528991699 115 115 115
-1.3618510961532593 0.3117935359477997 3.7552733421325684 148 148 148
-1.405980110168457 1.3261147737503052 3.8770132064819336 23 23 23
-1.3832813501358032 1.158042073249817 3.827730178833008 92 92 92
-1.2776323556900024 -1.405254602432251 3.5418238639831543 80 80 80
-1.4161934852600098 1.905730128288269 3.9336016178131104 48 48 48
-1.4059847593307495 1.3261139392852783 3.8770203590393066 23 23 23
-1.3179981708526611 -0.43703168630599976 3.665391445159912 71 71 71
-1.2611122131347656 -1.6112803220748901 3.515155553817749 100 100 100
-1.4219725131988525 1.9391521215438843 3.96407151222229 16 16 16
-1.4069511890411377 1.5177485942840576 3.918961763381958 29 29 29
-1.4099873304367065 1.7481114864349365 3.940936326980591 21 21 21
-1.4099873304367065 1.7481114864349365 3.940936326980591 21 21 21
-1.4099873304367065 1.7481114864349365 3.940936326980591 21 21 21
-1.2449859380722046 -2.043043375015259 3.48488187789917 22 22 22
-1.2784831523895264 -1.1273047924041748 3.590313673019409 100 100 100
-1.2732505798339844 -1.1918538808822632 3.5830740928649902 96 96 96
-1.3331581354141235 0.05643914267420769 3.7573399543762207 96 96 96
-1.3379515409469604 0.4721892178058624 3.773237943649292 100 100 100
-1.391648530960083 1.5232504606246948 3.931826114654541 20 20 20
-1.274160623550415 -0.7290183305740356 3.610935688018799 124 124 124
-1.3360201120376587 0.09097737818956375 3.761021375656128 53 53 53
-1.3368933200836182 0.5414513945579529 3.8022186756134033 126 126 126
-1.3710812330245972 1.7168254852294922 3.900219678878784 78 78 78
-1.2437198162078857 -1.6122915744781494 3.5427746772766113 18 18 18
-1.4079622030258179 1.92160964012146 3.992872476577759 32 32 32
-1.3256810903549194 0.2465762495994568 3.7860734462738037 101 101 101
-1.3256810903549194 0.2465762495994568 3.7860734462738037 101 101 101
-1.356643795967102 1.247172236442566 3.8823487758636475 81 81 81
-1.3633555173873901 0.8760071396827698 3.8894999027252197 103 103 103
-1.362329125404358 1.5311537981033325 3.92608380317688 118 118 118
-1.3308354616165161 0.7691395282745361 3.8453354835510254 107 107 107
-1.3781977891921997 1.9397729635238647 3.9695816040039062 64 64 64
-1.304766297340393 0.17396464943885803 3.789219379425049 80 80 80
-1.2452644109725952 -1.1034120321273804 3.6399612426757812 80 80 80
-1.2311301231384277 -1.2005020380020142 3.6021029949188232 89 89 89
-1.2311301231384277 -1.2005020380020142 3.6021029949188232 89 89 89
-1.245720624923706 -0.6466013193130493 3.6687960624694824 72 72 72
-1.223374366760254 -1.1799944639205933 3.620750904083252 59 59 59
-1.1889065504074097 -2.0327835083007812 3.5147063732147217 25 25 25
-1.220409870147705 -1.394556999206543 3.5958731174468994 25 25 25
-1.2976840734481812 0.8312948346138 3.8465383052825928 91 91 91
-1.3352879285812378 1.643934726715088 3.96207857131958 45 45 45
-1.3061496019363403 1.1047487258911133 3.880920886993408 43 43 43
-1.1815555095672607 -1.463687539100647 3.519287109375 95 95 95
-1.2260435819625854 -0.971098005771637 3.6471238136291504 44 44 44
-1.24660062789917 -0.35210874676704407 3.7244160175323486 77 77 77
-1.203331470489502 -1.7751387357711792 3.5680928230285645 79 79 79
-1.2085504531860352 -1.632614016532898 3.590158700942993 57 57 57
-1.2072477340698242 -1.19439697265625 3.6253135204315186 84 84 84
-1.2072477340698242 -1.19439697265625 3.6253135204315186 84 84 84
-1.1968435049057007 -1.3098030090332031 3.60251784324646 104 104 104
-1.2132091522216797 -0.781711757183075 3.6908581256866455 52 52 52
-1.264345407485962 0.526330292224884 3.816436767578125 100 100 100
-1.243180513381958 -0.13090300559997559 3.772244691848755 61 61 61
-1.169516921043396 -1.5489497184753418 3.5593745708465576 88 88 88
-1.2035307884216309 -0.880390465259552 3.664278268814087 111 111 111
-1.1713446378707886 -1.2056134939193726 3.618722915649414 74 74 74
-1.2606933116912842 1.0319093465805054 3.910318613052368 90 90 90
-1.2422091960906982 0.4682515561580658 3.8442585468292236 115 115 115
-1.2412104606628418 0.9605218172073364 3.8596508502960205 116 116 116
-1.289749264717102 1.7302765846252441 4.018468856811523 106 106 106
-1.195162296295166 -0.5270654559135437 3.7274765968322754 105 105 105
-1.2453893423080444 0.8106018900871277 3.892638921737671 88 88 88
-1.227681279182434 0.6890650987625122 3.8467447757720947 51 51 51
-1.1674715280532837 -1.0905911922454834 3.6641438007354736 71 71 71
-1.2427033185958862 1.13967764377594 3.9123897552490234 91 91 91
-1.222947120666504 -0.33935782313346863 3.8116838932037354 139 139 139
-1.2085182666778564 0.06715531647205353 3.82316517829895 88 88 88
-1.139984130859375 -1.2388989925384521 3.62528920173645 74 74 74
-1.1166764497756958 -1.7733325958251953 3.565434455871582 99 99 99
-1.144112467765808 -0.8810738921165466 3.651015520095825 80 80 80
-1.2089951038360596 0.6654344797134399 3.8824942111968994 107 107 107
-1.1644833087921143 -0.3907199501991272 3.7554824352264404 78 78 78
-1.1911429166793823 0.06893914937973022 3.842695713043213 70 70 70
-1.1911429166793823 0.06893914937973022 3.842695713043213 70 70 70
-1.2515029907226562 1.1211086511611938 4.009944438934326 52 52 52
-1.1126090288162231 -1.3348498344421387 3.632798433303833 109 109 109
-1.1126090288162231 -1.3348498344421387 3.632798433303833 109 109 109
-1.1097952127456665 -1.373195767402649 3.623666286468506 78 78 78
-1.1330552101135254 -0.8409072160720825 3.711388349533081 91 91 91
-1.1764065027236938 0.3157338500022888 3.8633952140808105 116 116 116
-1.1103476285934448 -1.3333237171173096 3.647926092147827 102 102 102
-1.102008581161499 -1.4490458965301514 3.6225624084472656 84 84 84
-1.1868259906768799 1.6781381368637085 3.9588468074798584 87 87 87
-1.1788581609725952 0.5056617856025696 3.8832154273986816 172 172 172
-1.1929799318313599 0.8948483467102051 3.9431228637695312 76 76 76
-1.0742732286453247 -2.0118355751037598 3.559154510498047 87 87 87
-1.102424144744873 -1.1467410326004028 3.659636974334717 97 97 97
-1.194917917251587 1.1484978199005127 3.9723081588745117 104 104 104
-1.1859264373779297 1.0348255634307861 3.9712765216827393 98 98 98
-1.1953953504562378 1.3083633184432983 4.02179479598999 18 18 18
-1.1412091255187988 0.02638345956802368 3.849104404449463 130 130 130
-1.1412091255187988 0.02638345956802368 3.849104404449463 130 130 130
-1.1437366008758545 0.22825254499912262 3.86838960647583 113 113 113
-1.2145771980285645 1.5260701179504395 4.120545387268066 45 45 45
-1.1884353160858154 1.5458003282546997 4.010727405548096 44 44 44
-1.188881278038025 1.933517575263977 4.040537357330322 52 52 52
-1.0917131900787354 -0.8769111037254333 3.709341287612915 74 74 74
-1.195369005203247 1.3083447217941284 4.021749973297119 18 18 18
-1.1395710706710815 0.372241348028183 3.877800941467285 91 91 91
-1.0609301328659058 -1.7365062236785889 3.6233694553375244 77 77 77
-1.1609102487564087 0.9061072468757629 3.974259853363037 122 122 122
-1.1546869277954102 1.1098753213882446 3.9895219802856445 128 128 128
-1.1537930965423584 1.0118606090545654 3.9883363246917725 89 89 89
-1.119941234588623 0.08384202420711517 3.877580165863037 144 144 144
-1.1148637533187866 0.2772607207298279 3.8961756229400635 69 69 69
-1.1106231212615967 0.18389098346233368 3.880653142929077 96 96 96
-1.0391203165054321 -0.8101564049720764 3.692294120788574 77 77 77
-1.1383593082427979 1.1230851411819458 3.9919002056121826 53 53 53
-1.0979962348937988 -0.007010236382484436 3.856095790863037 90 90 90
-1.0755459070205688 -0.13476397097110748 3.8547143936157227 22 22 22
-1.0154625177383423 -2.013089895248413 3.6033432483673096 87 87 87
-1.026858925819397 -0.9739909768104553 3.694178819656372 85 85 85
-1.1403933763504028 1.8377379179000854 4.091465473175049 52 52 52
-1.1297160387039185 1.515494465827942 4.065174102783203 21 21 21
-1.0706095695495605 0.06076699122786522 3.8677611351013184 56 56 56
-1.0927636623382568 0.7637890577316284 3.968576431274414 125 125 125
-0.9445258975028992 -0.6208929419517517 3.443999767303467 73 73 73
-1.0026541948318481 -1.5792866945266724 3.669466257095337 111 111 111
-0.9798197746276855 -2.0404839515686035 3.6063175201416016 24 24 24
-1.0765955448150635 0.36182060837745667 3.9365713596343994 94 94 94
-0.9996071457862854 -0.7547459602355957 3.713886022567749 102 102 102
-0.999463677406311 -1.42617666721344 3.6886041164398193 96 96 96
-0.9755285382270813 -1.827345848083496 3.6440887451171875 84 84 84
-0.9823855757713318 -1.667000651359558 3.6392881870269775 77 77 77
-1.0650604963302612 0.6874351501464844 3.965351104736328 183 183 183
-0.9951841831207275 -1.2192436456680298 3.7116568088531494 58 58 58
-1.0792431831359863 1.1613417863845825 4.034377574920654 48 48 48
-1.0183464288711548 -0.4703657031059265 3.8149197101593018 72 72 72
-0.9834116697311401 -1.4809544086456299 3.69014048576355 93 93 93
-1.0646247863769531 0.8446213603019714 4.007205963134766 124 124 124
-1.0615211725234985 0.7971095442771912 3.9980788230895996 99 99 99
-1.0615211725234985 0.7971095442771912 3.9980788230895996 99 99 99
-1.0379222631454468 0.31172239780426025 3.9151453971862793 124 124 124
-0.9618850946426392 -2.0215532779693604 3.629436731338501 106 106 106
-0.9817719459533691 -1.0883355140686035 3.7347209453582764 86 86 86
-1.0640910863876343 1.3663344383239746 4.041471481323242 47 47 47
-0.9993831515312195 -0.670998752117157 3.8015036582946777 73 73 73
-0.9676275849342346 -1.609512209892273 3.695209264755249 75 75 75
-1.0220271348953247 0.2853357195854187 3.945864200592041 153 153 153
-1.02353835105896 0.46144407987594604 3.9653730392456055 141 141 141
-0.980380117893219 -0.7471446394920349 3.8004581928253174 95 95 95
-1.011884331703186 0.2648155093193054 3.9480197429656982 83 83 83
-0.9403099417686462 -1.4843223094940186 3.655433177947998 77 77 77
-0.99713534116745 -0.27662816643714905 3.8774099349975586 85 85 85
-0.9701676964759827 -0.8976038098335266 3.7887814044952393 94 94 94
-0.9689378142356873 -1.013656735420227 3.7957842350006104 23 23 23
-0.9482971429824829 -1.484737753868103 3.7161409854888916 101 101 101
-0.9948001503944397 0.4633600413799286 3.940018653869629 2 2 2
-0.9948001503944397 0.4633600413799286 3.940018653869629 2 2 2
-0.9396724104881287 -1.5963817834854126 3.707655668258667 104 104 104
-0.9708341360092163 -0.6044772863388062 3.8342080116271973 83 83 83
-1.007509469985962 0.5704928040504456 3.985607385635376 109 109 109
-1.0149033069610596 0.9179486632347107 4.032536029815674 117 117 117
-0.9195212721824646 -1.8397762775421143 3.6641809940338135 39 39 39
-0.9195212721824646 -1.8397762775421143 3.6641809940338135 39 39 39
-0.9863414168357849 0.033839672803878784 3.9330062866210938 116 116 116
-1.0266308784484863 1.736407995223999 4.1066741943359375 40 40 40
-0.91310054063797 -1.9973232746124268 3.661116361618042 95 95 95
-0.9584224224090576 -0.5853284001350403 3.864525556564331 28 28 28
-0.9762886166572571 0.3075260818004608 3.9421839714050293 113 113 113
-0.9400421380996704 -1.0272387266159058 3.7960903644561768 119 119 119
-1.0149449110031128 1.088330626487732 4.068905830383301 101 101 101
-0.9507887959480286 -0.61716628074646 3.865708589553833 44 44 44
-0.9464651942253113 -0.5918517708778381 3.8763792514801025 14 14 14
-0.9464651942253113 -0.5918517708778381 3.8763792514801025 14 14 14
-0.8852595686912537 -1.9055625200271606 3.6759231090545654 78 78 78
-0.9742510318756104 0.4148528277873993 4.030882358551025 108 108 108
-0.9391950964927673 -0.3654516339302063 3.9059393405914307 48 48 48
-0.9279731512069702 -1.3608192205429077 3.8033339977264404 68 68 68
-0.9742361903190613 0.4148501455783844 4.030854225158691 108 108 108
-0.9395291805267334 0.21852047741413116 3.972317695617676 82 82 82
-0.9001805782318115 -0.9095808863639832 3.8127810955047607 88 88 88
-0.9175443649291992 -0.03285059705376625 3.892824172973633 107 107 107
-0.9641974568367004 1.317728042602539 4.108083724975586 51 51 51
-0.9683714509010315 1.6675833463668823 4.142354488372803 5 5 5
-0.9178929924964905 0.007050401531159878 3.9701242446899414 124 124 124
-0.9273712635040283 0.802357017993927 4.0497541427612305 102 102 102
-0.9116194248199463 0.4065847098827362 3.9893317222595215 108 108 108
-0.8330039978027344 -1.8648831844329834 3.715559244155884 102 102 102
-0.9237109422683716 0.8848203420639038 4.104931354522705 22 22 22
-0.8247045278549194 -2.1528854370117188 3.6891307830810547 68 68 68
-0.8247045278549194 -2.1528854370117188 3.6891307830810547 68 68 68
-0.9165314435958862 0.6591408848762512 4.0714030265808105 8 8 8
-0.9160943627357483 1.0454093217849731 4.113589286804199 27 27 27
-0.8825708031654358 0.10560211539268494 3.9774253368377686 104 104 104
-0.8239341378211975 -1.847564697265625 3.728660821914673 26 26 26
-0.8239341378211975 -1.847564697265625 3.728660821914673 26 26 26
-0.8605694770812988 -0.3757905066013336 3.9208149909973145 58 58 58
-0.8267946243286133 -1.2342040538787842 3.8030076026916504 91 91 91
-0.8471717238426208 -0.16276289522647858 3.9379465579986572 63 63 63
-0.8471717238426208 -0.16276289522647858 3.9379465579986572 63 63 63
-0.8623759746551514 0.042251069098711014 3.995683193206787 85 85 85
-0.8730242252349854 0.5745207667350769 4.053406715393066 121 121 121
-0.8074877262115479 -1.6097121238708496 3.766695976257324 99 99 99
-0.9029929041862488 1.6570239067077637 4.219738006591797 50 50 50
-0.9006950855255127 1.6797691583633423 4.208297252655029 11 11 11
-0.8612349033355713 0.493111789226532 4.056517124176025 130 130 130
-0.8851373791694641 1.2923206090927124 4.199191093444824 66 66 66
-0.7906764149665833 -1.597730278968811 3.749746322631836 99 99 99
-0.8940447568893433 1.4806644916534424 4.2479400634765625 9 9 9
-0.8732616305351257 1.6553374528884888 4.152251243591309 53 53 53
-0.8509454131126404 0.24853262305259705 4.043255805969238 44 44 44
-0.8630307912826538 1.306701898574829 4.175837516784668 96 96 96
-0.7649268507957458 -2.1384353637695312 3.7096996307373047 61 61 61
-0.810493528842926 -0.2559279799461365 3.9539973735809326 110 110 110
-0.8112404346466064 -0.303472101688385 3.958623170852661 100 100 100
-0.8060438632965088 -0.2934221625328064 3.9428086280822754 98 98 98
-0.7571907639503479 -2.091994285583496 3.7126617431640625 74 74 74
-0.8463884592056274 1.4725450277328491 4.203130722045898 95 95 95
-0.7747544646263123 -1.2532312870025635 3.82444429397583 93 93 93
-0.8367274403572083 1.437631368637085 4.185545921325684 54 54 54
-0.8300338387489319 0.250816285610199 4.104701042175293 92 92 92
-0.8193161487579346 1.1349176168441772 4.145441055297852 45 45 45
-0.8142384886741638 1.1289665699005127 4.133325099945068 45 45 45
-0.7730408310890198 -0.5855602025985718 3.9504828453063965 96 96 96
-0.7277188301086426 -2.0277607440948486 3.7213189601898193 90 90 90
-0.7965653538703918 0.48652663826942444 4.074041843414307 141 141 141
-0.8065643906593323 0.6546249985694885 4.126519203186035 33 33 33
-0.8169033527374268 1.581729531288147 4.231391429901123 41 41 41
-0.7199631929397583 -2.0764856338500977 3.727947950363159 67 67 67
-0.8048873543739319 0.990371584892273 4.176743984222412 48 48 48
-0.7644538283348083 -0.8157449960708618 3.9741976261138916 44 44 44
-0.7644538283348083 -0.8157449960708618 3.9741976261138916 44 44 44
-0.7228322625160217 -1.9759341478347778 3.7596917152404785 75 75 75
-0.778012752532959 0.33164089918136597 4.070917129516602 132 132 132
-0.7236605882644653 -0.16759443283081055 3.866286277770996 50 50 50
-0.7981971502304077 0.8646823763847351 4.177093505859375 22 22 22
-0.7135979533195496 -1.9409778118133545 3.7517499923706055 99 99 99
-0.7128049731254578 -2.071608781814575 3.756594657897949 27 27 27
-0.7659544348716736 0.14205805957317352 4.046265125274658 101 101 101
-0.713090717792511 -1.8211281299591064 3.7682206630706787 91 91 91
-0.7329952716827393 -1.1881382465362549 3.8780336380004883 95 95 95
-0.7146536707878113 -1.7161885499954224 3.8014583587646484 116 116 116
-0.7136794328689575 -1.654412031173706 3.8056013584136963 91 91 91
-0.7643396854400635 0.47261181473731995 4.104324817657471 184 184 184
-0.7479135990142822 -0.11400101333856583 4.019616603851318 109 109 109
-0.7498437166213989 -0.04135635122656822 4.040040493011475 106 106 106
-0.7084983587265015 -1.6095139980316162 3.8244540691375732 99 99 99
-0.717703104019165 -1.0098097324371338 3.936896800994873 20 20 20
-0.7480321526527405 0.21469701826572418 4.069028854370117 118 118 118
-0.742807924747467 0.07355023920536041 4.050816535949707 126 126 126
-0.739082932472229 -0.17484749853610992 4.037672996520996 60 60 60
-0.75483638048172 0.723716676235199 4.140496730804443 46 46 46
-0.7095858454704285 -0.8610541224479675 3.9459922313690186 39 39 39
-0.7333528995513916 0.2792189121246338 4.085745334625244 131 131 131
-0.7449159026145935 0.7912755012512207 4.153082847595215 52 52 52
-0.6771179437637329 -1.942542314529419 3.7901766300201416 101 101 101
-0.718470573425293 -0.002309257397428155 4.049325942993164 130 130 130
-0.7030620574951172 -0.7531929016113281 3.988943338394165 103 103 103
-0.7101531624794006 -0.15102238953113556 4.021988391876221 135 135 135
-0.7140726447105408 0.29549333453178406 4.0977935791015625 150 150 150
-0.6727627515792847 -1.3726493120193481 3.8784687519073486 105 105 105
-0.7053754925727844 0.02918299473822117 4.076865196228027 67 67 67
-0.7371076941490173 1.6360032558441162 4.292583465576172 62 62 62
-0.6982855796813965 -0.38938379287719727 4.040482044219971 45 45 45
-0.6914726495742798 -1.2563433647155762 3.9627504348754883 77 77 77
-0.7077760696411133 0.37605205178260803 4.131855010986328 163 163 163
-0.7115246057510376 1.1182749271392822 4.239851474761963 45 45 45
-0.7084614634513855 0.8989336490631104 4.186957359313965 101 101 101
-0.711009681224823 0.9088982939720154 4.205155372619629 99 99 99
-0.711009681224823 0.9088982939720154 4.205155372619629 99 99 99
-0.6903711557388306 0.2715089023113251 4.090104103088379 139 139 139
-0.630766749382019 -2.041823148727417 3.7383182048797607 31 31 31
-0.6734939813613892 0.5037347078323364 4.088617324829102 100 100 100
-0.6551712155342102 -0.5695216059684753 3.9798614978790283 115 115 115
-0.6961707472801208 1.003620982170105 4.236062049865723 83 83 83
-0.6641035676002502 -0.33740782737731934 4.0419464111328125 87 87 87
-0.6358276009559631 -1.245061993598938 3.882005453109741 93 93 93
-0.6920819282531738 0.9462656378746033 4.23390007019043 65 65 65
-0.6150749325752258 -2.136763095855713 3.7812321186065674 67 67 67
-0.650677502155304 -0.6517451405525208 4.002445220947266 109 109 109
-0.6582313179969788 -0.14885862171649933 4.057957649230957 132 132 132
-0.6362296938896179 -1.8780205249786377 3.85013747215271 78 78 78
-0.6508438587188721 -0.6050589084625244 4.021914482116699 52 52 52
-0.6205056309700012 -1.6166878938674927 3.85911226272583 104 104 104
-0.6155182123184204 -1.8521604537963867 3.860609292984009 82 82 82
-0.6040459871292114 -2.193294048309326 3.8039424419403076 70 70 70
-0.6637189388275146 0.6456893086433411 4.188136577606201 26 26 26
-0.6210768222808838 -1.7975115776062012 3.9323220252990723 84 84 84
-0.6634125113487244 0.6848239898681641 4.214625835418701 96 96 96
-0.6283087134361267 -0.13976460695266724 4.021871566772461 118 118 118
-0.6861038208007812 1.1886829137802124 4.332465171813965 49 49 49
-0.6265037655830383 -1.2318061590194702 3.962172746658325 55 55 55
-0.6075400710105896 -1.578143835067749 3.8888587951660156 108 108 108
-0.6075400710105896 -1.578143835067749 3.8888587951660156 108 108 108
-0.6583395600318909 0.8300650715827942 4.2202301025390625 16 16 16
-0.6456230878829956 0.5851984620094299 4.180783271789551 98 98 98
-0.6138837933540344 -0.7036618590354919 4.011651039123535 110 110 110
-0.6079596877098083 -0.40141838788986206 4.007660388946533 9 9 9
-0.5914173126220703 -1.4071859121322632 3.9156317710876465 97 97 97
-0.6060903668403625 -1.6335151195526123 3.947256088256836 76 76 76
-0.6060903668403625 -1.6335151195526123 3.947256088256836 76 76 76
-0.5707330107688904 -2.007431983947754 3.8030812740325928 103 103 103
-0.6194038391113281 0.5440314412117004 4.191392421722412 77 77 77
-0.6393116116523743 1.064849853515625 4.293310642242432 4 4 4
-0.6336332559585571 0.9245922565460205 4.233985900878906 83 83 83
-0.6100255846977234 0.5962514877319336 4.18491792678833 62 62 62
-0.6332093477249146 1.275950312614441 4.28483247756958 52 52 52
-0.6043663620948792 -0.13977733254432678 4.091950416564941 115 115 115
-0.5931321978569031 -0.5178589224815369 4.015428066253662 86 86 86
-0.5755579471588135 -1.5775017738342285 3.9126625061035156 98 98 98
-0.5665675401687622 -1.7912237644195557 3.883946180343628 80 80 80
-0.5583899617195129 -1.6490204334259033 3.866074323654175 90 90 90
-0.6189903020858765 1.2364767789840698 4.305052280426025 106 106 106
-0.5629600882530212 -1.6931514739990234 3.904236078262329 98 98 98
-0.5844367146492004 -0.3680422306060791 4.085214614868164 103 103 103
-0.609645426273346 1.0689159631729126 4.277548789978027 63 63 63
-0.599597692489624 0.49195703864097595 4.2159881591796875 55 55 55
-0.5452373027801514 -2.1208767890930176 3.8402600288391113 100 100 100
-0.5875919461250305 0.0207224003970623 4.14143180847168 33 33 33
-0.5875919461250305 0.0207224003970623 4.14143180847168 33 33 33
-0.5346916317939758 -1.9030669927597046 3.8610451221466064 34 34 34
-0.570497453212738 -0.3582504689693451 4.083654403686523 104 104 104
-0.5452837347984314 -1.8425822257995605 3.8709347248077393 57 57 57
-0.5930035710334778 0.9874932765960693 4.264773368835449 94 94 94
-0.5797068476676941 0.46779125928878784 4.190643310546875 58 58 58
-0.5433852076530457 -1.5427496433258057 3.937878370285034 87 87 87
-0.5307775735855103 -1.8741436004638672 3.8610918521881104 97 97 97
-0.5317466259002686 -1.8174724578857422 3.88240385055542 112 112 112
-0.5306897759437561 -2.023348569869995 3.878528356552124 102 102 102
-0.5219236612319946 -2.1518983840942383 3.845813751220703 64 64 64
-0.5592881441116333 0.005810147151350975 4.144639492034912 96 96 96
-0.5778483152389526 1.2920695543289185 4.302255153656006 45 45 45
-0.536251962184906 -0.9798808097839355 3.9915854930877686 85 85 85
-0.5108790993690491 -2.083385705947876 3.841015577316284 65 65 65
-0.5524028539657593 -0.1611579805612564 4.137322902679443 117 117 117
-0.512613832950592 -1.8526808023452759 3.9051425457000732 110 110 110
-0.5702115893363953 1.0874855518341064 4.294373035430908 83 83 83
-0.5702115893363953 1.0874855518341064 4.294373035430908 83 83 83
-0.5508803129196167 -0.1133774071931839 4.144870281219482 98 98 98
-0.5538635849952698 1.122628092765808 4.254189491271973 79 79 79
-0.5628794431686401 0.9848359823226929 4.272220134735107 53 53 53
-0.547133207321167 0.38927099108695984 4.180728435516357 61 61 61
-0.5126437544822693 -1.5970419645309448 3.925452947616577 115 115 115
-0.5082676410675049 -1.2729097604751587 3.970249891281128 91 91 91
-0.5465043783187866 0.9594514966011047 4.278209209442139 41 41 41
-0.5010477304458618 -1.6975818872451782 3.92104172706604 96 96 96
-0.5010477304458618 -1.6975818872451782 3.92104172706604 96 96 96
-0.554767370223999 1.304925560951233 4.310055255889893 70 70 70
-0.49268046021461487 -2.1146481037139893 3.8583314418792725 60 60 60
-0.5288037061691284 -0.1340707689523697 4.168290138244629 88 88 88
-0.5278499722480774 -0.13429325819015503 4.165650844573975 88 88 88
-0.5180343985557556 -0.4020717740058899 4.1121649742126465 42 42 42
-0.4875609874725342 -2.0766513347625732 3.8745861053466797 31 31 31
-0.540805459022522 1.1560810804367065 4.3131794929504395 59 59 59
-0.5273775458335876 0.3971225321292877 4.2120442390441895 64 64 64
-0.4922441840171814 -1.6169029474258423 3.938227653503418 104 104 104
-0.5192272663116455 0.1098107248544693 4.1594343185424805 65 65 65
-0.5383287072181702 1.0402299165725708 4.3215651512146 22 22 22
-0.4996366798877716 -1.265733003616333 4.011604309082031 86 86 86
-0.4836743474006653 -1.8254255056381226 3.9023149013519287 100 100 100
-0.473699152469635 -2.0970184803009033 3.872697353363037 59 59 59
-0.4962915778160095 -0.639229953289032 4.069720268249512 106 106 106
-0.4925247132778168 -1.042203426361084 4.039159297943115 61 61 61
-0.5357680916786194 1.3247238397598267 4.425043106079102 56 56 56
-0.4941527843475342 -0.3397812247276306 4.109976291656494 85 85 85
-0.4935860335826874 -0.10068820416927338 4.155004978179932 75 75 75
-0.4946507513523102 0.7307668328285217 4.19472074508667 100 100 100
-0.4515101909637451 -1.3036329746246338 3.9419009685516357 58 58 58
-0.47074049711227417 -0.8277131915092468 4.079075336456299 30 30 30
-0.47694212198257446 -0.6731681823730469 4.073263168334961 86 86 86
-0.4604240953922272 -2.0713584423065186 3.9401564598083496 38 38 38
-0.4562045633792877 -1.7996363639831543 3.9229724407196045 64 64 64
-0.4638432562351227 -1.1618852615356445 4.006406307220459 94 94 94
-0.48578330874443054 0.6986318230628967 4.274867057800293 41 41 41
-0.4864864945411682 0.6974869966506958 4.277621746063232 40 40 40
-0.4883681833744049 0.9298064708709717 4.307848930358887 58 58 58
-0.4807256758213043 0.5010560750961304 4.2443060874938965 45 45 45
-0.45302245020866394 -0.87673419713974 4.022061347961426 84 84 84
-0.4568069279193878 -1.0927873849868774 4.045406818389893 58 58 58
-0.4551129639148712 -1.0583231449127197 4.054227828979492 122 122 122
-0.45969393849372864 1.2723801136016846 4.325722694396973 59 59 59
-0.4538690447807312 -1.515295386314392 4.070719242095947 118 118 118
-0.4538690447807312 -1.515295386314392 4.070719242095947 118 118 118
-0.3988278806209564 -1.9640262126922607 3.8600449562072754 103 103 103
-0.4400562345981598 -0.4507507383823395 4.110483169555664 94 94 94
-0.4566531479358673 0.4808088541030884 4.27095890045166 59 59 59
-0.42351314425468445 -1.5885175466537476 3.978813409805298 63 63 63
-0.4156494736671448 -2.153641700744629 3.9062154293060303 49 49 49
-0.42687004804611206 -0.8337523341178894 4.1055006980896 85 85 85
-0.44780534505844116 0.19356776773929596 4.231929302215576 70 70 70
-0.42260056734085083 -1.7389167547225952 4.026256084442139 70 70 70
-0.4186336100101471 -1.4269344806671143 3.994189739227295 99 99 99
-0.421638160943985 -1.157734751701355 4.059723377227783 72 72 72
-0.4180649518966675 -1.1542826890945435 4.049598693847656 69 69 69
-0.41398879885673523 -1.412756323814392 4.0169148445129395 75 75 75
-0.41398879885673523 -1.412756323814392 4.0169148445129395 75 75 75
-0.41818302869796753 0.2029549777507782 4.203188419342041 19 19 19
-0.43328219652175903 0.4584954082965851 4.273651599884033 105 105 105
-0.43328219652175903 0.4584954082965851 4.273651599884033 105 105 105
-0.43476179242134094 0.6168344020843506 4.304431438446045 22 22 22
-0.43476179242134094 0.6168344020843506 4.304431438446045 22 22 22
-0.43208828568458557 0.5263605117797852 4.2892231941223145 93 93 93
-0.4058504104614258 -1.1919339895248413 4.0375566482543945 83 83 83
-0.4313940703868866 0.6804434061050415 4.315025806427002 41 41 41
-0.4349658191204071 1.0580857992172241 4.358121871948242 54 54 54
-0.39199790358543396 -1.691711187362671 3.9891960620880127 97 97 97
-0.37751680612564087 -1.1109817028045654 4.004846096038818 85 85 85
-0.39837372303009033 -1.014493703842163 4.07199239730835 88 88 88
-0.4046443700790405 -1.339855670928955 4.037722587585449 91 91 91
-0.4046443700790405 -1.339855670928955 4.037722587585449 91 91 91
-0.43523895740509033 1.2911854982376099 4.403571605682373 34 34 34
-0.42469051480293274 0.20822930335998535 4.271905422210693 5 5 5
-0.38702109456062317 -1.5367048978805542 4.0189971923828125 62 62 62
-0.39288240671157837 -0.8470302820205688 4.107040882110596 66 66 66
-0.41353753209114075 0.7840390205383301 4.329188346862793 64 64 64
-0.41183194518089294 0.8738092184066772 4.3566575050354 14 14 14
-0.40775319933891296 0.49589619040489197 4.3243255615234375 32 32 32
-0.40382078289985657 0.39594000577926636 4.286165237426758 53 53 53
-0.3790629506111145 -1.3459141254425049 4.035604000091553 94 94 94
-0.4000495374202728 1.0168397426605225 4.389514923095703 19 19 19
-0.3712061643600464 -1.2004849910736084 4.069912910461426 64 64 64
-0.3712061643600464 -1.2004849910736084 4.069912910461426 64 64 64
-0.4034960865974426 1.3224003314971924 4.434398651123047 57 57 57
-0.38029900193214417 -0.4205402433872223 4.175411224365234 39 39 39
-0.36823222041130066 -1.4294272661209106 4.043498516082764 92 92 92
-0.38394948840141296 0.032784685492515564 4.223852157592773 59 59 59
-0.3595374524593353 -1.9056411981582642 3.9608075618743896 29 29 29
-0.3754267692565918 -0.3471851348876953 4.176812171936035 114 114 114
-0.35611969232559204 -1.6980763673782349 4.006020545959473 82 82 82
-0.37871116399765015 0.566906213760376 4.319264888763428 59 59 59
-0.3851097524166107 1.1736401319503784 4.426216125488281 65 65 65
-0.3548164963722229 -1.4204370975494385 4.058444499969482 70 70 70
-0.3464840352535248 -1.403537631034851 4.0586466789245605 62 62 62
-0.3592630922794342 1.211783528327942 4.410606861114502 5 5 5
-0.33764898777008057 -1.7068536281585693 3.9812750816345215 87 87 87
-0.3322509527206421 -1.909163475036621 3.959780216217041 34 34 34
-0.3322509527206421 -1.909163475036621 3.959780216217041 34 34 34
-0.3353016674518585 -1.4611549377441406 4.0726141929626465 69 69 69
-0.33366918563842773 -1.8034567832946777 3.997041940689087 103 103 103
-0.3388082683086395 -1.0869593620300293 4.090101718902588 80 80 80
-0.36137402057647705 0.7864066958427429 4.3753533363342285 53 53 53
-0.37334731221199036 1.0243995189666748 4.441554546356201 17 17 17
-0.35190004110336304 0.39477911591529846 4.3079938888549805 54 54 54
-0.34034502506256104 -0.24403473734855652 4.214931011199951 106 106 106
-0.32974860072135925 -0.5877865552902222 4.1686530113220215 96 96 96
-0.3152322471141815 -1.7097440958023071 3.997662305831909 98 98 98
-0.3175157606601715 -1.395776391029358 4.060123443603516 65 65 65
-0.33427202701568604 0.25905176997184753 4.294368743896484 79 79 79
-0.3073756694793701 -1.9473439455032349 3.9683027267456055 49 49 49
-0.33339279890060425 0.6474674940109253 4.361978530883789 55 55 55
-0.33146125078201294 0.7412900924682617 4.360830783843994 41 41 41
-0.3016483187675476 -1.909932017326355 4.003551006317139 82 82 82
-0.3016483187675476 -1.909932017326355 4.003551006317139 82 82 82
-0.3469506502151489 0.9432066082954407 4.468775749206543 62 62 62
-0.3205089867115021 0.1572420448064804 4.291580677032471 71 71 71
-0.324023574590683 0.63335120677948 4.353926658630371 56 56 56
-0.2988615036010742 -1.8265337944030762 4.015127658843994 48 48 48
-0.31057700514793396 -0.3730469346046448 4.194666385650635 81 81 81
-0.3283349275588989 1.0158600807189941 4.453270435333252 11 11 11
-0.3139599561691284 0.08808528631925583 4.2865729331970215 59 59 59
-0.30062246322631836 -1.0401264429092407 4.130332946777344 94 94 94
-0.30862945318222046 -1.250453233718872 4.103548049926758 62 62 62
-0.30862945318222046 -1.250453233718872 4.103548049926758 62 62 62
-0.29627683758735657 -1.02202308177948 4.116047382354736 61 61 61
-0.29722288250923157 -0.9903935194015503 4.132835865020752 89 89 89
-0.27725163102149963 -1.9091136455535889 3.932880401611328 40 40 40
-0.27725163102149963 -1.9091136455535889 3.932880401611328 40 40 40
-0.28843551874160767 -1.3219168186187744 4.088923454284668 57 57 57
-0.3143850564956665 1.245595097541809 4.474396228790283 44 44 44
-0.30020391941070557 0.041988857090473175 4.291077136993408 73 73 73
-0.3181501626968384 0.45782947540283203 4.370494365692139 67 67 67
-0.3034026622772217 0.7863238453865051 4.377603054046631 40 40 40
-0.3004220724105835 0.6723172664642334 4.378752708435059 48 48 48
-0.27502381801605225 -1.7727296352386475 4.04166841506958 79 79 79
-0.27830126881599426 0.11829525232315063 4.298748016357422 57 57 57
-0.2789151966571808 -1.0316109657287598 4.142969131469727 55 55 55
-0.2878715693950653 0.06366361677646637 4.29359245300293 85 85 85
-0.2962338924407959 -0.8446629047393799 4.234049320220947 85 85 85
-0.26153966784477234 -2.2587435245513916 3.9640612602233887 43 43 43
-0.26540714502334595 -1.6975982189178467 4.043858528137207 62 62 62
-0.26566416025161743 -1.6643290519714355 4.048830032348633 36 36 36
-0.27749407291412354 -0.40638411045074463 4.234997272491455 101 101 101
-0.27726560831069946 -0.3682900369167328 4.240754127502441 105 105 105
-0.2756332457065582 -0.036541298031806946 4.286324977874756 73 73 73
-0.28250670433044434 0.7063922882080078 4.395882606506348 66 66 66
-0.27420300245285034 -0.21431268751621246 4.280519008636475 34 34 34
-0.258751779794693 -1.6441494226455688 4.056124210357666 57 57 57
-0.27820301055908203 0.44967570900917053 4.367252826690674 100 100 100
-0.26564374566078186 0.023426616564393044 4.309077262878418 62 62 62
-0.2543652653694153 -1.2967902421951294 4.129374980926514 75 75 75
-0.25498637557029724 -1.005362868309021 4.1583027839660645 64 64 64
-0.26204025745391846 0.0884082168340683 4.3074822425842285 57 57 57
-0.26380258798599243 0.6696814298629761 4.396243095397949 71 71 71
-0.25773388147354126 -0.16399304568767548 4.332157611846924 106 106 106
-0.23818358778953552 -1.9160584211349487 4.017112731933594 57 57 57
-0.23536843061447144 -2.0237293243408203 4.007509708404541 29 29 29
-0.24743202328681946 -1.0303912162780762 4.221986770629883 66 66 66
-0.25658944249153137 0.07087444514036179 4.317322254180908 86 86 86
-0.2316640466451645 -2.0884673595428467 3.997692108154297 18 18 18
-0.23869162797927856 0.04910727217793465 4.3201212882995605 91 91 91
-0.2255449891090393 -1.2401129007339478 4.102569580078125 85 85 85
-0.22888997197151184 0.7111996412277222 4.411431312561035 31 31 31
-0.23201346397399902 -0.3764585256576538 4.256394386291504 67 67 67
-0.23860445618629456 0.7359749674797058 4.416280269622803 56 56 56
-0.22578246891498566 -0.8967490792274475 4.190799236297607 81 81 81
-0.22115950286388397 -1.283843994140625 4.118755340576172 61 61 61
-0.2248920053243637 -0.9084547758102417 4.210297107696533 82 82 82
-0.2248920053243637 -0.9084547758102417 4.210297107696533 82 82 82
-0.21725144982337952 -0.8569628596305847 4.195101261138916 39 39 39
-0.233262300491333 0.4461742639541626 4.3814697265625 32 32 32
-0.23023061454296112 -0.3154793083667755 4.293038368225098 88 88 88
-0.22638705372810364 0.3860014081001282 4.361708164215088 43 43 43
-0.20623387396335602 -1.8560460805892944 4.061266899108887 66 66 66
-0.20481480658054352 -1.971627116203308 4.043962478637695 46 46 46
-0.2136363387107849 -0.4599097669124603 4.2665324211120605 75 75 75
-0.20540042221546173 -0.9213863611221313 4.1875433921813965 66 66 66
-0.21487292647361755 0.4496615529060364 4.385092735290527 55 55 55
-0.21104881167411804 0.5064061880111694 4.398107528686523 82 82 82
-0.20499198138713837 -0.43376412987709045 4.277657985687256 41 41 41
-0.19768856465816498 -1.1045024394989014 4.243552207946777 84 84 84
-0.18805506825447083 -1.984153151512146 4.041349411010742 44 44 44
-0.1886213719844818 -0.31561076641082764 4.290951728820801 77 77 77
-0.1859024465084076 -2.0524392127990723 4.02749490737915 78 78 78
-0.1859024465084076 -2.0524392127990723 4.02749490737915 78 78 78
-0.18080826103687286 -0.2056812345981598 4.252524375915527 49 49 49
-0.17579738795757294 -1.2599786520004272 4.129281044006348 22 22 22
-0.19021527469158173 0.02472023479640484 4.347762107849121 78 78 78
-0.18115447461605072 -0.5989754796028137 4.2656731605529785 31 31 31
-0.16827958822250366 -1.449347972869873 4.117034435272217 57 57 57
-0.18171247839927673 0.055800661444664 4.3589768409729 39 39 39
-0.15934789180755615 -0.3061233460903168 4.293862819671631 73 73 73
-0.17860841751098633 -2.0892622470855713 4.051517009735107 33 33 33
-0.16455575823783875 -1.4317082166671753 4.145120143890381 104 104 104
-0.1497805267572403 -1.7730571031570435 4.101476669311523 57 57 57
-0.1497805267572403 -1.7730571031570435 4.101476669311523 57 57 57
-0.1573784351348877 0.020612360909581184 4.361391067504883 78 78 78
-0.15076084434986115 -0.44391611218452454 4.299966335296631 21 21 21
-0.14173798263072968 -1.4325029850006104 4.149665832519531 61 61 61
-0.14710170030593872 0.053936198353767395 4.337953567504883 47 47 47
-0.14633570611476898 -0.1452438235282898 4.346858501434326 48 48 48
-0.14528855681419373 0.30047550797462463 4.41416597366333 42 42 42
-0.1434047967195511 -0.011671367101371288 4.3672590255737305 69 69 69
-0.1407453715801239 -0.42770734429359436 4.316242694854736 74 74 74
-0.14106038212776184 0.5814170837402344 4.437681674957275 41 41 41
-0.140561044216156 0.352325975894928 4.426601409912109 45 45 45
-0.13105404376983643 -1.7659980058670044 4.132073402404785 60 60 60
-0.1386103332042694 0.31557324528694153 4.415078163146973 44 44 44
-0.13703876733779907 0.1184953823685646 4.382995128631592 42 42 42
-0.13703876733779907 0.1184953823685646 4.382995128631592 42 42 42
-0.1366337090730667 0.08318345993757248 4.403987884521484 72 72 72
-0.11543609201908112 -0.07549438625574112 4.288493633270264 58 58 58
-0.1285845786333084 -1.0393224954605103 4.211606979370117 51 51 51
-0.13379250466823578 0.2730449438095093 4.415037631988525 44 44 44
-0.12363788485527039 -1.8481507301330566 4.112126350402832 60 60 60
-0.12472093105316162 -1.438448190689087 4.163306713104248 101 101 101
-0.12595652043819427 -0.015519597567617893 4.3817925453186035 92 92 92
-0.12050409615039825 -1.7109612226486206 4.11452579498291 45 45 45
-0.1259276568889618 -0.015515663661062717 4.3815999031066895 92 92 92
-0.11751962453126907 -0.07655336707830429 4.367731094360352 45 45 45
-0.11083384603261948 -2.041083812713623 4.071279048919678 15 15 15
-0.11083384603261948 -2.041083812713623 4.071279048919678 15 15 15
-0.12876321375370026 0.22987422347068787 4.450348377227783 54 54 54
-0.10888407379388809 -2.0025439262390137 4.089327812194824 51 51 51
-0.10976982116699219 -2.112541675567627 4.06832218170166 25 25 25
-0.11444451659917831 0.045222505927085876 4.385133266448975 53 53 53
-0.10491545498371124 -1.7539535760879517 4.124324321746826 66 66 66
-0.10146306455135345 -1.2781131267547607 4.17479944229126 57 57 57
-0.09984488785266876 -1.8100658655166626 4.124244689941406 38 38 38
-0.10516631603240967 0.06969394534826279 4.383965015411377 61 61 61
-0.0895766168832779 -1.6776785850524902 4.1496686935424805 50 50 50
-0.10429209470748901 0.24724826216697693 4.41769552230835 51 51 51
-0.08992420136928558 -1.9075371026992798 4.10791015625 52 52 52
-0.08583242446184158 0.06870315223932266 4.414434909820557 59 59 59
-0.08309486508369446 -1.8598278760910034 4.120739459991455 50 50 50
-0.07157258689403534 0.015833832323551178 4.326077461242676 62 62 62
-0.08680210262537003 -0.17861196398735046 4.364813327789307 45 45 45
-0.0868934914469719 0.5021482706069946 4.462049961090088 54 54 54
-0.08702138066291809 -1.4623817205429077 4.168489933013916 24 24 24
-0.08103429526090622 -1.6100155115127563 4.153923511505127 36 36 36
-0.09926078468561172 -1.2609882354736328 4.279151916503906 53 53 53
-0.06671861559152603 -0.0673322007060051 4.308295726776123 56 56 56
-0.06743019819259644 -0.06451673805713654 4.388640403747559 47 47 47
-0.06592274457216263 -1.3891382217407227 4.141933441162109 63 63 63
-0.07550576329231262 -0.6633880734443665 4.303483486175537 42 42 42
-0.08419203758239746 -1.7665897607803345 4.20759391784668 39 39 39
-0.06464140862226486 -0.10270623117685318 4.427212238311768 43 43 43
-0.06927923113107681 0.5224056839942932 4.485996723175049 44 44 44
-0.06109950318932533 -0.6833277344703674 4.307126998901367 37 37 37
-0.06084498390555382 -0.6836665272712708 4.3058881759643555 37 37 37
-0.049879346042871475 -0.8804590106010437 4.277288913726807 47 47 47
-0.04658166691660881 -0.8622288703918457 4.294296741485596 20 20 20
-0.0352918803691864 0.5391455292701721 4.5109357833862305 26 26 26
0.08454354852437973 0.6523991823196411 4.3002800941467285 62 62 62
0.1458999365568161 0.674988329410553 4.20607328414917 66 66 66
0.14213918149471283 2.0850536823272705 3.946507692337036 51 51 51
0.15003961324691772 1.0028190612792969 3.741633653640747 108 108 108
0.28618764877319336 1.2671713829040527 3.5938756465911865 66 66 66
0.3745947480201721 0.4649108350276947 4.1520490646362305 102 102 102
0.37831568717956543 0.6588810086250305 3.891583204269409 39 39 39
0.3646773099899292 1.0370897054672241 3.415222644805908 105 105 105
0.3646773099899292 1.0370897054672241 3.415222644805908 105 105 105
0.4088907539844513 0.7717982530593872 3.7028303146362305 37 37 37
0.42680633068084717 0.553404688835144 3.7413954734802246 113 113 113
0.5089704990386963 0.8023940324783325 3.569840431213379 118 118 118
0.5495957732200623 0.6408500671386719 3.5285537242889404 35 35 35
0.532607913017273 1.0967086553573608 3.1333351135253906 97 97 97
0.6229678392410278 0.7412411570549011 3.416105031967163 37 37 37
0.6337085962295532 0.713109016418457 3.3655734062194824 78 78 78
0.6897045969963074 -0.4417804479598999 3.1001296043395996 73 73 73
0.733319103717804 0.7598801255226135 3.2413394451141357 122 122 122
0.7435907125473022 0.3747698962688446 3.0954790115356445 69 69 69
0.7886958122253418 0.6521721482276917 3.168383836746216 73 73 73
0.8003438115119934 0.559904158115387 3.1621673107147217 69 69 69
0.8039116263389587 0.3304803669452667 3.1105263233184814 60 60 60
0.7984914183616638 0.18726414442062378 3.115914821624756 44 44 44
0.8057412505149841 0.41009587049484253 3.138242483139038 31 31 31
0.8283271789550781 0.31977611780166626 3.158968448638916 34 34 34
0.7779750227928162 -0.7461129426956177 2.9622437953948975 175 175 175
0.879508912563324 0.7738560438156128 3.2161595821380615 76 76 76
0.7505249977111816 1.0418013334274292 2.7053277492523193 69 69 69
0.904678225517273 0.7699847221374512 3.2496230602264404 95 95 95
0.8919386863708496 0.17827290296554565 3.1952579021453857 34 34 34
0.9261837601661682 0.7309421896934509 3.296259641647339 43 43 43
0.9404725432395935 0.6538299322128296 3.297461748123169 50 50 50
0.857883095741272 0.9125677943229675 3.0049774646759033 88 88 88
0.9510233402252197 0.6026618480682373 3.282074451446533 109 109 109
0.9661656618118286 0.7478704452514648 3.279606342315674 104 104 104
