ply
format ascii 1.0
element vertex 721
property float x
property float y
property float z
property uchar red
property uchar green
property uchar blue
end_header
-1.5809788703918457 -1.6933305263519287 8.032203674316406 71 71 71
-1.567664384841919 2.398651361465454 7.9989399909973145 87 87 87
-1.2309848070144653 3.2944209575653076 6.291813373565674 58 58 58
-1.5520704984664917 1.6991112232208252 7.951374053955078 131 131 131
-1.5417132377624512 1.8911677598953247 7.973391056060791 102 102 102
-1.4796724319458008 -3.592888116836548 7.671192169189453 78 78 78
-1.4862290620803833 -2.7321879863739014 7.707922458648682 104 104 104
-1.4953913688659668 -2.5508410930633545 7.76557731628418 114 114 114
-1.5412641763687134 2.7790141105651855 8.019036293029785 108 108 108
-1.5213311910629272 1.198377251625061 7.941204071044922 62 62 62
-1.5379692316055298 -2.188812494277954 7.968740940093994 82 82 82
-1.0830657482147217 3.3757119178771973 5.681894779205322 65 65 65
-1.5342780351638794 2.585582971572876 8.045491218566895 31 31 31
-1.5342780351638794 2.585582971572876 8.045491218566895 31 31 31
-1.5090140104293823 2.394077777862549 8.0150728225708 96 96 96
-1.4936084747314453 1.9304852485656738 7.966363906860352 117 117 117
-1.3878592252731323 3.0814998149871826 7.411050319671631 55 55 55
-1.4992226362228394 1.9814060926437378 8.012955665588379 36 36 36
-1.4760791063308716 1.8556737899780273 7.988142967224121 44 44 44
-1.4869059324264526 1.6421222686767578 7.979884147644043 117 117 117
-1.4756183624267578 0.8821426630020142 7.922006607055664 86 86 86
-1.4648890495300293 1.5149880647659302 7.880303382873535 6 6 6
-1.4813838005065918 -1.5256049633026123 8.066591262817383 75 75 75
-1.48203706741333 -1.277246117591858 8.095340728759766 80 80 80
-1.4723448753356934 2.5233078002929688 8.041543006896973 80 80 80
-1.4723448753356934 2.5233078002929688 8.041543006896973 80 80 80
-1.4082356691360474 -3.679598331451416 7.738694667816162 52 52 52
-1.4592350721359253 2.9593632221221924 8.076264381408691 40 40 40
-1.4400506019592285 1.5961021184921265 8.002996444702148 125 125 125
-1.407657265663147 -1.7656736373901367 7.821519374847412 82 82 82
-1.4920412302017212 2.846505880355835 8.303491592407227 63 63 63
-1.4472030401229858 -0.9555214047431946 8.104567527770996 91 91 91
-1.411565899848938 1.5186190605163574 7.926173686981201 14 14 14
-1.4800947904586792 2.398615837097168 8.197440147399902 87 87 87
-1.3588364124298096 -3.412565231323242 7.6787872314453125 54 54 54
-1.2132500410079956 3.189650535583496 6.935912609100342 40 40 40
-1.2132500410079956 3.189650535583496 6.935912609100342 40 40 40
-1.2132500410079956 3.189650535583496 6.935912609100342 40 40 40
-1.4098763465881348 1.8869659900665283 8.079669952392578 120 120 120
-1.4064862728118896 2.3194210529327393 8.066675186157227 99 99 99
-1.3411779403686523 -2.608133316040039 7.800140380859375 104 104 104
-1.3738632202148438 0.7950175404548645 8.051602363586426 72 72 72
-1.3487162590026855 1.0430362224578857 7.940810203552246 21 21 21
-1.3599971532821655 3.0132479667663574 8.034356117248535 65 65 65
-1.3518484830856323 1.854906439781189 8.03238296508789 125 125 125
-1.3518484830856323 1.854906439781189 8.03238296508789 125 125 125
-1.3183609247207642 -2.4377567768096924 7.930026531219482 45 45 45
-1.3784099817276 0.5979527831077576 8.177936553955078 110 110 110
-1.3480104207992554 2.155836820602417 8.070870399475098 122 122 122
-1.3436522483825684 1.2744807004928589 8.074989318847656 43 43 43
-1.133638858795166 3.186321973800659 6.842357635498047 123 123 123
-0.9540272951126099 3.3285748958587646 5.77686882019043 71 71 71
-1.3374693393707275 1.7276926040649414 8.165363311767578 116 116 116
-1.3290122747421265 2.8448355197906494 8.164835929870605 110 110 110
-1.3116487264633179 0.814673125743866 8.035459518432617 104 104 104
-1.3116487264633179 0.814673125743866 8.035459518432617 104 104 104
-1.3136721849441528 1.430781364440918 8.057656288146973 37 37 37
-1.3199379444122314 2.5242629051208496 8.10490894317627 72 72 72
-1.3116623163223267 3.0222537517547607 8.057173728942871 56 56 56
-1.306007742881775 3.018218755722046 8.029544830322266 60 60 60
-1.314756989479065 -0.7316142320632935 8.159664154052734 111 111 111
-1.2553691864013672 -2.5818734169006348 7.849742889404297 160 160 160
-1.2481515407562256 -2.531611919403076 7.84817361831665 131 131 131
-1.286623239517212 1.258042573928833 8.08919906616211 34 34 34
-1.2864629030227661 2.97816801071167 8.152816772460938 40 40 40
-1.2826696634292603 2.7170004844665527 8.136518478393555 74 74 74
-1.2735059261322021 2.2466893196105957 8.119162559509277 74 74 74
-1.2729851007461548 2.5297653675079346 8.129091262817383 103 103 103
-1.2207837104797363 1.6170692443847656 7.926241874694824 117 117 117
-1.2489594221115112 0.771228551864624 8.056771278381348 65 65 65
-1.2449684143066406 1.7081254720687866 8.080018043518066 118 118 118
-1.2786465883255005 0.6546022295951843 8.302990913391113 65 65 65
-1.262826919555664 2.826643228530884 8.210862159729004 44 44 44
-1.2663832902908325 -0.19516430795192719 8.321209907531738 239 239 239
-1.2266558408737183 1.5278147459030151 8.097289085388184 22 22 22
-1.1851917505264282 -2.666001558303833 7.848453521728516 92 92 92
-1.227724313735962 -3.6799588203430176 8.06209945678711 46 46 46
-0.9973585605621338 3.2492904663085938 6.736316680908203 55 55 55
-1.201134204864502 2.634658098220825 8.146363258361816 62 62 62
-1.1706327199935913 -2.4484176635742188 7.96229362487793 81 81 81
-1.2061282396316528 1.691455602645874 8.20964241027832 141 141 141
-1.2152636051177979 0.5452818274497986 8.33686637878418 93 93 93
-1.125331997871399 -3.4713144302368164 7.740019798278809 65 65 65
-0.9992954730987549 3.2044246196746826 6.89334774017334 59 59 59
-1.17668879032135 1.8863462209701538 8.164717674255371 129 129 129
-1.1357277631759644 1.159717321395874 8.11574649810791 38 38 38
-1.206989049911499 3.1845932006835938 8.452815055847168 80 80 80
-1.1497787237167358 1.7583653926849365 8.191084861755371 22 22 22
-1.1350680589675903 2.730151891708374 8.237861633300781 78 78 78
-1.137250542640686 -3.4220805168151855 8.114090919494629 22 22 22
-1.1630055904388428 1.5551302433013916 8.346068382263184 22 22 22
-1.148582935333252 -1.9198572635650635 8.443645477294922 213 213 213
-1.123435378074646 3.019571304321289 8.27327823638916 107 107 107
-0.9525269865989685 3.1858344078063965 7.092813968658447 59 59 59
-1.0838273763656616 1.4628666639328003 8.121941566467285 152 152 152
-1.1199969053268433 2.2650070190429688 8.4652738571167 38 38 38
-1.0767204761505127 1.8155560493469238 8.218814849853516 85 85 85
-1.0833429098129272 1.109865665435791 8.204164505004883 80 80 80
-1.0763862133026123 0.6233987808227539 8.39694595336914 62 62 62
-0.8245454430580139 3.287477731704712 6.443090438842773 153 153 153
-0.8245454430580139 3.287477731704712 6.443090438842773 153 153 153
-1.0402723550796509 0.9887335896492004 8.199671745300293 66 66 66
-1.01712965965271 2.0414865016937256 8.228289604187012 79 79 79
-1.0939130783081055 0.0002819762157741934 8.669979095458984 255 255 255
-1.0450161695480347 3.0073354244232178 8.299522399902344 96 96 96
-1.0114717483520508 3.069683790206909 8.034592628479004 101 101 101
-1.024675726890564 2.4146511554718018 8.234780311584473 12 12 12
-1.024675726890564 2.4146511554718018 8.234780311584473 12 12 12
-0.8532435297966003 3.2261877059936523 6.820884704589844 61 61 61
-1.0260682106018066 2.8728678226470947 8.231054306030273 38 38 38
-1.0211399793624878 1.8332768678665161 8.206364631652832 48 48 48
-1.0211399793624878 1.8332768678665161 8.206364631652832 48 48 48
-1.0178190469741821 2.1141512393951416 8.234939575195312 41 41 41
-0.9795472621917725 -2.987250804901123 7.946146488189697 72 72 72
-1.0112876892089844 1.602241039276123 8.219571113586426 122 122 122
-0.8553997278213501 3.219362735748291 6.890674591064453 52 52 52
-1.0179356336593628 0.6268473267555237 8.359363555908203 68 68 68
-1.0306470394134521 -1.8489618301391602 8.479109764099121 220 220 220
-1.0114550590515137 1.46900475025177 8.338454246520996 87 87 87
-0.9944745898246765 1.854062557220459 8.200974464416504 51 51 51
-0.9716742634773254 2.0407469272613525 8.285503387451172 104 104 104
-0.9810711741447449 2.6302037239074707 8.305835723876953 43 43 43
-0.9262312650680542 2.375697612762451 8.145560264587402 9 9 9
-0.9739488363265991 0.26161766052246094 8.448909759521484 255 255 255
-0.9479482173919678 1.2694982290267944 8.249375343322754 45 45 45
-0.929925799369812 1.1180495023727417 8.179186820983887 43 43 43
-0.9336880445480347 1.0823266506195068 8.259462356567383 64 64 64
-0.9336880445480347 1.0823266506195068 8.259462356567383 64 64 64
-0.9173997044563293 1.3701027631759644 8.170014381408691 37 37 37
-0.9299715757369995 1.6266149282455444 8.28919792175293 121 121 121
-0.8668036460876465 -2.4742181301116943 8.01927375793457 60 60 60
-0.9022350907325745 -1.4530854225158691 8.438344955444336 255 255 255
-0.8690505027770996 2.955019235610962 8.139997482299805 61 61 61
-0.8250687122344971 3.0262527465820312 7.979762554168701 96 96 96
-0.8253255486488342 -2.719085454940796 7.9864397048950195 109 109 109
-0.6249532103538513 3.3176321983337402 6.066879749298096 160 160 160
-0.8290225863456726 -3.0245249271392822 8.030076026916504 85 85 85
-0.8160257339477539 -2.4662513732910156 7.994442939758301 97 97 97
-0.8732578158378601 -1.9288686513900757 8.591733932495117 241 241 241
-0.8271256685256958 1.3895325660705566 8.231705665588379 37 37 37
-0.832399308681488 2.2520055770874023 8.295825958251953 53 53 53
-0.8312581777572632 2.0398123264312744 8.325529098510742 55 55 55
-0.8167176246643066 1.4656141996383667 8.342264175415039 45 45 45
-0.8240119218826294 1.6091854572296143 8.451800346374512 82 82 82
-0.8240119218826294 1.6091854572296143 8.451800346374512 82 82 82
-0.5633658170700073 3.3490359783172607 6.138944149017334 85 85 85
-0.7281925678253174 3.139678955078125 7.831789970397949 67 67 67
-0.761623203754425 3.00600004196167 8.248007774353027 54 54 54
-0.6214630603790283 3.407231092453003 6.538411617279053 76 76 76
-0.5633849501609802 3.349048137664795 6.138986110687256 85 85 85
-0.760063648223877 1.076818585395813 8.305728912353516 44 44 44
-0.7480008602142334 1.5802175998687744 8.379274368286133 100 100 100
-0.7401466369628906 1.6108505725860596 8.352594375610352 100 100 100
-0.6573131084442139 3.133917808532715 7.438885688781738 64 64 64
-0.7266526222229004 1.6158146858215332 8.356670379638672 100 100 100
-0.5326467156410217 3.0889739990234375 6.370932579040527 100 100 100
-0.5326467156410217 3.0889739990234375 6.370932579040527 100 100 100
-0.6971684098243713 1.4766589403152466 8.428648948669434 46 46 46
-0.5177090764045715 3.323056697845459 6.307973861694336 66 66 66
-0.6924618482589722 1.7804434299468994 8.436202049255371 56 56 56
-0.743628203868866 -1.7795621156692505 8.752097129821777 249 249 249
-0.6513056755065918 1.0936284065246582 8.32794189453125 65 65 65
-0.621471107006073 0.9392584562301636 8.40321159362793 41 41 41
-0.5044234395027161 3.181569814682007 7.195059299468994 75 75 75
-0.6052711606025696 1.2824963331222534 8.420387268066406 20 20 20
-0.6310269832611084 2.25996470451355 8.54180908203125 70 70 70
-0.4203112721443176 3.5086915493011475 5.756966590881348 92 92 92
-0.5924574136734009 1.800376534461975 8.450404167175293 64 64 64
-0.5917988419532776 1.623497486114502 8.442805290222168 100 100 100
-0.574606716632843 0.6871731281280518 8.337562561035156 128 128 128
-0.45743390917778015 3.2523210048675537 6.947678565979004 76 76 76
-0.5488046407699585 -2.5110647678375244 8.182713508605957 91 91 91
-0.5557292103767395 1.6539686918258667 8.48316764831543 72 72 72
-0.54140704870224 1.6593480110168457 8.51877498626709 83 83 83
-0.5004141330718994 1.930990219116211 8.477296829223633 13 13 13
-0.5437955856323242 0.9189240336418152 8.48361587524414 86 86 86
-0.5437955856323242 0.9189240336418152 8.48361587524414 86 86 86
-0.5123226642608643 1.0033550262451172 8.447738647460938 29 29 29
-0.5100752711296082 1.4895098209381104 8.49137020111084 24 24 24
-0.5016772150993347 2.1864140033721924 8.3948392868042 118 118 118
-0.5120135545730591 0.36240166425704956 8.360088348388672 84 84 84
-0.3831244707107544 3.2727112770080566 6.614348411560059 54 54 54
-0.3831244707107544 3.2727112770080566 6.614348411560059 54 54 54
-0.4728510081768036 2.4540417194366455 8.093761444091797 141 141 141
-0.468504399061203 3.055034637451172 8.114567756652832 76 76 76
-0.48247629404067993 1.0505061149597168 8.459564208984375 125 125 125
-0.4439779222011566 0.8517676591873169 8.4981689453125 65 65 65
-0.43075844645500183 2.280254602432251 8.45938777923584 120 120 120
-0.42859527468681335 1.329822063446045 8.524582862854004 40 40 40
-0.40922895073890686 0.7682190537452698 8.188812255859375 99 99 99
-0.3826409876346588 2.6687748432159424 8.055213928222656 53 53 53
-0.3512696325778961 2.3650755882263184 7.821722030639648 60 60 60
-0.3801400363445282 0.966124951839447 8.56814956665039 94 94 94
-0.36058133840560913 -2.9313340187072754 8.183043479919434 59 59 59
-0.2631200850009918 3.367605209350586 6.20306396484375 123 123 123
-0.277569979429245 3.312171697616577 6.359800338745117 61 61 61
-0.277569979429245 3.312171697616577 6.359800338745117 61 61 61
-0.36731860041618347 1.7846344709396362 8.576868057250977 54 54 54
-0.3577418625354767 1.879119634628296 8.562684059143066 48 48 48
-0.35181307792663574 1.5437980890274048 8.450597763061523 90 90 90
-0.2225930243730545 3.3631908893585205 6.182690620422363 162 162 162
-0.3168446719646454 1.7042433023452759 8.608000755310059 112 112 112
-0.29278138279914856 0.7519845366477966 8.563226699829102 120 120 120
-0.29278138279914856 0.7519845366477966 8.563226699829102 120 120 120
-0.26545271277427673 2.5272936820983887 8.04299545288086 75 75 75
-0.2603076100349426 1.789011836051941 8.63110065460205 57 57 57
-0.2781640291213989 0.768601655960083 8.580594062805176 109 109 109
-0.2491002231836319 0.5949012041091919 8.735062599182129 49 49 49
-0.23241962492465973 -2.4894628524780273 8.277135848999023 76 76 76
-0.2419910728931427 2.432481288909912 8.402265548706055 101 101 101
-0.20890489220619202 0.511922299861908 8.80477523803711 30 30 30
-0.15706567466259003 3.2904152870178223 6.8095269203186035 94 94 94
-0.15031692385673523 3.334394693374634 6.634835243225098 91 91 91
-0.19948966801166534 1.7624973058700562 8.658199310302734 84 84 84
-0.19530321657657623 1.515177607536316 8.541933059692383 48 48 48
-0.12938903272151947 3.3339452743530273 6.440764904022217 59 59 59
-0.19773317873477936 -2.4895975589752197 8.336626052856445 104 104 104
-0.14291565120220184 2.427478313446045 8.459189414978027 187 187 187
-0.15161018073558807 0.901401162147522 8.669137954711914 69 69 69
-0.09137225896120071 3.325267791748047 6.052666664123535 82 82 82
-0.14997641742229462 0.5967282652854919 8.819083213806152 48 48 48
-0.14515627920627594 1.200116515159607 8.624159812927246 40 40 40
-0.10629139840602875 3.373267412185669 6.649961948394775 100 100 100
-0.13077214360237122 1.426808476448059 8.620851516723633 40 40 40
-0.10259263962507248 -1.9212347269058228 8.5560302734375 42 42 42
-0.09995631128549576 2.2715225219726562 8.515114784240723 84 84 84
-0.09830604493618011 1.8015567064285278 8.671112060546875 54 54 54
-0.09990881383419037 1.408046007156372 8.681168556213379 43 43 43
-0.0968477800488472 1.993531584739685 8.727656364440918 36 36 36
-0.06870993226766586 3.4285643100738525 6.654254913330078 87 87 87
-0.08469180017709732 1.7275720834732056 8.718497276306152 99 99 99
-0.08336631208658218 0.7813256978988647 8.615525245666504 111 111 111
-0.07889710366725922 2.2054429054260254 8.577524185180664 131 131 131
-0.06782744824886322 1.0915772914886475 8.69566535949707 49 49 49
-0.06167106702923775 1.254883885383606 8.679431915283203 20 20 20
-0.06167106702923775 1.254883885383606 8.679431915283203 20 20 20
-0.05576634779572487 2.6572508811950684 8.03852367401123 15 15 15
-0.052098147571086884 2.6393561363220215 8.000216484069824 15 15 15
-0.05434531345963478 1.9026923179626465 8.729182243347168 89 89 89
-0.03371579200029373 1.6457786560058594 8.67358112335205 46 46 46
-0.04574570432305336 3.148624897003174 8.078479766845703 84 84 84
-0.030360274016857147 -1.5094194412231445 8.708130836486816 68 68 68
-0.027655042707920074 -0.5563369393348694 8.690091133117676 67 67 67
-0.03781106695532799 1.8040595054626465 8.816452980041504 74 74 74
-0.021387482061982155 1.5514616966247559 8.819656372070312 42 42 42
-0.015412365086376667 -0.7040126323699951 8.749412536621094 11 11 11
-0.01985415257513523 -2.0082225799560547 8.687653541564941 36 36 36
-0.007201011758297682 0.8262794017791748 8.66321086883545 67 67 67
-0.007201011758297682 0.8262794017791748 8.66321086883545 67 67 67
-0.03667589649558067 -1.581346035003662 8.763307571411133 82 82 82
-0.03667589649558067 -1.581346035003662 8.763307571411133 82 82 82
-0.0020018862560391426 -2.2112913131713867 8.59412670135498 2 2 2
-0.0020012075547128916 -2.2115697860717773 8.595260620117188 2 2 2
-0.015283379703760147 -0.7069389820098877 8.801457405090332 21 21 21
0.005852680653333664 0.8925180435180664 8.623764038085938 112 112 112
0.009014129638671875 -3.298841953277588 8.14774227142334 42 42 42
0.009014129638671875 -3.298841953277588 8.14774227142334 42 42 42
0.010398251935839653 1.345569133758545 8.748566627502441 42 42 42
0.014727991074323654 -1.2720688581466675 8.661965370178223 60 60 60
0.009467109106481075 1.1828715801239014 8.301931381225586 4 4 4
0.009467109106481075 1.1828715801239014 8.301931381225586 4 4 4
0.016567878425121307 3.302090883255005 6.521714210510254 51 51 51
0.018790006637573242 3.3192532062530518 6.526727199554443 117 117 117
0.025347553193569183 -0.9982990026473999 8.654539108276367 105 105 105
0.015348732471466064 3.0923099517822266 7.796753883361816 147 147 147
0.02035517618060112 3.3376076221466064 6.275297164916992 120 120 120
0.032321296632289886 1.569496750831604 8.733224868774414 58 58 58
0.04134182631969452 0.4742896556854248 8.800921440124512 58 58 58
0.04127318039536476 0.5561700463294983 8.752481460571289 101 101 101
0.04127318039536476 0.5561700463294983 8.752481460571289 101 101 101
0.04806799814105034 -2.612849235534668 8.44575023651123 57 57 57
0.058586228638887405 -0.6806931495666504 8.60628890991211 20 20 20
0.058586228638887405 -0.6806931495666504 8.60628890991211 20 20 20
0.06631463021039963 0.2632323205471039 8.772915840148926 64 64 64
0.06953325122594833 -0.12564979493618011 8.633618354797363 76 76 76
0.07003393024206161 0.7140103578567505 8.639410972595215 74 74 74
0.05889154598116875 3.3620681762695312 6.2349066734313965 57 57 57
0.08526433259248734 -2.3341593742370605 8.21943187713623 60 60 60
0.0932760089635849 -1.1791213750839233 8.57799243927002 86 86 86
0.1185407042503357 -1.9691925048828125 8.381925582885742 97 97 97
0.10061737895011902 2.2368366718292236 8.135055541992188 180 180 180
0.11441162973642349 -1.9335135221481323 8.4569673538208 122 122 122
0.0882895365357399 -1.694827675819397 8.44874095916748 115 115 115
0.12044017016887665 0.6565704345703125 8.639533042907715 138 138 138
0.1204989030957222 0.5377243161201477 8.579957962036133 73 73 73
0.12174475938081741 -1.5975916385650635 8.45569133758545 134 134 134
0.12562023103237152 1.6435705423355103 8.634795188903809 64 64 64
0.12782950699329376 0.24460497498512268 8.567435264587402 72 72 72
0.1376408040523529 -1.7897469997406006 8.442254066467285 9 9 9
0.10818490386009216 3.348569393157959 6.681201457977295 121 121 121
0.13632746040821075 2.9988327026367188 8.544387817382812 14 14 14
0.14032302796840668 -1.0785362720489502 8.4735746383667 82 82 82
0.1401979774236679 -1.7206681966781616 8.402307510375977 160 160 160
0.14275074005126953 -0.7909467816352844 8.46837043762207 83 83 83
0.1242387667298317 3.2749035358428955 6.611108779907227 100 100 100
0.1449141800403595 3.2816593647003174 6.370542526245117 131 131 131
0.18040545284748077 -1.4330517053604126 8.358325958251953 101 101 101
0.18616972863674164 -0.6346378922462463 8.409260749816895 144 144 144
0.18915095925331116 -1.5209665298461914 8.413297653198242 96 96 96
0.1936081498861313 -0.5535193681716919 8.417684555053711 109 109 109
0.1583508849143982 3.358985185623169 6.468414783477783 118 118 118
0.1541040986776352 3.369584560394287 6.1747612953186035 56 56 56
0.21323375403881073 -3.0509610176086426 8.199875831604004 54 54 54
0.208662211894989 3.0420055389404297 8.021153450012207 118 118 118
0.22917461395263672 3.020657777786255 8.47448444366455 81 81 81
0.23325836658477783 -3.6639368534088135 8.380735397338867 37 37 37
0.23669017851352692 1.6124533414840698 8.490954399108887 48 48 48
0.17664994299411774 3.37304425239563 6.206048965454102 81 81 81
0.24912820756435394 0.9695536494255066 8.471293449401855 56 56 56
0.25058311223983765 -0.20498840510845184 8.321407318115234 116 116 116
0.2607145309448242 0.6968258619308472 8.390888214111328 73 73 73
0.27550843358039856 -1.6111700534820557 8.101871490478516 104 104 104
0.2642240822315216 -1.0313442945480347 8.242327690124512 89 89 89
0.2702273726463318 -0.5057802200317383 8.297304153442383 122 122 122
0.2769342362880707 -2.133434295654297 8.20477294921875 110 110 110
0.19976334273815155 3.516761064529419 5.832726001739502 79 79 79
0.27917537093162537 -2.9804346561431885 8.059615135192871 71 71 71
0.29394078254699707 -0.7122598886489868 8.291166305541992 117 117 117
0.2923371195793152 0.8468247056007385 8.26504135131836 100 100 100
0.27798792719841003 -1.6264327764511108 8.176384925842285 104 104 104
0.2943642735481262 -2.2676961421966553 8.143048286437988 98 98 98
0.30423277616500854 -2.0172905921936035 8.175769805908203 55 55 55
0.315855473279953 -0.44220587611198425 8.21257495880127 28 28 28
0.3126063346862793 -1.1784380674362183 8.146651268005371 157 157 157
0.3226991891860962 1.423280954360962 8.332344055175781 63 63 63
0.32496118545532227 -2.684727668762207 8.070505142211914 74 74 74
0.3281465768814087 -2.5686049461364746 8.015033721923828 80 80 80
0.23997484147548676 3.442460536956787 5.784688472747803 72 72 72
0.3346027135848999 -1.7048277854919434 8.074421882629395 113 113 113
0.2888396382331848 3.188267469406128 6.864180564880371 88 88 88
0.33715707063674927 -2.0333492755889893 8.015212059020996 115 115 115
0.25324201583862305 3.4445621967315674 5.749932289123535 66 66 66
0.3708716332912445 -0.7998754382133484 8.286630630493164 144 144 144
0.3697933852672577 0.801443338394165 8.254993438720703 94 94 94
0.37368470430374146 1.6203763484954834 8.272154808044434 56 56 56
0.3545863926410675 -3.6033427715301514 8.034002304077148 34 34 34
0.3785606324672699 -1.4786072969436646 8.114702224731445 103 103 103
0.32643720507621765 3.181666612625122 7.279689788818359 97 97 97
0.39667966961860657 3.03189754486084 8.172870635986328 56 56 56
0.3988046646118164 -0.8579555749893188 7.909316062927246 83 83 83
0.3983522951602936 -3.137251377105713 7.927484035491943 84 84 84
0.3705483376979828 3.220567226409912 7.221091270446777 128 128 128
0.3705483376979828 3.220567226409912 7.221091270446777 128 128 128
0.3266870677471161 3.346001625061035 6.400703430175781 97 97 97
0.4098033905029297 -3.596468925476074 7.941103458404541 30 30 30
0.4052955210208893 -3.252847909927368 7.840916633605957 76 76 76
0.32342100143432617 3.4574193954467773 6.133895397186279 81 81 81
0.44144174456596375 2.4771926403045654 8.213362693786621 37 37 37
0.32383912801742554 3.423776865005493 5.950986385345459 134 134 134
0.4360215961933136 -0.796256422996521 8.008692741394043 105 105 105
0.45801597833633423 -0.211281880736351 8.092229843139648 14 14 14
0.4596285820007324 0.21984444558620453 8.048425674438477 112 112 112
0.4596285820007324 0.21984444558620453 8.048425674438477 112 112 112
0.4451967775821686 -0.9106356501579285 7.986974716186523 128 128 128
0.4639730751514435 1.2046557664871216 7.930697917938232 72 72 72
0.46336179971694946 2.5341691970825195 8.160744667053223 46 46 46
0.448303759098053 -3.187762498855591 7.7654924392700195 79 79 79
0.46629685163497925 -1.0909819602966309 7.89973258972168 94 94 94
0.45962613821029663 -1.7721868753433228 7.912405490875244 38 38 38
0.4224936068058014 3.233299970626831 7.1324663162231445 142 142 142
0.46455028653144836 3.1315808296203613 7.692513942718506 87 87 87
0.49092817306518555 -0.9526944756507874 7.894979000091553 110 110 110
0.4708635210990906 0.666330873966217 8.02563762664795 25 25 25
0.5440270900726318 0.18343278765678406 7.877235412597656 180 180 180
0.5231620669364929 -0.8027514815330505 7.830806255340576 101 101 101
0.5187665224075317 -1.9085594415664673 7.747392654418945 100 100 100
0.5187665224075317 -1.9085594415664673 7.747392654418945 100 100 100
0.40102851390838623 3.431887626647949 5.907138824462891 63 63 63
0.5104286074638367 -3.213385820388794 7.674890995025635 59 59 59
0.5213402509689331 -3.258528232574463 7.632582187652588 53 53 53
0.52488112449646 -3.1367554664611816 7.657492160797119 61 61 61
0.5481862425804138 1.2524230480194092 7.9539690017700195 78 78 78
0.5176572799682617 -0.3334954082965851 7.850658893585205 112 112 112
0.5582534670829773 0.7913672924041748 7.898502349853516 75 75 75
0.5867586135864258 0.724746823310852 8.176262855529785 37 37 37
0.5684139728546143 -1.555006504058838 7.839702129364014 52 52 52
0.6048859357833862 1.144642949104309 7.87042236328125 41 41 41
0.5728824138641357 0.07568641752004623 7.816560745239258 152 152 152
0.5816625356674194 1.3694329261779785 7.944510459899902 32 32 32
0.45420753955841064 3.4141592979431152 6.418222427368164 37 37 37
0.6003487706184387 0.16381877660751343 7.80922794342041 104 104 104
0.5798263549804688 -1.9881091117858887 7.646173000335693 33 33 33
0.5798263549804688 -1.9881091117858887 7.646173000335693 33 33 33
0.5748129487037659 -3.46884822845459 7.363891124725342 33 33 33
0.610789954662323 0.4667670726776123 7.740484237670898 34 34 34
0.5886673331260681 -0.09903404116630554 7.712255954742432 125 125 125
0.5887445211410522 -2.357863664627075 7.653571605682373 115 115 115
0.5916997194290161 -1.3162736892700195 7.731626033782959 55 55 55
0.5960822105407715 -1.5308387279510498 7.6705217361450195 53 53 53
0.6127281785011292 0.8323324918746948 7.784414291381836 158 158 158
0.6059285998344421 -1.778794288635254 7.722091197967529 31 31 31
0.6220250129699707 -1.6751145124435425 7.812574863433838 114 114 114
0.6220250129699707 -1.6751145124435425 7.812574863433838 114 114 114
0.633416473865509 2.5335793495178223 7.910307884216309 2 2 2
0.633416473865509 2.5335793495178223 7.910307884216309 2 2 2
0.6350013017654419 -0.012508602812886238 7.704411029815674 125 125 125
0.6614174842834473 1.2557498216629028 7.942393779754639 105 105 105
0.6390479803085327 0.31111469864845276 7.729608058929443 76 76 76
0.6510550379753113 -0.04138072207570076 7.676949977874756 104 104 104
0.6725820302963257 1.0785754919052124 7.778120994567871 65 65 65
0.6151506304740906 3.2481577396392822 7.077000617980957 61 61 61
0.5107892155647278 3.455989122390747 5.846195220947266 74 74 74
0.6755779385566711 1.7218881845474243 7.747352600097656 59 59 59
0.6663289070129395 -1.9794238805770874 7.500368595123291 29 29 29
0.598604679107666 3.3261585235595703 6.704402923583984 77 77 77
0.6836565732955933 -0.08690186589956284 7.660258769989014 88 88 88
0.675430178642273 -2.488264560699463 7.558679103851318 20 20 20
0.7069536447525024 2.504379987716675 7.763982772827148 66 66 66
0.665545642375946 -2.9697721004486084 7.4579548835754395 85 85 85
0.7085091471672058 0.05182485282421112 7.6321306228637695 81 81 81
0.705346405506134 0.132377490401268 7.602985858917236 84 84 84
0.7295345067977905 1.1798655986785889 7.744456768035889 60 60 60
0.7263433337211609 1.2113202810287476 7.640915870666504 108 108 108
0.7285650372505188 1.8762534856796265 7.739679336547852 4 4 4
0.7285650372505188 1.8762534856796265 7.739679336547852 4 4 4
0.7312009334564209 0.8891820907592773 7.624659061431885 79 79 79
0.7353330254554749 0.9449824690818787 7.617768287658691 6 6 6
0.5979301929473877 3.361142158508301 6.112459182739258 109 109 109
0.7527819871902466 1.7820435762405396 7.64730167388916 74 74 74
0.7077314853668213 -2.5818681716918945 7.390087127685547 119 119 119
0.5882317423820496 3.47173810005188 5.839115142822266 70 70 70
0.7616691589355469 1.8336195945739746 7.619720935821533 72 72 72
0.7652309536933899 1.2305878400802612 7.387201309204102 64 64 64
0.765381395816803 1.8734636306762695 7.651155471801758 45 45 45
0.7419463992118835 -2.0969433784484863 7.36829948425293 131 131 131
0.7921260595321655 1.175427794456482 7.501006126403809 40 40 40
0.7568050026893616 -2.3260796070098877 7.315138339996338 114 114 114
0.7834514379501343 1.6444226503372192 7.568734169006348 24 24 24
0.7778492569923401 0.16906775534152985 7.500364303588867 96 96 96
0.7942602634429932 0.2964361310005188 7.520942687988281 18 18 18
0.7983888983726501 -0.3870325982570648 7.480757713317871 146 146 146
0.7940064668655396 -1.2944010496139526 7.339804649353027 83 83 83
0.7874922156333923 1.4071969985961914 7.568222999572754 137 137 137
0.6992444396018982 3.365600824356079 6.36026668548584 54 54 54
0.813737154006958 1.9712849855422974 7.576115608215332 63 63 63
0.7866280674934387 -3.1143267154693604 7.200203895568848 91 91 91
0.7980899214744568 -2.4404866695404053 7.232468128204346 46 46 46
0.7980899214744568 -2.4404866695404053 7.232468128204346 46 46 46
0.8358158469200134 2.582685708999634 7.565192699432373 12 12 12
0.8358158469200134 2.582685708999634 7.565192699432373 12 12 12
0.7923165559768677 -3.2687575817108154 7.141977787017822 80 80 80
0.8266122937202454 -0.09367608278989792 7.435970306396484 106 106 106
0.8167102336883545 -3.5549793243408203 7.140843391418457 34 34 34
0.698826014995575 3.362752914428711 6.238692760467529 56 56 56
0.8569152355194092 1.7657724618911743 7.465183258056641 75 75 75
0.8666694760322571 1.0560128688812256 7.459758281707764 70 70 70
0.8333711624145508 -3.5796327590942383 7.081148147583008 57 57 57
0.9044467806816101 2.2694671154022217 7.388370513916016 68 68 68
0.9181192517280579 2.883666515350342 7.453703880310059 42 42 42
0.9119362235069275 2.211829423904419 7.425368309020996 51 51 51
0.8935795426368713 1.9738821983337402 7.194488048553467 67 67 67
0.8745326399803162 -1.396406650543213 7.165299892425537 149 149 149
0.9069558382034302 1.9268141984939575 7.503165245056152 24 24 24
0.8685290813446045 -2.328613758087158 7.098028659820557 143 143 143
0.8790193200111389 3.168174982070923 7.159423351287842 98 98 98
0.8778002262115479 -1.8307667970657349 7.017935752868652 149 149 149
0.880207359790802 -1.6197829246520996 7.115274429321289 122 122 122
0.913357675075531 2.7849981784820557 7.321086883544922 37 37 37
0.737210750579834 3.458047866821289 5.84224271774292 133 133 133
0.737210750579834 3.458047866821289 5.84224271774292 133 133 133
0.8362710475921631 3.3538172245025635 6.4790472984313965 64 64 64
0.9474884271621704 3.209096670150757 7.309169292449951 101 101 101
0.9580225348472595 1.756609559059143 7.3711442947387695 37 37 37
0.9354369044303894 -0.5932749509811401 7.269150257110596 60 60 60
0.9227422475814819 -0.8767697215080261 7.098592281341553 51 51 51
0.9535714387893677 -0.09909293055534363 7.216414928436279 45 45 45
0.9428440928459167 -2.004495143890381 7.046530246734619 43 43 43
0.9640284776687622 -0.49802517890930176 7.197689056396484 56 56 56
0.9572103023529053 -1.0280145406723022 7.076491355895996 73 73 73
0.9503791928291321 -2.219254732131958 7.039955139160156 34 34 34
0.9503791928291321 -2.219254732131958 7.039955139160156 34 34 34
0.9603391885757446 -1.3866709470748901 7.075951099395752 83 83 83
0.9446919560432434 -3.5142269134521484 6.905868053436279 66 66 66
0.9690497517585754 -2.102651357650757 7.072019577026367 125 125 125
0.9850834608078003 -3.5891189575195312 6.937613487243652 46 46 46
0.9850834608078003 -3.5891189575195312 6.937613487243652 46 46 46
1.0150871276855469 -0.2673693895339966 7.077997207641602 77 77 77
1.0322178602218628 0.4163113534450531 7.312469005584717 42 42 42
0.9595910906791687 -3.1840038299560547 6.858016490936279 92 92 92
0.9892774820327759 -2.412947416305542 6.794121265411377 142 142 142
1.0303993225097656 -0.871283769607544 7.160930156707764 67 67 67
1.0448343753814697 -1.3339347839355469 7.16288948059082 87 87 87
1.010025978088379 3.3140408992767334 6.887984275817871 192 192 192
1.0698760747909546 3.194160223007202 7.302866458892822 63 63 63
1.0652838945388794 3.2325103282928467 7.263792514801025 62 62 62
1.042612075805664 -1.7816336154937744 7.107934474945068 93 93 93
1.047959327697754 -1.9759836196899414 7.106237888336182 18 18 18
0.9287837147712708 3.4245965480804443 6.223927021026611 74 74 74
1.0137642621994019 -3.201658010482788 6.799559593200684 92 92 92
1.0522767305374146 -2.294327735900879 7.042292594909668 88 88 88
1.059449315071106 -2.02042555809021 7.08705472946167 92 92 92
1.11673903465271 1.420395016670227 7.466650009155273 35 35 35
1.1197471618652344 1.7841428518295288 7.479896068572998 42 42 42
1.112403154373169 0.6131139993667603 7.363606929779053 59 59 59
1.1550512313842773 2.9823265075683594 7.545455455780029 31 31 31
0.9816721081733704 3.322713613510132 6.291474342346191 50 50 50
1.1489218473434448 1.2138818502426147 7.4529242515563965 39 39 39
0.9214917421340942 3.3677024841308594 5.996473789215088 100 100 100
1.1265028715133667 -0.2638455033302307 7.308224678039551 86 86 86
1.1207149028778076 -1.0393046140670776 7.053472995758057 13 13 13
1.1207149028778076 -1.0393046140670776 7.053472995758057 13 13 13
1.1579904556274414 -0.6051025390625 7.258893013000488 89 89 89
1.2172770500183105 2.3327150344848633 7.39737606048584 86 86 86
1.0722458362579346 -3.2544496059417725 6.669299125671387 118 118 118
1.1669387817382812 3.169620990753174 7.237253665924072 58 58 58
1.1378546953201294 -2.4107890129089355 7.045982360839844 19 19 19
1.151955485343933 -1.5172228813171387 7.163204193115234 75 75 75
0.9650704860687256 3.4059150218963623 5.687497615814209 38 38 38
1.0553271770477295 3.4177277088165283 6.461592674255371 104 104 104
0.9651795625686646 3.40704345703125 5.689154148101807 38 38 38
1.1987669467926025 -2.10970401763916 7.073856353759766 155 155 155
1.3109601736068726 3.148359775543213 7.5243730545043945 34 34 34
1.1408625841140747 -3.578153371810913 6.535874366760254 70 70 70
1.2561362981796265 3.2684526443481445 7.109071731567383 67 67 67
1.0929213762283325 3.480463981628418 6.09490442276001 122 122 122
1.0929213762283325 3.480463981628418 6.09490442276001 122 122 122
1.0792802572250366 3.463261365890503 5.959975719451904 62 62 62
1.178639531135559 -3.4841253757476807 6.484455108642578 94 94 94
1.2734878063201904 3.3861474990844727 6.978394985198975 95 95 95
1.341982364654541 3.2404696941375732 7.255993843078613 55 55 55
1.205328106880188 -2.8351516723632812 6.497730255126953 135 135 135
1.2084602117538452 -2.6912388801574707 6.4772162437438965 138 138 138
1.2084602117538452 -2.6912388801574707 6.4772162437438965 138 138 138
1.2102770805358887 -3.4039225578308105 6.515662670135498 101 101 101
1.3114206790924072 -2.229768991470337 7.050750732421875 35 35 35
1.1098963022232056 3.4698612689971924 5.9241838455200195 71 71 71
1.4320176839828491 3.2215089797973633 7.603531360626221 77 77 77
1.0953965187072754 3.4752230644226074 5.787045001983643 117 117 117
1.0953965187072754 3.4752230644226074 5.787045001983643 117 117 117
1.3405647277832031 -2.1533055305480957 7.069365501403809 174 174 174
1.2432674169540405 3.391611337661743 6.4468607902526855 83 83 83
1.139694333076477 3.4821622371673584 5.859949588775635 125 125 125
1.2469923496246338 -3.2088868618011475 6.405557155609131 83 83 83
1.248236894607544 -3.5406997203826904 6.296011447906494 29 29 29
1.4636554718017578 3.1921513080596924 7.452937126159668 58 58 58
1.2824065685272217 3.4062917232513428 6.479888916015625 100 100 100
1.5203406810760498 3.230011224746704 7.703958511352539 90 90 90
1.4004353284835815 -2.1539881229400635 7.044478416442871 38 38 38
1.1859142780303955 3.4839537143707275 5.8641462326049805 153 153 153
1.4366223812103271 -2.388129234313965 7.163203716278076 46 46 46
1.4596898555755615 3.269570827484131 7.226203441619873 57 57 57
1.2931586503982544 -3.3431270122528076 6.319028377532959 105 105 105
1.2752267122268677 -3.5332396030426025 6.212893009185791 79 79 79
1.5639740228652954 3.1972262859344482 7.675963401794434 58 58 58
1.374561071395874 -2.4321224689483643 6.6537346839904785 56 56 56
1.39742910861969 -2.2299060821533203 6.6671905517578125 47 47 47
1.3248053789138794 -2.630523443222046 6.315337657928467 142 142 142
1.3201934099197388 3.5260961055755615 6.249124526977539 54 54 54
1.2623918056488037 3.476670503616333 5.876619338989258 69 69 69
1.3487554788589478 3.424288511276245 6.140602111816406 81 81 81
1.3487554788589478 3.424288511276245 6.140602111816406 81 81 81
1.5609341859817505 -1.927988052368164 7.170117378234863 98 98 98
1.7492870092391968 3.177826166152954 7.672290325164795 78 78 78
1.6042166948318481 3.281689405441284 7.001889705657959 66 66 66
1.755171298980713 3.227924346923828 7.6452789306640625 61 61 61
1.4196834564208984 -3.2831904888153076 6.0728020668029785 17 17 17
1.710793375968933 3.233985662460327 7.296456813812256 42 42 42
1.4159733057022095 -3.419222354888916 6.053592681884766 118 118 118
1.4584208726882935 -3.160149335861206 6.044209003448486 94 94 94
1.507513403892517 3.469902753829956 6.1587138175964355 66 66 66
1.4854415655136108 -2.4636807441711426 6.0607781410217285 59 59 59
1.8321155309677124 3.220214605331421 7.448580741882324 58 58 58
1.8469114303588867 3.4218435287475586 7.624863624572754 102 102 102
1.7692171335220337 3.288649797439575 7.098293304443359 75 75 75
1.6524150371551514 -2.450845956802368 6.3918561935424805 62 62 62
1.8625593185424805 3.3031461238861084 7.135497570037842 55 55 55
1.7148104906082153 3.386195182800293 6.47750997543335 171 171 171
1.5658799409866333 -3.3458309173583984 5.847431182861328 117 117 117
1.5950658321380615 3.4547221660614014 5.916776657104492 83 83 83
1.5719404220581055 -3.5349314212799072 5.804166793823242 27 27 27
1.833804965019226 3.4590489864349365 6.733582019805908 107 107 107
1.5976299047470093 -3.3036787509918213 5.7975029945373535 57 57 57
2.039269208908081 3.253282308578491 7.353928089141846 59 59 59
1.6089733839035034 -3.3677706718444824 5.701348304748535 83 83 83
1.7909175157546997 -2.430464267730713 6.259096145629883 46 46 46
1.8965128660202026 3.3972065448760986 6.498838901519775 161 161 161
1.8346312046051025 3.4384682178497314 6.250916957855225 65 65 65
1.876116156578064 3.388655424118042 6.351975917816162 53 53 53
1.8361167907714844 3.4604995250701904 6.125692844390869 58 58 58
1.708202600479126 -2.920844554901123 5.618193626403809 45 45 45
1.703289270401001 -3.3427693843841553 5.562244892120361 127 127 127
1.6997026205062866 -3.3326618671417236 5.539508819580078 126 126 126
1.9183226823806763 -2.4685468673706055 6.010280609130859 60 60 60
1.8442009687423706 -2.4875576496124268 5.630359172821045 139 139 139
1.826314091682434 -2.357125759124756 5.561145782470703 47 47 47
1.8341212272644043 -2.903334140777588 5.434818744659424 55 55 55
2.2824058532714844 3.4831461906433105 6.623732089996338 61 61 61
2.398618221282959 3.3599298000335693 6.927846908569336 23 23 23
2.193575620651245 -2.2302639484405518 6.213125705718994 32 32 32
2.3239622116088867 3.4264400005340576 6.495038032531738 50 50 50
2.270697832107544 3.592968463897705 6.394023895263672 85 85 85
2.270697832107544 3.592968463897705 6.394023895263672 85 85 85
2.4022600650787354 3.402021884918213 6.692320346832275 63 63 63
2.3413214683532715 3.454132080078125 6.4192609786987305 60 60 60
2.215440273284912 3.493328094482422 6.062506675720215 64 64 64
2.2922146320343018 3.491438150405884 6.147520065307617 69 69 69
2.3423526287078857 -0.839016318321228 6.20465087890625 121 121 121
2.009979009628296 -2.3345999717712402 5.343382358551025 57 57 57
2.458432197570801 3.544349193572998 6.543105125427246 74 74 74
2.458432197570801 3.544349193572998 6.543105125427246 74 74 74
1.9588799476623535 -2.909468173980713 5.010555744171143 114 114 114
2.1278061866760254 -1.2400877475738525 5.190592288970947 162 162 162
2.093449115753174 -2.3522024154663086 5.026867389678955 37 37 37
2.238393545150757 2.3253333568573 5.174521446228027 88 88 88
2.2989463806152344 2.4571890830993652 5.223421096801758 41 41 41
2.396611213684082 2.310802936553955 5.1593708992004395 70 70 70
2.446784257888794 2.7624285221099854 5.1337666511535645 46 46 46
2.4007999897003174 2.4915196895599365 4.931320667266846 62 62 62
2.4189951419830322 2.573495388031006 4.9595746994018555 50 50 50
0.17037232220172882 0.1830797642469406 8.559622764587402 44 44 44
0.17935332655906677 -1.5719703435897827 8.397932052612305 48 48 48
1.218518853187561 -2.45892333984375 6.529391288757324 3 3 3
2.447255849838257 -1.0834029912948608 6.098701477050781 118 118 118
0.598840594291687 -0.8560529947280884 7.678473472595215 17 17 17
0.7940060496330261 -1.294398307800293 7.339789390563965 83 83 83
-3.09942626953125 0.08237293362617493 8.628613471984863 157 157 157
0.831455647945404 3.423771858215332 6.018090724945068 55 55 55
-1.4105795621871948 1.7580021619796753 8.047760009765625 158 158 158
0.8228238224983215 -1.8124247789382935 7.5601372718811035 53 53 53
-1.2991893291473389 0.41096651554107666 8.283259391784668 162 162 162
0.8228233456611633 -1.812439203262329 7.560211181640625 53 53 53
-1.1450364589691162 1.7491625547409058 8.154515266418457 20 20 20
-2.580007314682007 -0.5332040190696716 8.679583549499512 224 224 224
-2.816817045211792 -0.9806178212165833 7.539112567901611 46 46 46
-1.4110318422317505 1.7585216760635376 8.050259590148926 158 158 158
0.1793624758720398 -1.5719739198684692 8.397936820983887 48 48 48
0.8379730582237244 3.2221574783325195 7.124480247497559 125 125 125
-1.7038108110427856 1.5416706800460815 7.880472183227539 74 74 74
-2.790407657623291 0.27565857768058777 8.754253387451172 245 245 245
1.4854474067687988 -2.463688611984253 6.060823440551758 59 59 59
-1.6887747049331665 1.7665027379989624 7.907320022583008 55 55 55
-1.3473806381225586 1.5540870428085327 8.14276123046875 20 20 20
-1.9500056505203247 1.7687214612960815 7.773128032684326 67 67 67
-2.488544464111328 -1.0026094913482666 7.842289447784424 154 154 154
0.9067516922950745 3.41801118850708 6.385986328125 97 97 97
-2.9760048389434814 -0.23095102608203888 8.640497207641602 226 226 226
-2.9640839099884033 -0.23785723745822906 8.645088195800781 250 250 250
-2.488471031188965 -1.0029844045639038 7.842129707336426 154 154 154
-2.7652437686920166 -0.9330294132232666 8.561821937561035 156 156 156
-2.732038974761963 0.22316287457942963 8.655965805053711 100 100 100
2.42033314704895 -0.9944801330566406 6.2747802734375 73 73 73
0.29742076992988586 3.4330451488494873 6.006983757019043 156 156 156
2.420311689376831 -0.9944671988487244 6.274695873260498 73 73 73
0.1099812462925911 3.374467134475708 6.08064079284668 190 190 190
-0.37552934885025024 0.3823387026786804 8.974442481994629 86 86 86
-2.70967698097229 -0.9057156443595886 8.7810697555542 234 234 234
-2.9111318588256836 -0.27366650104522705 8.664074897766113 208 208 208
-1.2736921310424805 -2.121586799621582 8.056032180786133 62 62 62
-2.839015245437622 -0.2963988780975342 8.723130226135254 148 148 148
-2.377656936645508 0.3753504753112793 8.855717658996582 62 62 62
-2.5318210124969482 -0.8899487257003784 8.83031940460205 248 248 248
-2.3078277111053467 -0.8797652125358582 8.767840385437012 128 128 128
1.215160608291626 3.4433541297912598 6.480048656463623 19 19 19
1.4854387044906616 -2.4636833667755127 6.060775279998779 59 59 59
-2.0865354537963867 -0.6140019297599792 8.77440071105957 126 126 126
0.3248823583126068 3.3170461654663086 6.573126792907715 181 181 181
-2.347034215927124 -0.20266538858413696 8.755745887756348 15 15 15
1.0084474086761475 3.3074607849121094 6.867633819580078 185 185 185
-1.1415972709655762 2.424160957336426 8.221983909606934 148 148 148
0.4630584418773651 0.4397217333316803 7.993666648864746 18 18 18
1.218518614768982 -2.458932638168335 6.529421329498291 3 3 3
1.0644745826721191 3.422639846801758 6.110451698303223 105 105 105
0.7353278398513794 0.9449758529663086 7.617708206176758 6 6 6
1.2185076475143433 -2.4589357376098633 6.529433727264404 3 3 3
-1.3925199508666992 -3.0948750972747803 7.740530967712402 66 66 66
1.348891258239746 3.423912763595581 6.140074253082275 81 81 81
1.0344053506851196 3.3837103843688965 6.3034796714782715 110 110 110
0.7964442372322083 -1.7558262348175049 7.319022178649902 105 105 105
1.7081305980682373 -2.9206414222717285 5.617725372314453 45 45 45
0.7941717505455017 0.2960369288921356 7.520828723907471 18 18 18
0.7947969436645508 0.2960204780101776 7.527347087860107 18 18 18
-1.8852403163909912 0.48037755489349365 8.215339660644531 24 24 24
2.009451150894165 3.398176670074463 6.362110137939453 152 152 152
1.4633320569992065 3.329925775527954 6.973641395568848 157 157 157
-1.4109916687011719 1.7584924697875977 8.05014705657959 158 158 158
-2.787897825241089 0.5536791682243347 7.569728374481201 68 68 68
0.17942729592323303 -1.5718683004379272 8.397177696228027 48 48 48
1.2095677852630615 -2.2844367027282715 7.052499294281006 111 111 111
0.7964545488357544 -1.7558157444000244 7.31895637512207 105 105 105
-1.6952403783798218 1.9829058647155762 7.923208236694336 100 100 100
-0.020181572064757347 3.321964979171753 6.27002477645874 151 151 151
0.5033597946166992 3.4174482822418213 6.337133884429932 136 136 136
0.7986735105514526 3.3517980575561523 6.584423065185547 178 178 178
-1.95321524143219 0.5006980895996094 8.236308097839355 179 179 179
1.1343282461166382 3.3108720779418945 6.605428695678711 177 177 177
1.3431410789489746 3.3192479610443115 6.171964645385742 148 148 148
-0.4266711175441742 1.71533203125 8.552309036254883 1 1 1
0.9573268294334412 -1.0290364027023315 7.085148334503174 73 73 73
-1.3390169143676758 1.595751166343689 8.126559257507324 14 14 14
0.7307268381118774 0.716142475605011 7.583418846130371 158 158 158
-1.1415826082229614 2.4241464138031006 8.221915245056152 148 148 148
0.7323883771896362 1.4026750326156616 7.651098251342773 14 14 14
0.9211016297340393 -1.7670644521713257 7.155313014984131 43 43 43
-2.918949604034424 0.6224355697631836 7.470308780670166 20 20 20
0.9378840327262878 -2.0057713985443115 7.02266263961792 7 7 7
-0.7922194600105286 3.357393741607666 6.093635082244873 105 105 105
0.14901624619960785 3.2340662479400635 7.037045478820801 175 175 175
1.6437788009643555 3.4702188968658447 6.08549690246582 160 160 160
-2.548227310180664 1.3581873178482056 7.486420154571533 96 96 96
0.3113747835159302 -1.1096177101135254 8.241002082824707 63 63 63
0.9271210432052612 -1.5136476755142212 7.132951259613037 74 74 74
-1.8408496379852295 -1.2288867235183716 7.332706451416016 124 124 124
-1.9463107585906982 0.49683481454849243 8.216449737548828 155 155 155
0.5360525846481323 3.4365577697753906 6.307353973388672 93 93 93
0.581692636013031 1.369328260421753 7.943941116333008 32 32 32
-1.9434669017791748 1.7639117240905762 7.748101711273193 41 41 41
1.801261067390442 -2.9934120178222656 5.317565441131592 121 121 121
-1.4601364135742188 1.7330371141433716 7.904052257537842 6 6 6
1.149737000465393 -1.9819272756576538 7.123319625854492 110 110 110
0.062280941754579544 1.377341628074646 8.70905590057373 19 19 19
-1.3925098180770874 -3.094866991043091 7.740497589111328 66 66 66
-2.3766331672668457 1.7762603759765625 7.507896423339844 3 3 3
0.6553441882133484 3.3202202320098877 6.645405292510986 190 190 190
-0.08490684628486633 3.3865315914154053 6.101624965667725 55 55 55
-1.2736788988113403 -2.1215627193450928 8.055940628051758 62 62 62
1.6419411897659302 3.350881814956665 6.583373069763184 179 179 179
0.9220079779624939 -1.7686687707901 7.161795139312744 43 43 43
1.1519908905029297 -1.5172570943832397 7.163416862487793 75 75 75
1.7056591510772705 -3.033813953399658 5.583727836608887 19 19 19
0.03768317401409149 3.3073928356170654 6.718160152435303 165 165 165
-0.26215046644210815 3.3303353786468506 6.453273296356201 83 83 83
