ply
format ascii 1.0
element vertex 711
property float x
property float y
property float z
property uchar red
property uchar green
property uchar blue
end_header
-1.599258542060852 0.4381255507469177 10.594669342041016 96 96 96
0.4858926236629486 4.4462080001831055 7.006293773651123 153 153 153
-3.0646934509277344 -1.4741735458374023 11.779815673828125 252 252 252
-1.3877787590026855 4.264854431152344 7.983709812164307 38 38 38
-1.494330883026123 4.2081193923950195 8.490032196044922 102 102 102
0.4110182225704193 -1.051849126815796 7.9217352867126465 34 34 34
-3.5196621417999268 -1.0295606851577759 11.678367614746094 124 124 124
-2.8721675872802734 -0.4563277065753937 11.482243537902832 140 140 140
-2.2257814407348633 2.8184235095977783 10.245542526245117 4 4 4
-3.347832441329956 -1.5008524656295776 10.419990539550781 227 227 227
-2.1045594215393066 2.71510648727417 9.865891456604004 90 90 90
-2.845000982284546 -1.533816933631897 10.585490226745605 14 14 14
-3.611461639404297 -1.4791823625564575 10.388123512268066 248 248 248
-1.3140947818756104 4.398657321929932 7.33293342590332 115 115 115
0.4576949179172516 4.420624732971191 7.043965816497803 106 106 106
-2.6026558876037598 -1.402515172958374 9.68397045135498 20 20 20
-3.941643476486206 -1.4481433629989624 9.901446342468262 93 93 93
-3.742999315261841 -0.5554968118667603 11.82972240447998 213 213 213
-4.505193710327148 -2.932703971862793 9.829440116882324 81 81 81
0.379819393157959 4.42173433303833 7.0527496337890625 150 150 150
-2.307004690170288 1.6531648635864258 10.082439422607422 146 146 146
-4.5052032470703125 -2.932708740234375 9.829456329345703 81 81 81
0.44520649313926697 -2.662415027618408 7.810407638549805 1 1 1
0.7154001593589783 4.3050537109375 6.921433448791504 163 163 163
0.5773897171020508 4.306894779205322 7.540673732757568 167 167 167
0.27546223998069763 4.393495082855225 7.059882640838623 200 200 200
-2.618535041809082 0.5153254866600037 10.656477928161621 178 178 178
-4.1335368156433105 -0.7960221171379089 11.318954467773438 97 97 97
0.6072304248809814 4.389246463775635 7.033420085906982 81 81 81
-0.13565121591091156 4.298434734344482 7.84266471862793 179 179 179
0.44682031869888306 4.349013328552246 7.202447414398193 111 111 111
-0.6582331657409668 4.139105796813965 8.730671882629395 117 117 117
-0.3060430884361267 4.223419189453125 7.679765224456787 102 102 102
-4.133599281311035 -0.794171154499054 11.319064140319824 97 97 97
-3.7522990703582764 0.28690049052238464 11.66183853149414 16 16 16
-4.50489616394043 -2.9325037002563477 9.828792572021484 81 81 81
-4.151473045349121 -0.6672641634941101 11.334505081176758 48 48 48
-2.8690123558044434 0.3172566890716553 11.941658020019531 167 167 167
-1.7059849500656128 1.9856303930282593 10.170459747314453 101 101 101
-1.3615286350250244 2.2130448818206787 10.331817626953125 42 42 42
-1.3087280988693237 4.401257514953613 7.329699516296387 51 51 51
-3.287180185317993 -2.10329270362854 11.294268608093262 151 151 151
-0.6310336589813232 3.95400333404541 9.653280258178711 2 2 2
-4.133332252502441 -1.5154978036880493 10.382866859436035 175 175 175
-3.0767953395843506 -0.1254870593547821 11.802339553833008 240 240 240
-2.2874014377593994 0.4756064713001251 9.354275703430176 118 118 118
-3.7838244438171387 2.2261500358581543 9.99882984161377 11 11 11
-0.40544411540031433 4.247950077056885 7.978195667266846 42 42 42
0.4094007909297943 1.046993374824524 8.095174789428711 160 160 160
-0.07431208342313766 4.325429916381836 7.595864772796631 169 169 169
-3.7861013412475586 -3.158829927444458 9.828739166259766 19 19 19
-2.6185247898101807 0.5153176188468933 10.656447410583496 178 178 178
-1.3614939451217651 2.2129859924316406 10.331539154052734 42 42 42
-1.3625062704086304 4.330695629119873 7.3223347663879395 157 157 157
-2.887296438217163 0.10871989279985428 11.435317039489746 160 160 160
-0.9897828102111816 4.349159240722656 7.448996067047119 176 176 176
-4.121953964233398 -0.5912569165229797 11.557706832885742 63 63 63
-3.1755552291870117 0.1721806526184082 11.794347763061523 193 193 193
-2.1524758338928223 2.516590118408203 10.166365623474121 198 198 198
-3.5655088424682617 -2.217116117477417 10.064081192016602 145 145 145
0.626926839351654 4.347229480743408 7.568943023681641 175 175 175
-2.344379186630249 2.258707284927368 10.37069034576416 2 2 2
-1.5384801626205444 4.381683349609375 7.350550174713135 161 161 161
-2.1645848751068115 2.2168805599212646 10.198332786560059 64 64 64
-1.197117567062378 4.4507222175598145 7.585722923278809 93 93 93
-2.7746667861938477 0.5400835871696472 10.88523006439209 183 183 183
-2.1441783905029297 1.9128087759017944 10.067835807800293 24 24 24
0.5880840420722961 4.234251499176025 7.526914119720459 106 106 106
-2.3224833011627197 4.128052711486816 8.654046058654785 133 133 133
-1.5006797313690186 4.274723052978516 7.4683403968811035 167 167 167
0.19928421080112457 4.3214569091796875 7.582069396972656 159 159 159
-0.13408011198043823 4.316331386566162 7.7205634117126465 175 175 175
-0.5587218999862671 3.019761800765991 9.458395004272461 123 123 123
-0.6940896511077881 2.1649081707000732 10.236284255981445 3 3 3
-2.1674716472625732 -4.262820243835449 9.69120979309082 126 126 126
-2.167478561401367 -4.26283073425293 9.691229820251465 126 126 126
0.17236100137233734 4.25140905380249 7.614458084106445 171 171 171
0.06668555736541748 4.127496242523193 8.82118034362793 25 25 25
-1.0545716285705566 4.28310489654541 7.722221851348877 117 117 117
-1.2317651510238647 4.372934341430664 7.2639336585998535 165 165 165
-1.7184721231460571 4.154843807220459 8.058513641357422 142 142 142
0.4075971245765686 1.627388596534729 8.090778350830078 160 160 160
-1.607890248298645 1.8464291095733643 9.913846969604492 109 109 109
-1.2278186082839966 4.393563747406006 7.307904243469238 167 167 167
0.12436111271381378 4.168418884277344 8.155960083007812 132 132 132
-1.7870047092437744 1.9115923643112183 10.219454765319824 6 6 6
-0.7577046751976013 1.8346779346466064 10.046042442321777 61 61 61
-2.0931499004364014 1.834710955619812 10.117303848266602 124 124 124
-0.12049813568592072 4.356525897979736 7.314979076385498 165 165 165
-2.963776111602783 -2.216046094894409 10.159310340881348 132 132 132
-2.578044891357422 -4.32853364944458 9.565382957458496 150 150 150
-0.5965344905853271 3.974768877029419 9.088177680969238 139 139 139
0.2796930968761444 4.2042436599731445 8.148590087890625 144 144 144
-0.24405451118946075 4.278241157531738 7.263453483581543 95 95 95
-0.06625065952539444 1.5928481817245483 10.379430770874023 15 15 15
-2.8085269927978516 2.7576303482055664 10.183247566223145 39 39 39
-1.902899146080017 1.9763001203536987 10.191670417785645 211 211 211
-0.14356042444705963 2.202918529510498 10.424969673156738 7 7 7
-0.7633717656135559 1.2610894441604614 10.244836807250977 11 11 11
-3.712873697280884 0.42444851994514465 10.871532440185547 175 175 175
0.21615992486476898 4.443158149719238 7.089498996734619 105 105 105
0.36190810799598694 4.3733954429626465 7.563749313354492 135 135 135
-2.4324440956115723 2.212902784347534 10.137514114379883 113 113 113
0.768933892250061 4.461267948150635 7.564054012298584 157 157 157
-1.1037845611572266 4.4430742263793945 7.441837310791016 146 146 146
-2.0306479930877686 1.9897068738937378 10.152956008911133 5 5 5
0.4192376434803009 -1.725813627243042 7.847506999969482 120 120 120
-1.6160939931869507 3.111495018005371 10.311691284179688 1 1 1
-0.09514939785003662 4.283377170562744 7.612648010253906 183 183 183
0.4564673602581024 -1.3428127765655518 7.914089679718018 150 150 150
-2.0306479930877686 1.9897068738937378 10.152956008911133 5 5 5
-0.46752339601516724 4.279695987701416 8.1008939743042 104 104 104
-3.2111666202545166 3.0819528102874756 10.046646118164062 1 1 1
0.27576661109924316 4.398306369781494 7.067547798156738 200 200 200
-1.9080915451049805 4.201237201690674 8.258261680603027 173 173 173
-1.892748236656189 0.45014235377311707 10.77388858795166 114 114 114
0.45111873745918274 4.344700336456299 7.015589237213135 170 170 170
-1.8929942846298218 0.45014116168022156 10.774789810180664 114 114 114
-3.0708770751953125 -1.4740033149719238 11.60113525390625 32 32 32
-3.070878267288208 -1.4740049839019775 11.601139068603516 32 32 32
-2.0066957473754883 1.965561866760254 10.128084182739258 192 192 192
0.24599580466747284 4.302696228027344 7.573500156402588 129 129 129
-4.524913311004639 -3.001858949661255 9.823526382446289 153 153 153
-2.929741621017456 -1.4130395650863647 11.391721725463867 252 252 252
-2.8857767581939697 -1.4019091129302979 11.452014923095703 230 230 230
-3.5394575595855713 -1.4136229753494263 11.383030891418457 223 223 223
-0.45012837648391724 4.066685199737549 8.095270156860352 110 110 110
-1.7869712114334106 1.9722994565963745 10.230132102966309 63 63 63
0.5037359595298767 4.470897197723389 7.593317985534668 189 189 189
-2.1646950244903564 2.2169806957244873 10.198802947998047 64 64 64
-2.5931501388549805 1.921072006225586 10.123611450195312 95 95 95
-3.397885799407959 1.9236546754837036 9.987273216247559 112 112 112
-3.837844133377075 1.8758625984191895 9.7850341796875 125 125 125
-3.752267837524414 2.791461229324341 9.909947395324707 117 117 117
-2.146360158920288 -1.2455668449401855 6.662343978881836 145 145 145
0.7082263231277466 4.223296642303467 7.500088214874268 90 90 90
0.0990222617983818 4.296036720275879 7.7941179275512695 39 39 39
-4.192517280578613 -0.9102553129196167 11.432254791259766 191 191 191
-0.6310400366783142 3.9540212154388428 9.653318405151367 2 2 2
-1.6078989505767822 1.846433401107788 9.913880348205566 109 109 109
-3.6400954723358154 -1.2861353158950806 11.4088716506958 133 133 133
0.5515124201774597 4.417257785797119 6.964780330657959 87 87 87
-4.504907131195068 -2.932509422302246 9.828812599182129 81 81 81
-2.5633788108825684 2.214813470840454 10.139050483703613 25 25 25
0.38788124918937683 2.2167892456054688 8.142984390258789 143 143 143
-1.0487844944000244 4.419206142425537 7.0921831130981445 166 166 166
-3.751969337463379 0.286906898021698 11.660837173461914 16 16 16
0.2189961075782776 4.22564172744751 7.686307907104492 101 101 101
-0.13564178347587585 4.298433780670166 7.842676162719727 179 179 179
0.7350876927375793 -0.14259256422519684 8.061999320983887 102 102 102
-0.44923949241638184 4.126569747924805 8.621368408203125 34 34 34
-1.4318993091583252 4.319341659545898 7.124221324920654 104 104 104
0.26801466941833496 4.367030143737793 7.210575580596924 180 180 180
-1.0720642805099487 4.415981292724609 7.267390251159668 61 61 61
-1.8966032266616821 -3.0662853717803955 10.475728988647461 137 137 137
0.09895525127649307 4.294318675994873 7.7913336753845215 39 39 39
0.7130627036094666 4.324492454528809 7.547435283660889 149 149 149
0.4397081732749939 4.267915725708008 7.420576572418213 161 161 161
-0.223362535238266 4.25406551361084 7.859629154205322 137 137 137
-3.343846082687378 -1.8735841512680054 10.051867485046387 137 137 137
0.4093729853630066 1.0468201637268066 8.094049453735352 160 160 160
0.2598271667957306 4.358648300170898 7.4290008544921875 159 159 159
-2.5734376907348633 -4.324545860290527 9.5534029006958 150 150 150
-0.9748808145523071 4.085256576538086 8.713517189025879 182 182 182
-4.316239356994629 -1.160017490386963 11.544585227966309 108 108 108
-3.979907751083374 -1.458343505859375 9.977007865905762 66 66 66
-2.9321746826171875 2.1948349475860596 10.021263122558594 49 49 49
-1.3140959739685059 4.398676872253418 7.332962512969971 115 115 115
-2.167450189590454 -4.262779235839844 9.69111156463623 126 126 126
-1.314096212387085 4.3986639976501465 7.332949638366699 115 115 115
0.14160650968551636 4.288849830627441 7.688928604125977 165 165 165
0.7554231882095337 -0.7697221040725708 8.006576538085938 212 212 212
0.48436230421066284 4.279791355133057 7.438416481018066 28 28 28
0.7554560303688049 -0.7697156071662903 8.006904602050781 212 212 212
-0.9922019243240356 4.161954879760742 8.537276268005371 94 94 94
-3.1753768920898438 0.17215842008590698 11.79365348815918 193 193 193
0.46836423873901367 4.298348426818848 7.820254802703857 103 103 103
-0.11373119056224823 4.178210258483887 8.027605056762695 81 81 81
-0.44146400690078735 4.102061748504639 8.992945671081543 156 156 156
-2.8574187755584717 -0.4639189541339874 11.423184394836426 163 163 163
-1.274943232536316 4.180673122406006 8.374015808105469 178 178 178
-2.045081853866577 2.086541175842285 10.667486190795898 76 76 76
-3.076765775680542 -0.12548726797103882 11.802247047424316 240 240 240
-0.27938851714134216 4.220081806182861 7.980238437652588 180 180 180
-3.1324617862701416 -0.41376280784606934 11.62559700012207 211 211 211
-3.085707187652588 2.2731146812438965 10.406272888183594 78 78 78
-2.216069459915161 -0.3672029674053192 10.18037223815918 160 160 160
0.0557936429977417 4.293093204498291 7.744184970855713 173 173 173
-1.237585425376892 4.231368064880371 8.063334465026855 181 181 181
-1.321601152420044 4.275469779968262 7.090534687042236 87 87 87
-1.7040555477142334 0.42624756693840027 10.307662963867188 65 65 65
-1.1096880435943604 4.428503513336182 7.609755992889404 136 136 136
-1.7041409015655518 0.4262651801109314 10.308144569396973 65 65 65
-2.922171115875244 -0.7604629397392273 11.88896369934082 215 215 215
-2.225677490234375 2.818336009979248 10.245214462280273 4 4 4
0.30210939049720764 4.436546325683594 7.0664873123168945 165 165 165
-2.757753849029541 -1.4757721424102783 10.607091903686523 186 186 186
-1.191882610321045 4.328683376312256 6.861273288726807 164 164 164
-0.6722443699836731 4.344636917114258 7.440513610839844 166 166 166
-2.338493824005127 4.289409637451172 7.4833855628967285 31 31 31
-4.020174503326416 -1.3830474615097046 9.872883796691895 160 160 160
-0.14355938136577606 2.20291805267334 10.424960136413574 7 7 7
-1.3664863109588623 4.329360008239746 6.834548473358154 135 135 135
-3.3144307136535645 -1.478062391281128 10.449459075927734 172 172 172
-3.562502145767212 -1.5154541730880737 10.513781547546387 123 123 123
-3.5783748626708984 -1.520503282546997 10.54978084564209 123 123 123
0.4075975716114044 1.6273859739303589 8.090771675109863 160 160 160
-3.1712734699249268 -1.51318359375 10.49055290222168 100 100 100
-2.584068536758423 2.5096328258514404 10.189126968383789 58 58 58
-0.8191373944282532 2.479137420654297 10.315597534179688 12 12 12
0.42411041259765625 0.7580288052558899 8.09429931640625 171 171 171
0.5773499011993408 4.313379764556885 7.545724868774414 165 165 165
-2.5636682510375977 2.215036153793335 10.13988208770752 20 20 20
-2.1316800117492676 4.4411301612854 7.786484241485596 107 107 107
0.4174376428127289 4.462409019470215 6.989156723022461 107 107 107
0.4818871319293976 4.29684591293335 7.472452640533447 54 54 54
-0.8694496154785156 4.473008632659912 7.577293872833252 123 123 123
-1.1765488386154175 4.299065113067627 7.476643085479736 89 89 89
-2.221188545227051 0.5625517964363098 10.352581977844238 145 145 145
-3.791463613510132 -3.241137742996216 9.829363822937012 86 86 86
-2.2222206592559814 2.2001030445098877 10.18437385559082 17 17 17
-2.1646065711975098 2.216902017593384 10.198390007019043 64 64 64
-1.6136071681976318 2.7639148235321045 10.146291732788086 14 14 14
-2.2258028984069824 2.8184421062469482 10.245609283447266 4 4 4
-2.225778818130493 2.8184075355529785 10.245511054992676 4 4 4
-3.7860782146453857 -3.158813953399658 9.8286771774292 19 19 19
-0.6941223740577698 2.16500186920166 10.236753463745117 3 3 3
-0.35772696137428284 2.979743003845215 9.69529914855957 14 14 14
0.38445407152175903 4.299241542816162 7.339715480804443 97 97 97
-3.9231295585632324 1.8976895809173584 9.95071792602539 111 111 111
-1.758845567703247 2.2266881465911865 10.248806953430176 19 19 19
-3.089683771133423 -0.7301210165023804 11.940343856811523 27 27 27
-3.0899813175201416 -0.730155885219574 11.94120979309082 27 27 27
0.7320520877838135 4.4500885009765625 7.169652938842773 106 106 106
-4.1229071617126465 -1.5108405351638794 10.356586456298828 175 175 175
-1.2624070644378662 4.286196708679199 8.016119956970215 158 158 158
-1.8908087015151978 -2.9765210151672363 10.490772247314453 156 156 156
-3.5626542568206787 -1.5155045986175537 10.514129638671875 123 123 123
0.04847656562924385 4.293089866638184 7.745138168334961 142 142 142
-1.5938470363616943 1.826270580291748 9.826215744018555 76 76 76
-1.8908390998840332 -2.9765570163726807 10.490899085998535 156 156 156
-3.132413864135742 -0.4137627184391022 11.625418663024902 211 211 211
-1.7220673561096191 1.8948004245758057 10.174396514892578 31 31 31
-0.6941244602203369 2.1650073528289795 10.236791610717773 3 3 3
-0.8835176825523376 1.2799568176269531 10.532879829406738 31 31 31
-0.8504819273948669 1.8473432064056396 10.332469940185547 159 159 159
-2.864086151123047 2.160285234451294 9.850513458251953 12 12 12
0.42411085963249207 0.7580262422561646 8.094292640686035 171 171 171
-2.8349525928497314 -1.3636624813079834 10.710102081298828 121 121 121
-3.752214193344116 2.791425943374634 9.909806251525879 117 117 117
0.7350796461105347 -0.14258238673210144 8.062108993530273 102 102 102
0.4240914285182953 0.7580460906028748 8.094447135925293 171 171 171
-2.8573033809661865 -0.4639414846897125 11.422846794128418 163 163 163
-2.2269742488861084 2.8194825649261475 10.249277114868164 4 4 4
-0.5113934278488159 4.226365089416504 9.192392349243164 73 73 73
-1.7510608434677124 2.4625329971313477 10.183943748474121 221 221 221
-4.045645713806152 -1.3816301822662354 9.922052383422852 251 251 251
0.38788482546806335 2.2169041633605957 8.14340877532959 143 143 143
-1.7588223218917847 2.2266292572021484 10.248697280883789 19 19 19
-2.2257323265075684 2.8183841705322266 10.245384216308594 4 4 4
-2.5827200412750244 -4.380715847015381 9.56756591796875 133 133 133
-2.6187539100646973 -4.36652946472168 9.641653060913086 151 151 151
-2.582792043685913 -4.339315891265869 9.587898254394531 158 158 158
-2.337437391281128 4.095170974731445 8.640033721923828 154 154 154
-1.048794150352478 4.41921329498291 7.0922136306762695 166 166 166
-3.7956056594848633 0.27232909202575684 11.529534339904785 106 106 106
0.323777437210083 4.332738399505615 7.475818634033203 156 156 156
0.6074420809745789 4.391075611114502 7.034547805786133 81 81 81
0.2743425965309143 4.350986957550049 7.55989408493042 116 116 116
-3.5816690921783447 -1.186030626296997 11.212611198425293 202 202 202
0.1190599873661995 4.294374465942383 7.813420295715332 153 153 153
-1.3884732723236084 4.466369152069092 7.116944789886475 111 111 111
-2.221364736557007 0.562584638595581 10.353266716003418 145 145 145
-2.9321978092193604 2.194847345352173 10.021321296691895 49 49 49
0.4090537428855896 4.260955810546875 7.177555561065674 105 105 105
0.6209076642990112 4.318480968475342 7.5080647468566895 143 143 143
-2.9323458671569824 2.1949338912963867 10.021717071533203 49 49 49
-3.629378318786621 2.2258098125457764 10.027514457702637 0 0 0
-0.1356630027294159 4.2984938621521 7.842772483825684 179 179 179
-2.2246880531311035 0.47783684730529785 10.334994316101074 213 213 213
-4.020415782928467 -1.1071665287017822 11.584511756896973 201 201 201
0.4564442038536072 -1.342857837677002 7.914429187774658 150 150 150
-2.932173728942871 2.194836139678955 10.02127742767334 49 49 49
0.7554507851600647 -0.7697123289108276 8.006869316101074 212 212 212
-4.020418167114258 -1.107167363166809 11.584516525268555 201 201 201
-1.38341224193573 4.383848667144775 7.254624366760254 151 151 151
-1.2704336643218994 4.3513360023498535 7.215995788574219 32 32 32
-4.436254978179932 -0.8929109573364258 9.965730667114258 77 77 77
-2.129038095474243 4.434412956237793 7.779635906219482 134 134 134
-2.932112455368042 2.194772481918335 10.021021842956543 49 49 49
-2.5636088848114014 2.214988946914673 10.139695167541504 20 20 20
0.7431322336196899 4.276661396026611 7.577247619628906 113 113 113
0.7074540257453918 4.23922872543335 7.5242600440979 86 86 86
-3.786069393157959 -3.158818483352661 9.828695297241211 19 19 19
-1.3614661693572998 2.21294903755188 10.331381797790527 42 42 42
-3.0920157432556152 -0.8491811752319336 11.618561744689941 128 128 128
-4.122264862060547 -0.8214306831359863 11.652512550354004 212 212 212
-1.9083107709884644 4.200226306915283 8.259187698364258 171 171 171
-3.847499132156372 -0.8314817547798157 11.48681640625 138 138 138
-4.13364315032959 -0.7957363128662109 11.319188117980957 97 97 97
-4.524601936340332 -3.0007617473602295 9.8229398727417 153 153 153
-0.8322439193725586 4.237961769104004 8.276091575622559 136 136 136
-2.3070595264434814 1.653181791305542 10.08257007598877 146 146 146
-3.7420949935913086 2.017902374267578 9.936476707458496 146 146 146
-1.0646271705627441 4.420395851135254 7.14192008972168 131 131 131
-0.13397468626499176 4.264547348022461 7.68577766418457 154 154 154
-3.343003988265991 1.9341903924942017 9.95687484741211 180 180 180
-2.6015734672546387 3.138352632522583 10.196455955505371 115 115 115
-1.896762490272522 -3.066431999206543 10.476298332214355 137 137 137
-2.0831992626190186 2.478426218032837 10.114230155944824 0 0 0
-3.2823922634124756 -0.39766648411750793 11.821179389953613 211 211 211
-2.1226694583892822 1.9609454870224 10.17379093170166 185 185 185
-3.104111909866333 -0.3783627152442932 11.556347846984863 147 147 147
-2.584040641784668 2.509615421295166 10.189056396484375 58 58 58
-2.1471683979034424 2.5254087448120117 10.128157615661621 158 158 158
-1.7060281038284302 1.9856972694396973 10.170613288879395 101 101 101
-1.7569407224655151 3.0830729007720947 10.24498176574707 157 157 157
-1.9780601263046265 1.9781965017318726 10.315345764160156 103 103 103
-2.5903167724609375 1.9197299480438232 10.115748405456543 95 95 95
-2.0462698936462402 1.9929858446121216 10.19352912902832 54 54 54
-2.3523287773132324 1.6767224073410034 9.697011947631836 91 91 91
-3.3979437351226807 1.9236615896224976 9.987419128417969 112 112 112
-1.3140943050384521 4.398646354675293 7.332919120788574 115 115 115
-1.4174760580062866 4.336127758026123 7.69420051574707 95 95 95
-0.37108272314071655 4.162172317504883 8.428984642028809 111 111 111
-3.8392553329467773 0.4522041082382202 11.387989044189453 106 106 106
-3.4217798709869385 -3.4042060375213623 9.526688575744629 104 104 104
-2.483798027038574 -3.384819269180298 9.623143196105957 145 145 145
0.5791346430778503 4.288195610046387 7.511981010437012 167 167 167
-2.093463182449341 1.83501136302948 10.118746757507324 124 124 124
-3.8764522075653076 1.8586225509643555 9.764842987060547 78 78 78
-0.3220616579055786 4.379401683807373 7.4695143699646 50 50 50
-0.4408414661884308 4.120467662811279 9.013713836669922 167 167 167
-0.9871695041656494 4.342928409576416 7.40565299987793 165 165 165
0.21762162446975708 4.3686676025390625 7.294615745544434 26 26 26
0.45614027976989746 4.3868327140808105 7.3661627769470215 58 58 58
-2.646437883377075 -1.8979952335357666 10.206748008728027 112 112 112
-4.161808013916016 2.803541898727417 9.879806518554688 21 21 21
-1.7305647134780884 1.8301085233688354 10.294468879699707 110 110 110
-2.0999436378479004 -3.149021863937378 10.052087783813477 31 31 31
-0.5788607001304626 1.8113335371017456 10.004507064819336 100 100 100
-2.701615810394287 0.5400094389915466 10.699671745300293 131 131 131
-3.5801918506622314 -1.5211526155471802 10.553909301757812 123 123 123
0.4109545648097992 -1.0517194271087646 7.920958995819092 34 34 34
-3.657153606414795 0.013019775971770287 11.708235740661621 156 156 156
-3.079251289367676 -1.4535415172576904 11.383515357971191 244 244 244
-3.070891857147217 -1.4740158319473267 11.601183891296387 32 32 32
-3.7909798622131348 -3.240835189819336 9.828385353088379 86 86 86
-1.805580735206604 1.873138189315796 10.103839874267578 92 92 92
-2.8857407569885254 -1.4018983840942383 11.451871871948242 230 230 230
-3.089951992034912 -0.7301567196846008 11.941126823425293 27 27 27
-2.2211499214172363 0.562544584274292 10.352434158325195 145 145 145
0.7350828051567078 -0.14258268475532532 8.062105178833008 102 102 102
-4.09713888168335 -0.6460404992103577 11.510904312133789 238 238 238
-3.3903563022613525 -1.2878952026367188 11.769691467285156 108 108 108
-3.6476316452026367 -1.2083505392074585 11.102206230163574 59 59 59
0.40938296914100647 1.0468130111694336 8.094060897827148 160 160 160
-4.31765604019165 -1.1603435277938843 11.548255920410156 108 108 108
-3.3796803951263428 -0.40931838750839233 11.905450820922852 75 75 75
0.7554442286491394 -0.7697495818138123 8.006863594055176 212 212 212
-2.1146180629730225 1.9523684978485107 10.147382736206055 134 134 134
-2.2414448261260986 -0.4357125461101532 10.306474685668945 69 69 69
-2.8856794834136963 -0.46976879239082336 11.536141395568848 220 220 220
-2.932387351989746 2.1949546337127686 10.02182388305664 49 49 49
-2.1646294593811035 2.2169322967529297 10.198543548583984 64 64 64
-4.122289657592773 -0.8214208483695984 11.652560234069824 212 212 212
-4.012842655181885 -0.40487611293792725 11.639842987060547 222 222 222
-1.8569573163986206 1.9612271785736084 10.389121055603027 33 33 33
-3.701070547103882 -3.3911921977996826 9.488076210021973 53 53 53
-2.2256791591644287 2.8183352947235107 10.245230674743652 4 4 4
-2.3196651935577393 -2.2147395610809326 9.333045959472656 41 41 41
-3.7500832080841064 2.7652721405029297 9.978732109069824 89 89 89
-2.402515172958374 -2.047475576400757 10.14762020111084 31 31 31
-3.811739683151245 1.6363275051116943 9.939303398132324 111 111 111
-2.306962728500366 1.653130054473877 10.08227825164795 146 146 146
-3.1844348907470703 -1.474514126777649 11.499628067016602 207 207 207
-1.6643253564834595 2.716660737991333 10.24252986907959 53 53 53
-1.7869797945022583 1.9722778797149658 10.230229377746582 63 63 63
-2.425427198410034 2.3975281715393066 9.744263648986816 63 63 63
-1.9339555501937866 2.4899141788482666 10.234220504760742 136 136 136
-2.6490137577056885 -4.196646213531494 9.591653823852539 134 134 134
-4.008379936218262 -0.5442607998847961 10.922160148620605 72 72 72
-1.6735215187072754 2.2962822914123535 10.230534553527832 154 154 154
-2.470482587814331 1.7336031198501587 10.03357982635498 66 66 66
-3.9393467903137207 2.3782408237457275 10.6889009475708 2 2 2
-3.7838025093078613 2.226148843765259 9.99879264831543 11 11 11
-2.9893240928649902 2.2607576847076416 10.282328605651855 2 2 2
-3.629368305206299 2.2258121967315674 10.027491569519043 0 0 0
-1.7569212913513184 3.083041191101074 10.244909286499023 157 157 157
-1.3614981174468994 2.2129902839660645 10.331557273864746 42 42 42
-0.30408406257629395 4.216765403747559 7.66823673248291 102 102 102
-0.9480002522468567 1.835375189781189 10.270880699157715 88 88 88
-2.2122116088867188 2.1897225379943848 10.13847541809082 40 40 40
-2.9901163578033447 2.1595590114593506 10.050362586975098 129 129 129
-3.2824013233184814 -0.3976690173149109 11.821203231811523 211 211 211
-1.0592010021209717 4.301133155822754 7.756345272064209 72 72 72
-0.6940913200378418 2.164912700653076 10.236300468444824 3 3 3
-2.0866568088531494 1.829775333404541 10.086024284362793 183 183 183
-2.491624355316162 -3.394592046737671 9.644606590270996 120 120 120
-2.4006826877593994 -3.585008382797241 10.197588920593262 129 129 129
-2.590834140777588 1.9202579259872437 10.117208480834961 95 95 95
-1.6903727054595947 -3.4011240005493164 9.752715110778809 101 101 101
-3.7421255111694336 2.0179076194763184 9.936537742614746 146 146 146
-2.690626859664917 1.9327741861343384 10.137575149536133 1 1 1
0.7242538332939148 1.6313074827194214 8.18148136138916 89 89 89
-2.1140940189361572 1.993199348449707 10.144925117492676 16 16 16
-3.9070370197296143 1.8840433359146118 9.932926177978516 126 126 126
-2.9224300384521484 1.9698045253753662 10.09850025177002 131 131 131
-0.3112279176712036 0.5029875040054321 10.559700965881348 83 83 83
-3.901686191558838 -3.2426371574401855 9.84158706665039 21 21 21
-1.5981037616729736 1.8265135288238525 9.85123062133789 55 55 55
-4.434326648712158 -0.8927410244941711 9.96144962310791 77 77 77
-0.9024033546447754 3.1248433589935303 10.035111427307129 149 149 149
-1.7098689079284668 1.9045889377593994 9.945727348327637 76 76 76
-3.6388463973999023 -0.8982322812080383 11.167231559753418 124 124 124
-0.3865279257297516 -3.0632801055908203 10.63796615600586 76 76 76
0.7909662127494812 4.407673358917236 7.2653021812438965 105 105 105
-1.1937376260757446 4.375412940979004 7.467555999755859 144 144 144
-2.4672107696533203 -2.5109333992004395 10.303420066833496 30 30 30
-1.934617280960083 1.991256594657898 10.356807708740234 5 5 5
-2.8768386840820312 1.8927565813064575 10.129802703857422 64 64 64
-2.5561773777008057 -2.490067481994629 10.269837379455566 17 17 17
0.7237046360969543 1.0181210041046143 8.0928373336792 74 74 74
0.2607358694076538 4.303571701049805 7.7031025886535645 150 150 150
-0.7633651494979858 1.26106858253479 10.244743347167969 11 11 11
-3.8164560794830322 0.3532925248146057 11.725790977478027 85 85 85
-0.9880530834197998 4.299622535705566 7.512669563293457 47 47 47
0.8129730820655823 4.336074352264404 7.582443714141846 136 136 136
-0.8963449001312256 4.29735803604126 7.685497760772705 150 150 150
-3.6116349697113037 0.42063355445861816 10.859034538269043 73 73 73
0.06270759552717209 4.282452583312988 7.6277289390563965 73 73 73
-1.4223301410675049 4.35036563873291 7.720040321350098 95 95 95
-1.4239736795425415 4.340626239776611 7.254852294921875 167 167 167
-1.7060960531234741 1.9858055114746094 10.17087173461914 101 101 101
-3.6722381114959717 0.7247092127799988 10.060918807983398 97 97 97
-0.9207088947296143 0.926389753818512 10.188620567321777 114 114 114
0.4564482867717743 -1.3428716659545898 7.914498805999756 150 150 150
-3.006230592727661 -1.5709997415542603 10.880644798278809 189 189 189
-2.549361228942871 1.918349266052246 10.132301330566406 18 18 18
-4.433619976043701 -0.8925256729125977 9.960172653198242 77 77 77
-3.873048782348633 -1.442002773284912 9.891973495483398 116 116 116
-1.7011609077453613 1.8912477493286133 10.131647109985352 21 21 21
0.5870330333709717 4.241477012634277 7.542272567749023 89 89 89
-0.3618847727775574 4.198794364929199 8.271499633789062 167 167 167
-3.6266751289367676 1.9985727071762085 9.973111152648926 131 131 131
-3.4104268550872803 -0.11261607706546783 11.729547500610352 186 186 186
-2.8639867305755615 2.1602327823638916 9.850273132324219 12 12 12
-4.04115629196167 -1.37795889377594 9.913321495056152 243 243 243
0.7182202935218811 -1.10585618019104 8.309391975402832 44 44 44
-3.0549094676971436 -1.4403412342071533 11.3163480758667 221 221 221
-3.99613618850708 -0.21708472073078156 11.655254364013672 185 185 185
-0.2590329945087433 2.7857284545898438 10.094046592712402 18 18 18
-3.5473456382751465 1.935816764831543 9.534761428833008 105 105 105
-3.7421278953552246 2.0179107189178467 9.936563491821289 146 146 146
-3.8657517433166504 -1.264976143836975 11.616347312927246 57 57 57
-3.3718936443328857 -0.40540048480033875 11.878447532653809 86 86 86
-4.224935054779053 -1.2007312774658203 11.356696128845215 146 146 146
-2.844921827316284 2.7479641437530518 10.113762855529785 99 99 99
0.7684592604637146 -3.019296884536743 7.86149263381958 154 154 154
-1.6644238233566284 2.7108631134033203 10.210227966308594 37 37 37
-3.7010951042175293 -3.3912363052368164 9.488180160522461 53 53 53
-2.528575897216797 -3.398385524749756 9.614243507385254 2 2 2
-3.946086883544922 -1.097813606262207 11.564064025878906 56 56 56
-1.7180826663970947 -3.434622287750244 9.851725578308105 100 100 100
-2.583914041519165 2.509528160095215 10.188682556152344 58 58 58
-3.791132688522339 -3.240946054458618 9.828693389892578 86 86 86
-2.2414376735687256 -0.4357427954673767 10.306440353393555 69 69 69
-3.785783052444458 -3.1586503982543945 9.828117370605469 19 19 19
-3.994157314300537 -0.5387452244758606 10.883406639099121 80 80 80
-0.9207296371459961 0.926426887512207 10.188834190368652 114 114 114
-1.896791696548462 -3.0664637088775635 10.476390838623047 137 137 137
-0.3854120969772339 -3.0553781986236572 10.608119010925293 76 76 76
-0.38652583956718445 -3.0632851123809814 10.637969017028809 76 76 76
-4.111818313598633 -0.6407064199447632 11.662074089050293 64 64 64
-1.870573878288269 -3.010850667953491 10.435077667236328 222 222 222
0.7466425895690918 -0.44575607776641846 8.026457786560059 145 145 145
0.42409878969192505 0.7580674886703491 8.09459400177002 171 171 171
-1.3615020513534546 2.2129931449890137 10.331573486328125 42 42 42
-1.6739246845245361 2.2964487075805664 10.232038497924805 154 154 154
-2.199892282485962 2.178882598876953 10.082386016845703 40 40 40
-2.5635533332824707 2.214949369430542 10.139533042907715 20 20 20
-3.7838118076324463 2.2261528968811035 9.998815536499023 11 11 11
-1.7588670253753662 2.2267136573791504 10.248893737792969 19 19 19
-1.9927741289138794 2.4348602294921875 9.950761795043945 2 2 2
-3.158010959625244 0.10420254617929459 11.697957992553711 146 146 146
0.7173938155174255 -1.9873491525650024 7.858987331390381 29 29 29
1.006320595741272 -1.0168136358261108 4.1583943367004395 97 97 97
-4.177928447723389 -1.2230079174041748 11.133639335632324 118 118 118
0.7356394529342651 4.382872104644775 7.405395984649658 37 37 37
-3.7550041675567627 0.7153453230857849 10.31837272644043 58 58 58
-2.0790646076202393 0.5746813416481018 10.048687934875488 112 112 112
-3.951829433441162 0.5558829307556152 10.179413795471191 236 236 236
0.7193195223808289 0.42687979340553284 7.983056545257568 27 27 27
-2.221176862716675 0.5625473856925964 10.352534294128418 145 145 145
-2.224749803543091 0.47783201932907104 10.335283279418945 213 213 213
-2.588542938232422 1.838947057723999 10.537355422973633 98 98 98
-0.8894668817520142 1.791730284690857 10.326536178588867 5 5 5
-2.090481996536255 1.8325424194335938 10.104517936706543 124 124 124
-0.4146026372909546 0.36855489015579224 10.828038215637207 253 253 253
-1.846954345703125 1.949106216430664 10.332778930664062 23 23 23
-1.6914527416229248 1.8886910676956177 10.074543952941895 24 24 24
-3.599158525466919 0.3062117397785187 11.414237976074219 185 185 185
-1.4154555797576904 1.9238530397415161 10.217023849487305 22 22 22
-3.4994027614593506 0.16893857717514038 11.773869514465332 155 155 155
-2.5932018756866455 1.9211159944534302 10.123688697814941 95 95 95
-0.8898870348930359 1.2095037698745728 10.24197769165039 161 161 161
-1.7869460582733154 1.9722590446472168 10.230042457580566 63 63 63
-0.8596445322036743 2.9712955951690674 9.556086540222168 141 141 141
-0.26545631885528564 2.9168167114257812 9.549495697021484 136 136 136
-2.144237518310547 1.9128488302230835 10.068031311035156 24 24 24
-2.0160067081451416 1.9710010290145874 10.147977828979492 176 176 176
-2.8829824924468994 1.949834942817688 9.962379455566406 156 156 156
-1.0665228366851807 2.8995230197906494 9.767252922058105 174 174 174
-2.1260242462158203 -1.4979734420776367 9.695362091064453 27 27 27
-2.107665538787842 1.9982022047042847 10.114692687988281 71 71 71
-2.2417805194854736 -1.4983876943588257 10.200777053833008 165 165 165
-3.390852212905884 -1.5117616653442383 10.491203308105469 221 221 221
-4.072544574737549 -1.4209954738616943 10.06992244720459 218 218 218
-0.7633702754974365 1.2610722780227661 10.244772911071777 11 11 11
-0.9206558465957642 0.926272988319397 10.188423156738281 114 114 114
-1.65201735496521 0.14088848233222961 10.483254432678223 126 126 126
-3.5999693870544434 1.9822731018066406 9.892313957214355 118 118 118
-4.23063850402832 2.769594669342041 9.905402183532715 98 98 98
-0.8282111883163452 1.315089464187622 10.17601203918457 95 95 95
-1.6734704971313477 2.2962567806243896 10.23034381866455 154 154 154
-1.8639532327651978 0.5160117149353027 10.4056396484375 81 81 81
-0.31119632720947266 0.502955436706543 10.55944538116455 83 83 83
-4.041491985321045 0.5286449790000916 10.148611068725586 105 105 105
-2.996720790863037 1.6258379220962524 10.007711410522461 80 80 80
-2.8432633876800537 1.841129183769226 9.99272632598877 33 33 33
-4.027935981750488 0.6832135319709778 10.112020492553711 12 12 12
-2.8342881202697754 -3.416407823562622 9.6128511428833 70 70 70
-3.8988237380981445 1.8761112689971924 9.87724781036377 53 53 53
-0.1591927409172058 1.864353060722351 10.34450912475586 42 42 42
-4.101650714874268 -0.9854557514190674 11.171318054199219 16 16 16
-1.264375925064087 -3.300908088684082 9.558541297912598 72 72 72
-2.1340508460998535 2.4440298080444336 10.083322525024414 35 35 35
-0.8062585592269897 2.099323034286499 10.6685791015625 101 101 101
-1.642359733581543 1.9839987754821777 10.173239707946777 61 61 61
-2.2295379638671875 -3.154615640640259 10.059789657592773 55 55 55
-0.7302598357200623 3.597233772277832 10.098480224609375 132 132 132
0.7213422060012817 2.797852039337158 8.280205726623535 31 31 31
-0.5587151646614075 3.019727945327759 9.458283424377441 123 123 123
-3.587113618850708 3.1721889972686768 10.127116203308105 82 82 82
-3.700984001159668 -3.391141653060913 9.48790454864502 53 53 53
-3.1315090656280518 -3.360819101333618 9.40894889831543 113 113 113
-2.629088878631592 3.101957082748413 10.00439739227295 74 74 74
-2.601529836654663 3.1383137702941895 10.196348190307617 115 115 115
-2.5285305976867676 -3.398324728012085 9.614066123962402 2 2 2
-2.443556785583496 -3.3555283546447754 9.507040023803711 116 116 116
-1.0180091857910156 3.0751771926879883 10.036985397338867 172 172 172
-1.6514637470245361 -3.4195878505706787 9.783075332641602 20 20 20
-1.2712947130203247 -3.3109495639801025 9.587397575378418 43 43 43
-1.71522057056427 3.1077382564544678 10.356874465942383 24 24 24
-2.2295563220977783 -3.1546337604522705 10.059845924377441 55 55 55
-2.100146770477295 -3.149221181869507 10.052730560302734 31 31 31
-1.8967621326446533 -3.066434144973755 10.476308822631836 137 137 137
-0.38542279601097107 -3.0554511547088623 10.60843563079834 76 76 76
-3.4680542945861816 2.759582757949829 10.009723663330078 96 96 96
-3.653353452682495 2.7064642906188965 9.778281211853027 98 98 98
-2.0222723484039307 2.4768333435058594 10.080938339233398 50 50 50
-3.47326922416687 2.458218812942505 10.025842666625977 117 117 117
-2.081357955932617 2.476929187774658 10.105513572692871 0 0 0
-2.6944236755371094 2.475266218185425 10.251530647277832 122 122 122
-0.8479251861572266 2.4371373653411865 10.336675643920898 121 121 121
0.7014731764793396 1.8486155271530151 7.90852165222168 63 63 63
-2.8020901679992676 2.325725555419922 10.208124160766602 133 133 133
-3.478358507156372 2.283942222595215 10.040231704711914 130 130 130
-1.6741501092910767 2.2946531772613525 10.232090950012207 154 154 154
-2.9323363304138184 2.1949076652526855 10.021623611450195 49 49 49
-3.629382371902466 2.2258217334747314 10.027519226074219 0 0 0
-2.9070379734039307 2.2357747554779053 10.158829689025879 4 4 4
-1.7588220834732056 2.226651191711426 10.248669624328613 19 19 19
-1.3615493774414062 2.2130398750305176 10.331787109375 42 42 42
-2.192002058029175 2.174454689025879 10.046974182128906 47 47 47
-2.864076852798462 2.1602792739868164 9.850486755371094 12 12 12
-3.5284512042999268 2.1606738567352295 10.01609992980957 135 135 135
-2.1646361351013184 2.2169437408447266 10.198537826538086 64 64 64
-3.682339668273926 2.07995867729187 9.906381607055664 78 78 78
-1.3541258573532104 2.1038737297058105 10.067892074584961 122 122 122
0.7387894988059998 -1.2666761875152588 7.963550567626953 34 34 34
-2.126011848449707 -1.497972011566162 9.695324897766113 27 27 27
-3.6813809871673584 2.0114736557006836 9.904915809631348 44 44 44
-4.169522285461426 -1.5205012559890747 10.351142883300781 77 77 77
-3.8347089290618896 -1.6019855737686157 11.132109642028809 182 182 182
-3.907378911972046 2.0146610736846924 9.865642547607422 81 81 81
-2.24159836769104 -1.4982846975326538 10.200210571289062 165 165 165
-3.6856768131256104 2.020740509033203 10.073867797851562 105 105 105
-0.7251593470573425 2.0070390701293945 10.193802833557129 99 99 99
-2.562433958053589 2.006694793701172 10.122899055480957 115 115 115
-3.1935455799102783 -1.4075158834457397 11.313916206359863 224 224 224
0.7242424488067627 1.6312686204910278 8.181351661682129 89 89 89
-2.1618292331695557 2.02419114112854 10.278076171875 41 41 41
-2.788278102874756 1.967605710029602 10.01549243927002 76 76 76
-2.8728785514831543 1.9596246480941772 9.97135066986084 128 128 128
-4.176682472229004 -1.1953938007354736 11.23677921295166 146 146 146
-2.5930869579315186 1.9210224151611328 10.123388290405273 95 95 95
-3.39790415763855 1.923669695854187 9.98732852935791 112 112 112
-1.4944682121276855 1.9853228330612183 10.525466918945312 78 78 78
-1.746809720993042 1.9538546800613403 10.189931869506836 76 76 76
-2.8503153324127197 1.9244451522827148 10.069437980651855 10 10 10
-1.4083853960037231 1.9146816730499268 10.166028022766113 22 22 22
-3.9352266788482666 1.8876924514770508 9.962569236755371 59 59 59
-1.709288239479065 1.9161351919174194 10.20229721069336 18 18 18
-4.15155553817749 -0.6673702597618103 11.334723472595215 48 48 48
-2.787604570388794 1.8791148662567139 10.014524459838867 118 118 118
-1.0089837312698364 1.8965553045272827 10.340205192565918 42 42 42
-2.088489055633545 1.8310036659240723 10.094780921936035 183 183 183
-2.4929559230804443 -0.472077876329422 11.09582805633545 155 155 155
-1.7116103172302246 1.8485110998153687 10.213431358337402 101 101 101
-3.3778443336486816 -0.4078587293624878 11.899338722229004 75 75 75
-0.9581425189971924 1.8308277130126953 10.289061546325684 74 74 74
0.7350798845291138 -0.1425829529762268 8.062209129333496 102 102 102
-2.4448461532592773 1.7207599878311157 9.960502624511719 76 76 76
-3.5011260509490967 0.06509476900100708 11.603946685791016 151 151 151
-3.4982073307037354 0.14462849497795105 11.594720840454102 254 254 254
-3.7526230812072754 0.28692394495010376 11.662690162658691 16 16 16
-0.8403332829475403 1.3204894065856934 10.319409370422363 83 83 83
-0.3682980537414551 0.5243008732795715 11.017261505126953 115 115 115
-0.8744235038757324 1.1935069561004639 10.177194595336914 169 169 169
-1.863953948020935 0.5160112977027893 10.405641555786133 81 81 81
-4.041502952575684 0.5286446809768677 10.148633003234863 105 105 105
-2.221177101135254 0.562548041343689 10.352556228637695 145 145 145
-3.919221878051758 0.5525698661804199 10.12059211730957 248 248 248
-2.178647756576538 0.5937166810035706 10.358112335205078 111 111 111
-2.1989850997924805 0.6228287220001221 10.080740928649902 119 119 119
-3.290306806564331 2.778623580932617 10.12277889251709 84 84 84
-2.132082462310791 2.4297235012054443 10.04452896118164 60 60 60
-3.080981969833374 -1.6530226469039917 11.46098518371582 78 78 78
-2.929816722869873 -3.444265365600586 9.709508895874023 118 118 118
-2.0575170516967773 3.1115691661834717 10.254826545715332 11 11 11
-1.9570666551589966 2.9360599517822266 10.708839416503906 7 7 7
-3.671757221221924 -2.2167348861694336 10.03569221496582 130 130 130
-2.2213120460510254 0.5625867247581482 10.353068351745605 145 145 145
-3.3515727519989014 -0.40474438667297363 11.819052696228027 86 86 86
-0.44494739174842834 0.3729608654975891 11.00521469116211 245 245 245
-3.2579424381256104 0.12443152815103531 11.802168846130371 227 227 227
-0.6310263276100159 3.953970432281494 9.653199195861816 2 2 2
0.41835856437683105 2.5179500579833984 8.274664878845215 53 53 53
0.6831344366073608 -1.3863602876663208 7.988184452056885 26 26 26
-2.1934432983398438 2.169679641723633 10.052183151245117 14 14 14
-3.560272693634033 2.173792600631714 10.085013389587402 131 131 131
0.6704872250556946 -1.0541138648986816 7.839019775390625 88 88 88
-2.8706002235412598 1.9566324949264526 9.976274490356445 135 135 135
-3.5011379718780518 -1.369787573814392 11.42722225189209 38 38 38
-4.316740989685059 -1.1636457443237305 11.545851707458496 108 108 108
1.4265353679656982 -0.4686759114265442 4.716102123260498 72 72 72
-0.8559184074401855 1.1880977153778076 10.098865509033203 152 152 152
-4.13349723815918 -0.7958916425704956 11.318865776062012 97 97 97
0.06349288672208786 -0.6369667053222656 10.211079597473145 129 129 129
-2.253826856613159 -0.6276035904884338 10.325586318969727 232 232 232
-3.5529415607452393 3.135741710662842 9.998440742492676 83 83 83
-3.5060200691223145 -3.7390215396881104 9.552825927734375 132 132 132
-2.8341619968414307 -3.416301965713501 9.612470626831055 70 70 70
-2.5283689498901367 -3.398111343383789 9.61345386505127 2 2 2
-1.0665245056152344 2.8995327949523926 9.767266273498535 174 174 174
-1.6433866024017334 -3.4054653644561768 9.753249168395996 26 26 26
-1.4547699689865112 -3.4903151988983154 10.003417015075684 99 99 99
-1.6160317659378052 2.963406801223755 10.137312889099121 111 111 111
-2.2187161445617676 -3.2562971115112305 10.088807106018066 82 82 82
-2.763432025909424 2.8698508739471436 10.062752723693848 75 75 75
0.7259485721588135 -2.405857801437378 7.847949504852295 55 55 55
-0.5012058615684509 2.753107786178589 10.06743049621582 98 98 98
-3.50490403175354 2.7626705169677734 10.06236743927002 98 98 98
-1.6586410999298096 2.655665397644043 10.222803115844727 96 96 96
-1.526124119758606 2.5318233966827393 10.172019958496094 81 81 81
-3.499333381652832 2.477297782897949 10.1115083694458 115 115 115
-1.943483829498291 2.4351072311401367 9.997698783874512 28 28 28
-2.000546455383301 2.4473798274993896 10.049909591674805 5 5 5
-2.6542248725891113 2.4045004844665527 10.040704727172852 128 128 128
-1.798851490020752 2.4510867595672607 10.373209953308105 92 92 92
-1.1846197843551636 0.315298855304718 10.495905876159668 209 209 209
-0.8287688493728638 2.3849751949310303 10.1864013671875 123 123 123
-2.6599016189575195 2.278839588165283 10.059605598449707 130 130 130
-2.7425129413604736 2.270350456237793 10.018633842468262 127 127 127
-2.7834081649780273 2.2660017013549805 9.997703552246094 96 96 96
-1.5675371885299683 2.204991102218628 9.831843376159668 70 70 70
-2.6137173175811768 2.306072950363159 10.343385696411133 139 139 139
-2.9322421550750732 2.194871664047241 10.021435737609863 49 49 49
-3.6293764114379883 2.2258126735687256 10.027505874633789 0 0 0
-3.585688352584839 -0.616558849811554 11.808914184570312 208 208 208
-1.3615097999572754 2.2129948139190674 10.331598281860352 42 42 42
-2.1862807273864746 0.6144634485244751 10.04096794128418 118 118 118
-1.7588975429534912 2.2267236709594727 10.248929977416992 19 19 19
-3.7953593730926514 -1.5911545753479004 11.042698860168457 178 178 178
-4.089136600494385 0.7613769173622131 10.11265754699707 31 31 31
0.6746044158935547 0.7301605939865112 8.10639762878418 41 41 41
-2.55474591255188 2.1347572803497314 10.109716415405273 139 139 139
-0.9194236993789673 0.9267849326133728 10.182053565979004 114 114 114
-3.7114508152008057 2.012162923812866 9.985322952270508 53 53 53
-3.8939414024353027 2.007704496383667 9.83898639678955 81 81 81
-1.28104567527771 2.031752824783325 10.386646270751953 84 84 84
-2.7893388271331787 1.9642809629440308 10.018651962280273 71 71 71
-3.398019313812256 1.9237569570541382 9.987667083740234 112 112 112
-2.1545567512512207 2.0353875160217285 10.740666389465332 11 11 11
-2.3069815635681152 1.6531531810760498 10.08238697052002 146 146 146
-0.8884559273719788 1.786967158317566 10.319726943969727 11 11 11
-1.604597568511963 1.7641115188598633 9.699549674987793 65 65 65
-0.8975607752799988 1.3897839784622192 10.19233512878418 74 74 74
-2.028193473815918 2.6381921768188477 9.625514030456543 73 73 73
-1.6553305387496948 2.5092074871063232 10.278587341308594 1 1 1
-4.139331817626953 -0.04147118330001831 11.206722259521484 97 97 97
-2.6489176750183105 -4.196547508239746 9.591408729553223 134 134 134
-3.879422664642334 -4.21077823638916 9.831832885742188 89 89 89
-1.6896207332611084 0.6712304353713989 10.44697093963623 169 169 169
-2.044337272644043 0.5963976979255676 10.448163986206055 169 169 169
-3.9218573570251465 2.083386182785034 9.81141471862793 120 120 120
-1.2043112516403198 2.142486572265625 10.258371353149414 95 95 95
-2.2697675228118896 2.9747204780578613 10.245721817016602 58 58 58
-3.9450743198394775 -3.304456949234009 10.093828201293945 139 139 139
-0.7633159160614014 1.2609803676605225 10.244061470031738 11 11 11
