ply
format ascii 1.0
element vertex 710
property float x
property float y
property float z
property uchar red
property uchar green
property uchar blue
end_header
-1.1236181259155273 -1.1133824586868286 3.2108633518218994 104 104 104
-1.1015677452087402 -1.137553095817566 3.210999011993408 97 97 97
-1.1122021675109863 -0.48625850677490234 3.2861170768737793 79 79 79
-1.105839729309082 0.14213405549526215 3.3625380992889404 33 33 33
-1.1231359243392944 0.4331304728984833 3.412907361984253 88 88 88
-1.1072092056274414 0.6389361023902893 3.420166492462158 138 138 138
-1.1071791648864746 0.6389256119728088 3.4201130867004395 138 138 138
-1.1177700757980347 0.8020703196525574 3.4508702754974365 145 145 145
-1.055486798286438 -0.7699939012527466 3.299266815185547 84 84 84
-1.0759766101837158 -0.29218509793281555 3.3985259532928467 102 102 102
-1.0759766101837158 -0.29218509793281555 3.3985259532928467 102 102 102
-1.0694984197616577 -0.04600219056010246 3.3846681118011475 62 62 62
-1.0474357604980469 -0.8317223787307739 3.31999135017395 92 92 92
-1.0977790355682373 1.1146389245986938 3.4813003540039062 21 21 21
-1.0254303216934204 -1.6721512079238892 3.2778267860412598 93 93 93
-1.0629640817642212 -0.12987804412841797 3.40714430809021 63 63 63
-1.0977927446365356 1.1146478652954102 3.481328248977661 21 21 21
-1.065936803817749 0.2802785038948059 3.417815685272217 77 77 77
-1.0698363780975342 0.9012965559959412 3.453676223754883 72 72 72
-1.0684318542480469 0.8494828939437866 3.45115065574646 72 72 72
-1.0232915878295898 -0.949896514415741 3.3219449520111084 115 115 115
-1.0707345008850098 1.293646216392517 3.489698648452759 96 96 96
-1.0566023588180542 0.3340294361114502 3.443362236022949 90 90 90
-1.0737608671188354 1.4029124975204468 3.506007194519043 97 97 97
-1.0294944047927856 -1.1165533065795898 3.3658041954040527 81 81 81
-1.0493754148483276 0.2301439642906189 3.4366021156311035 85 85 85
-1.0416836738586426 -0.29561617970466614 3.4116203784942627 99 99 99
-1.0397778749465942 0.12546321749687195 3.4455554485321045 40 40 40
-1.034566879272461 0.16143324971199036 3.4381778240203857 80 80 80
-1.0120759010314941 -0.6436684727668762 3.3652515411376953 122 122 122
-1.0456396341323853 0.45893293619155884 3.4771087169647217 35 35 35
-1.0452080965042114 1.0371594429016113 3.492520570755005 106 106 106
-1.0033236742019653 -0.7843416333198547 3.369511365890503 101 101 101
-1.0017613172531128 -0.36350956559181213 3.402578115463257 16 16 16
-0.999849796295166 -0.9337289929389954 3.3730340003967285 116 116 116
-1.0093499422073364 -0.33894065022468567 3.434034824371338 124 124 124
-1.0268458127975464 1.1433993577957153 3.518885374069214 80 80 80
-0.9903216361999512 -1.2072527408599854 3.382690191268921 17 17 17
-1.0015573501586914 -0.26082319021224976 3.442444324493408 130 130 130
-0.9640709161758423 -1.219377040863037 3.3667781352996826 89 89 89
-0.9847874045372009 -0.1489277184009552 3.4439408779144287 67 67 67
-1.0170601606369019 1.0984277725219727 3.5582141876220703 10 10 10
-1.0129839181900024 0.12343357503414154 3.5125343799591064 33 33 33
-0.9945358633995056 0.6519330739974976 3.487250566482544 79 79 79
-0.9940581321716309 0.09944338351488113 3.488210678100586 80 80 80
-1.0065155029296875 0.617682158946991 3.519280195236206 77 77 77
-0.9663348197937012 -0.5247572660446167 3.4554030895233154 119 119 119
-0.9456391334533691 -1.2733275890350342 3.381878137588501 90 90 90
-0.9766882061958313 -0.04055333137512207 3.500422477722168 36 36 36
-0.9763655662536621 0.1663283109664917 3.5098114013671875 87 87 87
-0.9653052687644958 -0.19496260583400726 3.4791228771209717 124 124 124
-0.9650806784629822 -0.07605158537626266 3.496734857559204 89 89 89
-0.9744203686714172 0.11781256645917892 3.529691219329834 139 139 139
-0.9405684471130371 -1.0122334957122803 3.4310851097106934 77 77 77
-0.9266378283500671 -1.3537644147872925 3.390956401824951 36 36 36
-0.9559007287025452 -0.21415048837661743 3.505497455596924 19 19 19
-0.9631215929985046 0.766867995262146 3.574086904525757 53 53 53
-0.9642934799194336 0.4441513121128082 3.567018747329712 53 53 53
-0.9650930166244507 0.6193631887435913 3.5971274375915527 17 17 17
-0.907189667224884 -1.6767021417617798 3.389634847640991 88 88 88
-0.9740278720855713 1.7728506326675415 3.652010679244995 59 59 59
-0.9117301106452942 -1.4994919300079346 3.427525281906128 96 96 96
-0.9437612891197205 0.369107186794281 3.554966926574707 105 105 105
-0.9209048748016357 -0.18243549764156342 3.4756357669830322 78 78 78
-0.9458194375038147 0.4917873740196228 3.580563545227051 98 98 98
-0.9530375003814697 1.0858335494995117 3.6190106868743896 40 40 40
-0.9465125203132629 0.6074649691581726 3.599492311477661 63 63 63
-0.9236702919006348 0.010635730810463428 3.5325074195861816 89 89 89
-0.944196879863739 1.0749276876449585 3.640103816986084 23 23 23
-0.9003681540489197 0.27384358644485474 3.5186800956726074 141 141 141
-0.9107331037521362 -0.13118556141853333 3.542529821395874 76 76 76
-0.9349374771118164 0.9352135062217712 3.624842882156372 139 139 139
-0.9178329110145569 0.11251742392778397 3.585573434829712 40 40 40
-0.9228234887123108 0.5532944798469543 3.60862398147583 106 106 106
-0.9228234887123108 0.5532944798469543 3.60862398147583 106 106 106
-0.9199891090393066 0.27816659212112427 3.594249725341797 171 171 171
-0.9200426936149597 0.27744200825691223 3.594130754470825 171 171 171
-0.9337118864059448 1.2509081363677979 3.6628777980804443 21 21 21
-0.9337118864059448 1.2509081363677979 3.6628777980804443 21 21 21
-0.9435047507286072 1.1022865772247314 3.7099947929382324 128 128 128
-0.887283205986023 -1.0238897800445557 3.516963481903076 97 97 97
-0.887283205986023 -1.0238897800445557 3.516963481903076 97 97 97
-0.9293124675750732 1.577892780303955 3.683194637298584 15 15 15
-0.9230629205703735 1.4025455713272095 3.670474052429199 115 115 115
-0.9028317332267761 0.25219887495040894 3.595707654953003 109 109 109
-0.9063730835914612 0.4385412037372589 3.631805896759033 37 37 37
-0.9063730835914612 0.4385412037372589 3.631805896759033 37 37 37
-0.9104493260383606 0.7305939793586731 3.6321494579315186 90 90 90
-0.9206563234329224 1.700551986694336 3.6884546279907227 23 23 23
-0.903016984462738 0.4164671301841736 3.6202378273010254 98 98 98
-0.8879289627075195 -0.02686210535466671 3.5757222175598145 91 91 91
-0.9063759446144104 0.4385426342487335 3.6318113803863525 37 37 37
-0.8879451155662537 0.11402496695518494 3.6193861961364746 17 17 17
-0.8641215562820435 -1.0173418521881104 3.511164665222168 116 116 116
-0.9054185748100281 1.2423150539398193 3.699846029281616 144 144 144
-0.9104769229888916 1.3973804712295532 3.706235647201538 24 24 24
-0.8983314037322998 1.5508981943130493 3.658019542694092 91 91 91
-0.9056432843208313 1.3997471332550049 3.6875221729278564 133 133 133
-0.8813170194625854 0.1558876484632492 3.5976064205169678 85 85 85
-0.910225510597229 1.7411956787109375 3.7217423915863037 39 39 39
-0.8610426783561707 -0.953013002872467 3.5231127738952637 117 117 117
-0.8929651379585266 0.9463348984718323 3.6734163761138916 87 87 87
-0.8692343235015869 -0.8922503590583801 3.5594735145568848 42 42 42
-0.9094763994216919 0.9229792356491089 3.7222235202789307 50 50 50
-0.8597874045372009 -0.47613832354545593 3.5631322860717773 122 122 122
-0.89821857213974 1.3843744993209839 3.7239575386047363 64 64 64
-0.8605632185935974 -0.4939938485622406 3.581799268722534 142 142 142
-0.8994309306144714 1.735025405883789 3.746819257736206 87 87 87
-0.8557046055793762 -0.6000174283981323 3.569563388824463 83 83 83
-0.8526912927627563 -0.6203346252441406 3.5605385303497314 86 86 86
-0.8781623840332031 0.6429959535598755 3.666471242904663 111 111 111
-0.8868046998977661 1.0796802043914795 3.707996129989624 9 9 9
-0.8344894051551819 -1.5035340785980225 3.4849865436553955 124 124 124
-0.8188548684120178 -0.9077197909355164 3.4776053428649902 111 111 111
-0.8188548684120178 -0.9077197909355164 3.4776053428649902 111 111 111
-0.8771749138832092 0.6858190298080444 3.670536518096924 92 92 92
-0.8669397234916687 0.34172818064689636 3.651101589202881 88 88 88
-0.8852248191833496 1.7164921760559082 3.7402703762054443 23 23 23
-0.8818603157997131 1.4067504405975342 3.7304205894470215 14 14 14
-0.8818603157997131 1.4067504405975342 3.7304205894470215 14 14 14
-0.8795036673545837 1.5667728185653687 3.740098714828491 92 92 92
-0.8792806267738342 1.5085276365280151 3.743842840194702 25 25 25
-0.8783634901046753 1.6071903705596924 3.731142520904541 65 65 65
-0.8209087252616882 -1.1185824871063232 3.530945062637329 75 75 75
-0.8606845140457153 1.2255887985229492 3.725388288497925 35 35 35
-0.8308935761451721 -1.4775747060775757 3.5509259700775146 92 92 92
-0.8234840631484985 -0.6871521472930908 3.577380657196045 86 86 86
-0.8448812365531921 0.5364387631416321 3.678720712661743 98 98 98
-0.8448998928070068 0.5051760077476501 3.681885004043579 94 94 94
-0.8242665529251099 -0.5395985841751099 3.599069833755493 117 117 117
-0.856934666633606 1.5532610416412354 3.7507269382476807 115 115 115
-0.8569347858428955 1.553261160850525 3.7507271766662598 115 115 115
-0.8621001839637756 1.8475875854492188 3.7775094509124756 58 58 58
-0.8471404314041138 0.7125769257545471 3.7101032733917236 122 122 122
-0.8234928250312805 -0.4099380075931549 3.61350417137146 103 103 103
-0.8291248679161072 -0.0036400281824171543 3.6281206607818604 112 112 112
-0.8550991415977478 1.2279058694839478 3.72993540763855 50 50 50
-0.8099836707115173 -0.6255114674568176 3.586418390274048 106 106 106
-0.8099836707115173 -0.6255114674568176 3.586418390274048 106 106 106
-0.8436746597290039 0.6368465423583984 3.71700382232666 100 100 100
-0.854621171951294 1.8445672988891602 3.804363965988159 65 65 65
-0.8056117296218872 -0.9799183011054993 3.587151288986206 95 95 95
-0.8225264549255371 0.2994275987148285 3.681515693664551 100 100 100
-0.8235903978347778 0.42501214146614075 3.6928000450134277 73 73 73
-0.8387348651885986 1.4423213005065918 3.7778587341308594 48 48 48
-0.8207046985626221 0.4521956145763397 3.6966588497161865 88 88 88
-0.8407496809959412 1.238515853881836 3.803483009338379 17 17 17
-0.7778323292732239 -1.412070870399475 3.5365285873413086 92 92 92
-0.8277890682220459 1.3178054094314575 3.7637462615966797 49 49 49
-0.7840440273284912 -1.382307529449463 3.567675828933716 29 29 29
-0.7930545210838318 -0.47453945875167847 3.633277177810669 74 74 74
-0.8097257018089294 0.25885385274887085 3.709684371948242 78 78 78
-0.8200751543045044 0.9051527380943298 3.7622878551483154 62 62 62
-0.7931641340255737 -0.14144548773765564 3.6612367630004883 89 89 89
-0.7760259509086609 0.09537070989608765 3.6420798301696777 82 82 82
-0.7894279956817627 -1.6403357982635498 3.6071696281433105 93 93 93
-0.7853701710700989 -0.36506494879722595 3.6792759895324707 50 50 50
-0.785269558429718 0.7773184180259705 3.7049670219421387 93 93 93
-0.7619425654411316 -0.9851492643356323 3.600553274154663 112 112 112
-0.8284009099006653 1.8916524648666382 3.88952898979187 18 18 18
-0.8284009099006653 1.8916524648666382 3.88952898979187 18 18 18
-0.804639995098114 1.8243756294250488 3.8154120445251465 68 68 68
-0.7576099634170532 -1.3219997882843018 3.5908846855163574 81 81 81
-0.7873973250389099 0.5352777242660522 3.744892120361328 94 94 94
-0.7783755660057068 -0.6077688336372375 3.6432807445526123 39 39 39
-0.7649412155151367 -0.5699871778488159 3.6736321449279785 35 35 35
-0.7649412155151367 -0.5699871778488159 3.6736321449279785 35 35 35
-0.7521609663963318 -0.9332684278488159 3.616528272628784 94 94 94
-0.7446366548538208 -1.25803542137146 3.5810353755950928 79 79 79
-0.7797600626945496 1.4282252788543701 3.8190126419067383 40 40 40
-0.7431672215461731 -0.25892797112464905 3.6930744647979736 98 98 98
-0.7620265483856201 1.3716791868209839 3.835991382598877 97 97 97
-0.7222252488136292 -1.0226079225540161 3.6324803829193115 106 106 106
-0.7566672563552856 1.8403434753417969 3.8679373264312744 17 17 17
-0.7249088287353516 -0.4967297315597534 3.7297801971435547 64 64 64
-0.7344228029251099 0.5148022174835205 3.7965495586395264 114 114 114
-0.7113885879516602 -0.8205898404121399 3.6816930770874023 80 80 80
-0.7602592706680298 1.8686070442199707 3.9286305904388428 19 19 19
-0.7183619141578674 0.08114776015281677 3.718855381011963 80 80 80
-0.7193177342414856 -0.05032242089509964 3.753692388534546 105 105 105
-0.7319536209106445 1.7455761432647705 3.8605403900146484 35 35 35
-0.7123095393180847 0.0948944240808487 3.7828171253204346 148 148 148
-0.7248279452323914 0.9592745304107666 3.851684093475342 52 52 52
-0.6971496343612671 -0.07785367220640182 3.7768702507019043 20 20 20
-0.733486533164978 0.9688433408737183 3.90737247467041 60 60 60
-0.7136648297309875 0.98114013671875 3.8689258098602295 82 82 82
-0.685654878616333 0.6696792244911194 3.7922728061676025 108 108 108
-0.7203325629234314 1.5449193716049194 3.9248828887939453 26 26 26
-0.6682466268539429 -1.8333203792572021 3.6414763927459717 32 32 32
-0.6787876486778259 -1.1518629789352417 3.7218687534332275 84 84 84
-0.6763632297515869 -0.6250308156013489 3.7476136684417725 98 98 98
-0.6763806343078613 -0.2014218419790268 3.778162717819214 91 91 91
-0.6854038238525391 0.03468146547675133 3.805497169494629 111 111 111
-0.6915146112442017 1.3471812009811401 3.886563777923584 110 110 110
-0.6821579933166504 0.30575138330459595 3.828871726989746 102 102 102
-0.6752468943595886 -0.5035169720649719 3.7908687591552734 84 84 84
-0.6908674836158752 0.24089355766773224 3.8293960094451904 108 108 108
-0.7088757157325745 1.5993306636810303 3.926952362060547 36 36 36
-0.6671578288078308 -0.8860068917274475 3.7548015117645264 77 77 77
-0.6398400664329529 -1.3348102569580078 3.6550097465515137 109 109 109
-0.6881371140480042 0.9380776882171631 3.896009922027588 53 53 53
-0.653420627117157 -1.541180968284607 3.6805548667907715 90 90 90
-0.6561194658279419 -0.9565417170524597 3.731724977493286 88 88 88
-0.6746035814285278 0.3616781532764435 3.838958978652954 104 104 104
-0.6778479814529419 0.6862494945526123 3.870795726776123 127 127 127
-0.6647137999534607 -0.042212411761283875 3.8166301250457764 108 108 108
-0.6821637153625488 0.6559407711029053 3.8927133083343506 106 106 106
-0.6821637153625488 0.6559407711029053 3.8927133083343506 106 106 106
-0.6821637153625488 0.6559407711029053 3.8927133083343506 106 106 106
-0.6322050094604492 -1.90751051902771 3.6340646743774414 58 58 58
-0.6744489669799805 1.1036715507507324 3.909630298614502 50 50 50
-0.6243022084236145 -1.807082176208496 3.6421966552734375 93 93 93
-0.6497533321380615 -0.1907930076122284 3.8124301433563232 94 94 94
-0.6255630254745483 -1.8862584829330444 3.6681230068206787 68 68 68
-0.6530967950820923 0.32828009128570557 3.8734545707702637 124 124 124
-0.6213831901550293 -0.7468087673187256 3.7562239170074463 33 33 33
-0.6551339626312256 0.47827184200286865 3.9043190479278564 116 116 116
-0.6293011903762817 -1.0880998373031616 3.755323648452759 142 142 142
-0.6550937294960022 0.7468103766441345 3.9179348945617676 105 105 105
-0.631170928478241 -1.5002669095993042 3.7736966609954834 91 91 91
-0.6196772456169128 -1.504551649093628 3.72121000289917 87 87 87
-0.636606752872467 0.06708128750324249 3.8863797187805176 2 2 2
-0.6277192831039429 -0.4254639148712158 3.8367457389831543 35 35 35
-0.6452338695526123 1.3888970613479614 3.9467835426330566 38 38 38
-0.6080503463745117 -1.1652412414550781 3.7685630321502686 103 103 103
-0.6080503463745117 -1.1652412414550781 3.7685630321502686 103 103 103
-0.6250935196876526 0.2663213312625885 3.886418104171753 126 126 126
-0.6329911947250366 0.7105238437652588 3.9389708042144775 21 21 21
-0.6093415021896362 -1.2407344579696655 3.788766622543335 67 67 67
-0.6176307201385498 -0.2439885288476944 3.891505718231201 118 118 118
-0.5845080018043518 -1.873940110206604 3.6943893432617188 122 122 122
-0.5802991986274719 -1.7787706851959229 3.6774420738220215 58 58 58
-0.5871803760528564 -1.52211594581604 3.723515033721924 96 96 96
-0.5863056182861328 -1.6556388139724731 3.7239160537719727 73 73 73
-0.6199539303779602 0.8191061019897461 3.949991226196289 52 52 52
-0.5895187258720398 -1.0087088346481323 3.760741949081421 59 59 59
-0.5894190669059753 -1.4879368543624878 3.763307571411133 71 71 71
-0.6129986047744751 -0.3459937572479248 3.8522942066192627 69 69 69
-0.6129986047744751 -0.3459937572479248 3.8522942066192627 69 69 69
-0.6000064015388489 -0.015138568356633186 3.8649816513061523 113 113 113
-0.5940931439399719 -0.7911123633384705 3.8273282051086426 87 87 87
-0.6016907095909119 0.0660388320684433 3.911355972290039 59 59 59
-0.5973614454269409 0.5804553627967834 3.8899588584899902 129 129 129
-0.578366756439209 -0.8330925703048706 3.8177573680877686 82 82 82
-0.5733084082603455 -1.1332223415374756 3.7867395877838135 92 92 92
-0.5938911437988281 0.6524051427841187 3.947859525680542 104 104 104
-0.5803616642951965 -0.23593595623970032 3.872826099395752 113 113 113
-0.5965902209281921 0.7039067149162292 3.948336601257324 15 15 15
-0.582716166973114 0.9054447412490845 3.979884147644043 56 56 56
-0.5585440397262573 -1.6386737823486328 3.796424150466919 82 82 82
-0.5678146481513977 -2.0259602069854736 3.797822952270508 64 64 64
-0.5539063811302185 -1.29735267162323 3.8139283657073975 75 75 75
-0.5464706420898438 -1.4619221687316895 3.763831615447998 104 104 104
-0.5464337468147278 -1.6800483465194702 3.777618169784546 109 109 109
-0.5654476284980774 -0.10108631104230881 3.9361279010772705 66 66 66
-0.5658134818077087 1.6383824348449707 4.011890888214111 84 84 84
-0.582119882106781 1.6805869340896606 4.120400905609131 47 47 47
-0.582119882106781 1.6805869340896606 4.120400905609131 47 47 47
-0.5560890436172485 0.40680140256881714 3.966409206390381 134 134 134
-0.5633090734481812 1.492871642112732 4.060474872589111 116 116 116
-0.5504089593887329 0.12599362432956696 3.9673640727996826 113 113 113
-0.5262720584869385 -1.0288680791854858 3.848546028137207 83 83 83
-0.49790680408477783 -1.8328474760055542 3.6819422245025635 103 103 103
-0.49569448828697205 -1.8045088052749634 3.6825146675109863 113 113 113
-0.520672082901001 -0.9534028768539429 3.8826675415039062 98 98 98
-0.5207494497299194 -0.9548428058624268 3.8829383850097656 101 101 101
-0.5457005500793457 0.0629941076040268 4.031604766845703 79 79 79
-0.503826916217804 -1.5835415124893188 3.792529582977295 92 92 92
-0.5400098562240601 0.21998201310634613 4.019649982452393 140 140 140
-0.5254110097885132 -0.02097100205719471 3.96779203414917 112 112 112
-0.5075057744979858 -1.2238165140151978 3.857950448989868 118 118 118
-0.530832827091217 0.9128140807151794 4.043421745300293 50 50 50
-0.5206974148750305 0.40452566742897034 4.0014328956604 141 141 141
-0.5114563703536987 -0.602239191532135 3.945739984512329 38 38 38
-0.4722900390625 -1.8547143936157227 3.6739375591278076 33 33 33
-0.4722900390625 -1.8547143936157227 3.6739375591278076 33 33 33
-0.5196570754051208 0.7711526155471802 4.055078983306885 52 52 52
-0.49384263157844543 -1.4167261123657227 3.8752777576446533 23 23 23
-0.5186247825622559 1.2575887441635132 4.083423137664795 46 46 46
-0.5186247825622559 1.2575887441635132 4.083423137664795 46 46 46
-0.5089190602302551 0.28539738059043884 4.010970115661621 126 126 126
-0.5028843879699707 0.3990583121776581 4.037976264953613 179 179 179
-0.5042550563812256 1.3646845817565918 4.087562561035156 50 50 50
-0.49526479840278625 0.5277688503265381 4.047104358673096 12 12 12
-0.47148141264915466 -1.1561925411224365 3.860543727874756 102 102 102
-0.48930856585502625 0.049569617956876755 4.022496700286865 35 35 35
-0.48816442489624023 0.5889759063720703 4.053933143615723 58 58 58
-0.4806269109249115 0.2394907921552658 4.0259504318237305 134 134 134
-0.47601091861724854 -0.09473684430122375 4.016932487487793 133 133 133
-0.4544600248336792 -1.7737045288085938 3.8620166778564453 31 31 31
-0.4544600248336792 -1.7737045288085938 3.8620166778564453 31 31 31
-0.4544600248336792 -1.7737045288085938 3.8620166778564453 31 31 31
-0.43365854024887085 -1.8685405254364014 3.6968424320220947 103 103 103
-0.47816702723503113 0.7139011025428772 4.068778991699219 99 99 99
-0.48409461975097656 0.44939136505126953 4.057394027709961 118 118 118
-0.471346914768219 0.40181371569633484 4.030717372894287 145 145 145
-0.4580031633377075 -1.648770809173584 3.9338057041168213 99 99 99
-0.4614016115665436 -0.9368312358856201 3.940509557723999 45 45 45
-0.466174453496933 0.3191520869731903 4.058344841003418 163 163 163
-0.453412264585495 -0.6781103014945984 3.9538421630859375 96 96 96
-0.46343517303466797 1.2239724397659302 4.1424384117126465 46 46 46
-0.45686736702919006 0.8039669394493103 4.126391410827637 81 81 81
-0.4334164559841156 -1.6350282430648804 3.9145095348358154 77 77 77
-0.4515019357204437 0.41919776797294617 4.0818634033203125 102 102 102
-0.4323691725730896 1.0549982786178589 4.069406032562256 60 60 60
-0.4323691725730896 1.0549982786178589 4.069406032562256 60 60 60
-0.4438496530056 -0.2679877281188965 4.041601181030273 139 139 139
-0.44182178378105164 -0.2872295081615448 4.029480934143066 30 30 30
-0.4492731988430023 0.7595362663269043 4.120956897735596 75 75 75
-0.43748632073402405 -0.0944611057639122 4.037748336791992 137 137 137
-0.42854413390159607 -0.47750261425971985 3.989089012145996 114 114 114
-0.4322618544101715 0.48092570900917053 4.122443675994873 101 101 101
-0.4215086102485657 -0.5229290723800659 4.028675079345703 112 112 112
-0.4215086102485657 -0.5229290723800659 4.028675079345703 112 112 112
-0.4394342303276062 -0.11495909094810486 4.091543197631836 37 37 37
-0.4059236943721771 -1.2791450023651123 3.95243501663208 104 104 104
-0.42569229006767273 0.8476472496986389 4.171975612640381 2 2 2
-0.41928285360336304 -0.07093767076730728 4.088062763214111 102 102 102
-0.4235560894012451 0.8210111856460571 4.159152030944824 71 71 71
-0.4082927405834198 -0.5318583846092224 4.019643783569336 116 116 116
-0.39678552746772766 -1.1929107904434204 3.9660229682922363 106 106 106
-0.40878453850746155 -0.12123361974954605 4.092406272888184 43 43 43
-0.413745254278183 0.8008944392204285 4.151953220367432 58 58 58
-0.40427106618881226 -0.055635806173086166 4.101085662841797 99 99 99
-0.40684542059898376 0.9846989512443542 4.184326648712158 6 6 6
-0.40041542053222656 -0.17128229141235352 4.084466457366943 89 89 89
-0.40041542053222656 -0.17128229141235352 4.084466457366943 89 89 89
-0.3955307900905609 0.39483919739723206 4.119495391845703 65 65 65
-0.3805903196334839 -1.2272979021072388 3.983949899673462 71 71 71
-0.3929988741874695 0.39696168899536133 4.113674640655518 63 63 63
-0.38094842433929443 -1.8306562900543213 3.9915921688079834 85 85 85
-0.39304473996162415 0.7884758114814758 4.175351619720459 95 95 95
-0.3936915397644043 0.9487097859382629 4.206736087799072 80 80 80
-0.38662198185920715 0.6223763823509216 4.173393726348877 123 123 123
-0.3892492651939392 1.0307992696762085 4.2049455642700195 54 54 54
-0.3922935426235199 1.452791690826416 4.232475280761719 16 16 16
-0.3723528981208801 -0.7351838946342468 4.032566070556641 89 89 89
-0.3654225766658783 -1.6675443649291992 3.9740984439849854 62 62 62
-0.3800182640552521 0.9028250575065613 4.20242977142334 84 84 84
-0.3618602454662323 -1.2934646606445312 4.0158867835998535 103 103 103
-0.3618602454662323 -1.2934646606445312 4.0158867835998535 103 103 103
-0.3565548062324524 -0.9305726289749146 4.006847381591797 52 52 52
-0.3565548062324524 -0.9305726289749146 4.006847381591797 52 52 52
-0.3766542375087738 1.2595174312591553 4.23626184463501 77 77 77
-0.3636355996131897 0.3162008821964264 4.126709938049316 66 66 66
-0.3712276518344879 1.0414351224899292 4.208629608154297 64 64 64
-0.36679139733314514 0.7666355967521667 4.200775146484375 45 45 45
-0.3642980456352234 0.4520803689956665 4.181842803955078 50 50 50
-0.3667285144329071 0.7484124898910522 4.208794593811035 46 46 46
-0.33004558086395264 -1.7337042093276978 3.951894998550415 67 67 67
-0.3568015396595001 0.10683833807706833 4.142715930938721 70 70 70
-0.34809601306915283 -0.7386929988861084 4.116556167602539 90 90 90
-0.34809601306915283 -0.7386929988861084 4.116556167602539 90 90 90
-0.3587171733379364 0.9179842472076416 4.210189342498779 66 66 66
-0.3558139503002167 0.6017677783966064 4.230599403381348 83 83 83
-0.33545950055122375 -0.9385190606117249 4.047250270843506 57 57 57
-0.3315925896167755 -0.6651345491409302 4.089820861816406 89 89 89
-0.3267398774623871 -0.8172920942306519 4.080974102020264 105 105 105
-0.3267398774623871 -0.8172920942306519 4.080974102020264 105 105 105
-0.32806745171546936 -0.7181814908981323 4.084545135498047 103 103 103
-0.33772701025009155 0.41015079617500305 4.216484069824219 52 52 52
-0.3291074335575104 0.8795987367630005 4.208426475524902 71 71 71
-0.31175002455711365 0.5844977498054504 4.164271354675293 84 84 84
-0.31707778573036194 -0.3304605782032013 4.148105144500732 102 102 102
-0.3126121163368225 -0.7516064047813416 4.091867923736572 96 96 96
-0.3051323890686035 -0.9287895560264587 4.10408353805542 78 78 78
-0.3028949201107025 0.3745378255844116 4.230187892913818 113 113 113
-0.2954338788986206 -1.79342782497406 3.94486927986145 136 136 136
-0.3045891225337982 0.7554599642753601 4.274881839752197 67 67 67
-0.28299209475517273 -1.017575740814209 4.113690376281738 104 104 104
-0.28819867968559265 -0.07916520535945892 4.200839996337891 103 103 103
-0.2914826273918152 0.6295831799507141 4.269322872161865 67 67 67
-0.2696901261806488 -1.7875499725341797 3.9453272819519043 84 84 84
-0.29607468843460083 1.01557457447052 4.2960591316223145 52 52 52
-0.28953495621681213 0.6999549865722656 4.2831339836120605 44 44 44
-0.2745040953159332 -0.9116614460945129 4.135621547698975 69 69 69
-0.2745040953159332 -0.9116614460945129 4.135621547698975 69 69 69
-0.2733355164527893 0.5218909978866577 4.255864143371582 71 71 71
-0.2413213849067688 -1.3453565835952759 4.035851001739502 72 72 72
-0.2462303787469864 -1.3291805982589722 4.076491832733154 63 63 63
-0.25761425495147705 0.9528202414512634 4.29590368270874 15 15 15
-0.25093963742256165 -1.425999402999878 4.100874423980713 74 74 74
-0.23944708704948425 -1.7548288106918335 3.953685998916626 62 62 62
-0.25287625193595886 0.07557917386293411 4.248651027679443 64 64 64
-0.246659517288208 -0.23306573927402496 4.2091593742370605 107 107 107
-0.25157231092453003 0.6772423386573792 4.31567907333374 48 48 48
-0.25442540645599365 -0.9718267917633057 4.244117736816406 26 26 26
-0.2445969432592392 0.5949442982673645 4.326653003692627 48 48 48
-0.2353866696357727 -0.6875312328338623 4.1966681480407715 95 95 95
-0.2348569631576538 -0.4111500084400177 4.2195048332214355 95 95 95
-0.23780065774917603 0.13892176747322083 4.274250507354736 83 83 83
-0.23252981901168823 0.5523495078086853 4.324191570281982 53 53 53
-0.23193100094795227 0.839491605758667 4.348116397857666 55 55 55
-0.23193100094795227 0.839491605758667 4.348116397857666 55 55 55
-0.23253276944160461 0.9869740009307861 4.378112316131592 57 57 57
-0.22323593497276306 0.20417430996894836 4.307136058807373 56 56 56
-0.21687205135822296 -0.9877037405967712 4.219911098480225 80 80 80
-0.2156340628862381 -0.9861391186714172 4.215247631072998 80 80 80
-0.20878343284130096 -0.27408137917518616 4.266479015350342 94 94 94
-0.21265403926372528 -0.21446004509925842 4.266129016876221 73 73 73
-0.22950854897499084 -0.7318633198738098 4.2863898277282715 61 61 61
-0.21356633305549622 0.23141197860240936 4.297093391418457 58 58 58
-0.20565931499004364 -0.9414868950843811 4.193296432495117 90 90 90
-0.20768386125564575 -0.3599136769771576 4.278828144073486 89 89 89
-0.21066942811012268 0.5667179822921753 4.3408203125 73 73 73
-0.19779829680919647 0.3620874881744385 4.2716064453125 109 109 109
-0.20116432011127472 0.08559998869895935 4.294534206390381 62 62 62
-0.19858789443969727 0.15067289769649506 4.332040786743164 58 58 58
-0.19734501838684082 0.3991728127002716 4.342556476593018 122 122 122
-0.1930045783519745 -0.8048578500747681 4.263513565063477 50 50 50
-0.1930045783519745 -0.8048578500747681 4.263513565063477 50 50 50
-0.18838956952095032 -0.2752261459827423 4.281774044036865 72 72 72
-0.1853490173816681 -0.6773297786712646 4.234054088592529 85 85 85
-0.1853490173816681 -0.6773297786712646 4.234054088592529 85 85 85
-0.18809008598327637 0.05250240117311478 4.314125061035156 94 94 94
-0.182089164853096 0.5711955428123474 4.380827903747559 103 103 103
-0.17942669987678528 0.9232732057571411 4.323681831359863 24 24 24
-0.16347669064998627 -0.3167145550251007 4.242048740386963 59 59 59
-0.17259392142295837 0.7810490727424622 4.389224052429199 27 27 27
-0.1644754856824875 -0.962891161441803 4.234609127044678 42 42 42
-0.1644754856824875 -0.962891161441803 4.234609127044678 42 42 42
-0.1644754856824875 -0.962891161441803 4.234609127044678 42 42 42
-0.1703462153673172 0.3614099621772766 4.3501458168029785 55 55 55
-0.1701413094997406 0.12790106236934662 4.327311992645264 82 82 82
-0.1701413094997406 0.12790106236934662 4.327311992645264 82 82 82
-0.16340093314647675 -1.2565021514892578 4.197028160095215 94 94 94
-0.16389955580234528 0.15145769715309143 4.3818793296813965 51 51 51
-0.15385936200618744 0.6404101252555847 4.342837333679199 75 75 75
-0.1645008623600006 -0.9629637598991394 4.234893798828125 42 42 42
-0.15578417479991913 -0.22497911751270294 4.3236775398254395 75 75 75
-0.14494453370571136 0.6117512583732605 4.353704452514648 80 80 80
-0.15182287991046906 -0.2485276311635971 4.309995651245117 79 79 79
-0.14671239256858826 -1.043604850769043 4.249266147613525 104 104 104
-0.14645670354366302 -0.32798507809638977 4.33241081237793 26 26 26
-0.14548322558403015 0.24913913011550903 4.378012657165527 35 35 35
-0.14548322558403015 0.24913913011550903 4.378012657165527 35 35 35
-0.14219675958156586 0.029856158420443535 4.355253219604492 83 83 83
-0.14151790738105774 -0.23960883915424347 4.345233917236328 88 88 88
-0.1374405473470688 -0.09817124158143997 4.35174560546875 57 57 57
-0.13716812431812286 0.7073774933815002 4.3505096435546875 100 100 100
-0.128797709941864 -1.546088695526123 4.210219383239746 37 37 37
-0.12709493935108185 -0.19945082068443298 4.348058223724365 86 86 86
-0.11621226370334625 0.8806705474853516 4.349885940551758 79 79 79
-0.11515916138887405 0.8000034093856812 4.352853298187256 104 104 104
-0.11222074925899506 0.5702164173126221 4.320062160491943 128 128 128
-0.09466242045164108 0.06335794180631638 4.311500072479248 67 67 67
-0.11135077476501465 0.39721983671188354 4.444262981414795 78 78 78
-0.10268665105104446 0.6911191940307617 4.317202568054199 107 107 107
-0.08637607842683792 2.0443921089172363 3.9351301193237305 85 85 85
-0.09473934769630432 0.709265947341919 4.319241523742676 61 61 61
-0.09229255467653275 -0.5624521970748901 4.340940475463867 50 50 50
-0.09039721637964249 -0.07014059275388718 4.395946025848389 60 60 60
-0.09039721637964249 -0.07014059275388718 4.395946025848389 60 60 60
-0.08458846062421799 0.1967095136642456 4.43272066116333 37 37 37
-0.08458846062421799 0.1967095136642456 4.43272066116333 37 37 37
-0.08169975876808167 0.017288388684391975 4.410743713378906 44 44 44
-0.08049959689378738 -0.04742732644081116 4.416559219360352 41 41 41
-0.07727794349193573 0.9749072194099426 4.326417446136475 85 85 85
-0.06310288608074188 -0.1708366423845291 4.424343109130859 64 64 64
-0.07314430177211761 -0.46846017241477966 4.3692779541015625 64 64 64
-0.06342024356126785 0.11350757628679276 4.451530456542969 52 52 52
-0.05742010474205017 0.008309959433972836 4.443911075592041 57 57 57
-0.0469512902200222 0.25433436036109924 4.461296558380127 63 63 63
-0.05299104377627373 0.2831999659538269 4.472440242767334 59 59 59
-0.04373079910874367 0.19385352730751038 4.418776512145996 52 52 52
-0.04176376014947891 0.9658747315406799 4.302102565765381 107 107 107
-0.028316020965576172 0.6216066479682922 4.24757719039917 91 91 91
-0.01757192239165306 0.4364693760871887 4.455484390258789 32 32 32
-0.01757192239165306 0.4364693760871887 4.455484390258789 32 32 32
-0.007786276750266552 1.1121021509170532 4.298305988311768 69 69 69
-0.009586552157998085 0.6455999612808228 4.248301982879639 118 118 118
-0.006904075387865305 0.5803029537200928 4.216056823730469 122 122 122
-0.001099052606150508 0.8907021880149841 4.306514739990234 63 63 63
0.007923930883407593 0.8068298101425171 4.219423770904541 107 107 107
0.02320975624024868 1.0233519077301025 4.261476516723633 61 61 61
0.022745801135897636 -1.9684404134750366 3.859837055206299 57 57 57
0.04829226806759834 0.5742363333702087 4.134983539581299 117 117 117
0.053003013134002686 0.1716654896736145 4.353612899780273 29 29 29
0.043194033205509186 0.9530865550041199 4.225006580352783 46 46 46
0.05632251501083374 0.669672429561615 4.187160968780518 129 129 129
0.06093945726752281 1.0382323265075684 4.231517791748047 127 127 127
0.06316307187080383 0.8079442381858826 4.287349700927734 77 77 77
0.07143345475196838 -1.9567924737930298 3.7643649578094482 74 74 74
0.07226689159870148 0.4616926610469818 4.38446569442749 32 32 32
0.07273466885089874 1.002045750617981 4.2020673751831055 99 99 99
0.07783358544111252 0.7453879117965698 4.185940265655518 64 64 64
0.09025892615318298 0.6368201971054077 4.134566307067871 105 105 105
0.07897353917360306 -2.0818004608154297 3.804880142211914 45 45 45
0.09799824655056 0.6647471785545349 4.143161773681641 98 98 98
0.09070298820734024 1.0868147611618042 4.209357738494873 59 59 59
0.10261544585227966 0.9378612041473389 4.174109935760498 89 89 89
0.1054578647017479 0.6072441935539246 4.096490383148193 127 127 127
0.10830758512020111 -1.781451940536499 3.758435010910034 75 75 75
0.11184194684028625 -2.0169568061828613 3.777261972427368 78 78 78
0.1315269023180008 0.692634105682373 4.151058673858643 86 86 86
0.15599660575389862 0.475300133228302 4.333644866943359 35 35 35
0.148270383477211 1.0570802688598633 4.197019100189209 53 53 53
0.14322291314601898 -1.9957963228225708 3.7536075115203857 62 62 62
0.1701858788728714 1.2889008522033691 4.170111656188965 55 55 55
0.16452758014202118 0.9222393035888672 4.128946781158447 47 47 47
0.1669553816318512 0.6959660053253174 4.088083267211914 101 101 101
0.1778595745563507 1.374647855758667 4.167416572570801 56 56 56
0.16966673731803894 1.1453250646591187 4.155497074127197 21 21 21
0.168991819024086 -1.7657045125961304 3.7282488346099854 86 86 86
0.17738687992095947 1.0744785070419312 4.1257805824279785 92 92 92
0.18967340886592865 0.43447569012641907 4.26139497756958 11 11 11
0.1849922239780426 0.6608055830001831 4.075541973114014 128 128 128
0.19326922297477722 1.5325816869735718 4.175253391265869 50 50 50
0.19144581258296967 -1.8480513095855713 3.7470293045043945 88 88 88
0.20238886773586273 -1.7768720388412476 3.902076005935669 50 50 50
0.2197551131248474 -1.7567213773727417 3.7358176708221436 54 54 54
0.22741767764091492 0.6837741732597351 4.045747756958008 82 82 82
0.24185334146022797 1.0667376518249512 4.056279182434082 101 101 101
0.2078496366739273 -1.8682886362075806 3.6870951652526855 51 51 51
0.23156939446926117 0.7834266424179077 4.051079273223877 100 100 100
0.23749521374702454 1.1881706714630127 4.093014717102051 57 57 57
0.23502211272716522 0.6651987433433533 4.034901142120361 79 79 79
0.2432657927274704 0.813936173915863 4.098066329956055 9 9 9
0.24832674860954285 1.0431067943572998 4.0662360191345215 117 117 117
0.2530740201473236 0.6328684687614441 4.029930114746094 127 127 127
0.2594332993030548 1.2273777723312378 4.07457160949707 78 78 78
0.271475225687027 0.8796270489692688 4.046667575836182 58 58 58
0.2692824900150299 -1.7694405317306519 3.8647005558013916 46 46 46
0.29950815439224243 1.3362268209457397 4.059355735778809 96 96 96
0.29781806468963623 0.6817424893379211 3.984546661376953 125 125 125
0.3072494864463806 0.7982491254806519 4.004889011383057 95 95 95
0.31311026215553284 1.2578779458999634 4.044796943664551 77 77 77
0.31662219762802124 0.953027606010437 4.006487846374512 58 58 58
0.30540379881858826 -1.7570130825042725 3.8387694358825684 28 28 28
0.3203481137752533 1.3547160625457764 4.032592296600342 60 60 60
0.3239956200122833 0.7265795469284058 3.9975671768188477 103 103 103
0.3336957097053528 0.795464813709259 3.93969988822937 18 18 18
0.33561575412750244 1.6476670503616333 4.080548286437988 14 14 14
0.3357601761817932 1.0103965997695923 4.005516052246094 101 101 101
0.35814833641052246 0.8134788870811462 3.9749581813812256 48 48 48
0.35814833641052246 0.8134788870811462 3.9749581813812256 48 48 48
0.36670586466789246 1.6412110328674316 4.131392478942871 46 46 46
0.3563632667064667 0.8840606808662415 3.9710705280303955 68 68 68
0.35761380195617676 0.5724519491195679 3.936245918273926 174 174 174
0.3731227219104767 1.0465773344039917 3.965348720550537 108 108 108
0.36547285318374634 -1.7543253898620605 3.6521220207214355 33 33 33
0.3959599733352661 0.9802143573760986 3.9439597129821777 87 87 87
0.3994743227958679 0.6602464318275452 3.9153764247894287 123 123 123
0.4069907069206238 0.8809608817100525 3.9337949752807617 87 87 87
0.420560747385025 1.9112625122070312 4.026060581207275 57 57 57
0.4364888072013855 1.099085807800293 3.911162853240967 122 122 122
0.4364888072013855 1.099085807800293 3.911162853240967 122 122 122
0.3925013840198517 -1.735640525817871 3.5610904693603516 92 92 92
0.41613030433654785 -1.6798990964889526 3.857020378112793 86 86 86
0.45156964659690857 0.5282658934593201 4.090099334716797 42 42 42
0.43497902154922485 0.8174992799758911 3.893059253692627 33 33 33
0.4484356939792633 1.5366662740707397 3.9601058959960938 60 60 60
0.45399579405784607 0.967677116394043 3.905970573425293 62 62 62
0.45627713203430176 0.8255318999290466 3.889023542404175 25 25 25
0.4610152244567871 -1.6637648344039917 3.787992000579834 38 38 38
0.4761660397052765 1.018226146697998 3.90128231048584 104 104 104
0.4863484501838684 1.7145342826843262 3.952082633972168 72 72 72
0.47859686613082886 1.2245326042175293 3.927396059036255 103 103 103
0.4929535686969757 1.1881780624389648 3.9028873443603516 17 17 17
0.4929535686969757 1.1881780624389648 3.9028873443603516 17 17 17
0.49068352580070496 1.2479833364486694 3.8532068729400635 70 70 70
0.4896460473537445 0.6562913060188293 3.826526403427124 146 146 146
0.4896460473537445 0.6562913060188293 3.826526403427124 146 146 146
0.5055145025253296 1.189182996749878 3.8790154457092285 26 26 26
0.5042670965194702 1.2244410514831543 3.863856554031372 64 64 64
0.5125149488449097 1.4837032556533813 3.897705316543579 27 27 27
0.50762939453125 0.8297057747840881 3.8496944904327393 23 23 23
0.5201148986816406 1.6268686056137085 3.9314987659454346 45 45 45
0.45865491032600403 -1.7999721765518188 3.506148099899292 81 81 81
0.45865491032600403 -1.7999721765518188 3.506148099899292 81 81 81
0.5397005677223206 0.5102697610855103 4.032526016235352 54 54 54
0.5357897281646729 0.9429083466529846 3.8357696533203125 100 100 100
0.5357897281646729 0.9429083466529846 3.8357696533203125 100 100 100
0.49029111862182617 -1.7526713609695435 3.5347959995269775 35 35 35
0.5560618042945862 0.4122961163520813 3.9644312858581543 68 68 68
0.5337260365486145 0.6234927177429199 3.783869981765747 107 107 107
0.565128743648529 0.9817652106285095 3.839721441268921 94 94 94
0.5608100891113281 0.8984700441360474 3.8007330894470215 67 67 67
0.5590922832489014 0.8404433727264404 3.8156840801239014 14 14 14
0.5590970516204834 0.8404293656349182 3.815621852874756 14 14 14
0.5626703500747681 0.6887872815132141 3.7661244869232178 80 80 80
0.5934925079345703 1.9896290302276611 3.9057013988494873 34 34 34
0.5903431177139282 1.8566126823425293 3.8550102710723877 55 55 55
0.6087735891342163 0.5555117726325989 3.9589219093322754 87 87 87
0.5854311585426331 0.8368450999259949 3.780876636505127 40 40 40
0.6061046719551086 1.4356695413589478 3.7957472801208496 47 47 47
0.6084586381912231 0.957269549369812 3.786017417907715 56 56 56
0.6140730381011963 1.3832296133041382 3.8090627193450928 82 82 82
0.644997775554657 1.5976070165634155 3.8054239749908447 107 107 107
0.6326068043708801 1.0579520463943481 3.748286724090576 51 51 51
0.6676780581474304 0.447209894657135 3.940396308898926 29 29 29
0.6420596837997437 1.1302992105484009 3.776512384414673 43 43 43
0.6440190672874451 1.4483838081359863 3.7744994163513184 79 79 79
0.6684304475784302 1.8152109384536743 3.8361072540283203 73 73 73
0.6578134894371033 1.1957484483718872 3.766357660293579 22 22 22
0.6476600766181946 0.7112683057785034 3.7009122371673584 88 88 88
0.6535753607749939 1.1568522453308105 3.750425100326538 33 33 33
0.6974191069602966 1.6076492071151733 3.8177502155303955 63 63 63
0.6802193522453308 1.0116479396820068 3.7203903198242188 65 65 65
0.6936742663383484 1.2840838432312012 3.73657488822937 99 99 99
0.6850680708885193 -1.5426968336105347 3.6068220138549805 67 67 67
0.7033318877220154 1.236954927444458 3.6966090202331543 80 80 80
0.7353174686431885 0.5378941893577576 3.872053861618042 55 55 55
0.6989193558692932 0.7914252281188965 3.676241397857666 92 92 92
0.707728385925293 0.9571735262870789 3.6998186111450195 51 51 51
0.7217053174972534 1.1889593601226807 3.701852560043335 90 90 90
0.7217053174972534 1.1889593601226807 3.701852560043335 90 90 90
0.7217053174972534 1.1889593601226807 3.701852560043335 90 90 90
0.7303357720375061 0.5891621112823486 3.7456319332122803 106 106 106
0.7377499341964722 1.8898227214813232 3.7930095195770264 42 42 42
0.7229825258255005 1.0955678224563599 3.6832993030548096 40 40 40
0.732664167881012 0.8515752553939819 3.6465401649475098 23 23 23
0.7318245768547058 1.2164580821990967 3.715847969055176 19 19 19
0.7266880869865417 0.7484297752380371 3.653961658477783 99 99 99
0.7243759036064148 0.6791685223579407 3.6410489082336426 71 71 71
0.7305784225463867 1.0203558206558228 3.673196792602539 59 59 59
0.7413170337677002 -0.07132560759782791 3.7095584869384766 43 43 43
0.7361487746238708 0.9862130880355835 3.6630191802978516 50 50 50
0.7391374707221985 0.7758718132972717 3.644268274307251 77 77 77
0.7460350394248962 -0.48083022236824036 3.7008559703826904 95 95 95
0.7524971961975098 -0.4519657790660858 3.7104527950286865 79 79 79
0.7527419328689575 1.424765944480896 3.7006940841674805 82 82 82
0.7613914608955383 1.759411334991455 3.7287790775299072 56 56 56
0.7647776007652283 -0.06292293965816498 3.740368366241455 36 36 36
0.7728750705718994 1.7823987007141113 3.754574775695801 65 65 65
0.7477383613586426 0.7574136257171631 3.624988317489624 67 67 67
0.7947016954421997 0.525727391242981 3.812041997909546 56 56 56
0.7640531063079834 1.1558407545089722 3.6546270847320557 46 46 46
0.7747843861579895 -0.6575958728790283 3.646766185760498 87 87 87
0.7857041954994202 -0.36035388708114624 3.6916112899780273 66 66 66
0.79254549741745 1.6628817319869995 3.6601433753967285 79 79 79
0.780979335308075 0.9297622442245483 3.6059799194335938 59 59 59
0.8045042157173157 0.1756160706281662 3.7363014221191406 38 38 38
0.7980665564537048 -0.23768183588981628 3.690986394882202 42 42 42
0.7980665564537048 -0.23768183588981628 3.690986394882202 42 42 42
0.8044084310531616 -0.04183533787727356 3.712735414505005 32 32 32
0.7816942930221558 0.6951924562454224 3.5922224521636963 70 70 70
0.7962676882743835 1.0967154502868652 3.650182008743286 58 58 58
0.7964962124824524 0.9017894268035889 3.602640151977539 136 136 136
0.8070193529129028 -0.44064876437187195 3.6503260135650635 112 112 112
0.8294752240180969 0.5962392091751099 3.7416791915893555 107 107 107
0.7818060517311096 -1.5629165172576904 3.517920732498169 47 47 47
0.8119094371795654 1.1829936504364014 3.6213488578796387 57 57 57
0.8210828900337219 1.5218896865844727 3.6541340351104736 93 93 93
0.8259245157241821 0.2509114444255829 3.73013973236084 73 73 73
0.7928927540779114 -1.5984212160110474 3.527775526046753 17 17 17
0.8384667038917542 0.23596999049186707 3.715147018432617 30 30 30
0.81766676902771 1.2581892013549805 3.620234966278076 116 116 116
0.83370441198349 0.07284325361251831 3.6888554096221924 37 37 37
0.8312781453132629 1.748546838760376 3.6659739017486572 57 57 57
0.8296607136726379 -0.1924545019865036 3.662623167037964 38 38 38
0.8257680535316467 -0.32381460070610046 3.645564079284668 47 47 47
0.8382334113121033 0.16556839644908905 3.7010385990142822 38 38 38
0.8618820309638977 -0.24910244345664978 3.8019168376922607 38 38 38
0.8264643549919128 -0.3628581166267395 3.6377313137054443 49 49 49
0.8290863633155823 1.2972661256790161 3.6170260906219482 134 134 134
0.8316035270690918 1.347737431526184 3.627697467803955 117 117 117
0.8193155527114868 -0.8593669533729553 3.559962272644043 44 44 44
0.8615521192550659 0.5617344379425049 3.7370500564575195 31 31 31
0.8494217991828918 0.2433786690235138 3.725609064102173 44 44 44
0.8468886017799377 -0.06416159123182297 3.6582868099212646 76 76 76
0.8504644632339478 -0.139569491147995 3.64819598197937 63 63 63
0.8466459512710571 1.7213585376739502 3.6624045372009277 97 97 97
0.8666101098060608 0.17732813954353333 3.692460775375366 49 49 49
0.8416112661361694 -1.1728732585906982 3.579119920730591 42 42 42
0.8677659630775452 0.007021872326731682 3.7225282192230225 62 62 62
0.8714743852615356 -0.14014415442943573 3.6577208042144775 42 42 42
0.8603450059890747 1.3377925157546997 3.592798948287964 142 142 142
0.8523350358009338 0.9681070446968079 3.5612106323242188 36 36 36
0.8714834451675415 -0.44775334000587463 3.640115261077881 208 208 208
0.8664342164993286 0.8779670596122742 3.549044609069824 43 43 43
0.8906123638153076 1.6697988510131836 3.664292812347412 90 90 90
0.8682989478111267 -1.2946547269821167 3.543405055999756 22 22 22
0.8638829588890076 -1.5221636295318604 3.505836248397827 18 18 18
0.8904104828834534 1.542028784751892 3.599564790725708 119 119 119
0.8902633190155029 1.5927026271820068 3.5958282947540283 119 119 119
0.9536530375480652 0.48184454441070557 3.8496055603027344 31 31 31
0.892203152179718 -0.8378174901008606 3.593092203140259 38 38 38
0.8805100917816162 0.943030059337616 3.540821075439453 40 40 40
0.8894931077957153 1.3448271751403809 3.5671546459198 141 141 141
0.8876187205314636 1.4931203126907349 3.597954750061035 120 120 120
0.9429558515548706 0.4974297881126404 3.78781795501709 90 90 90
0.9022734761238098 1.2155286073684692 3.570554494857788 49 49 49
0.9603055119514465 -0.09919631481170654 3.812451124191284 50 50 50
0.895643949508667 0.6770381927490234 3.5040106773376465 76 76 76
0.9117304682731628 1.467488169670105 3.578341007232666 95 95 95
0.9062036275863647 1.0244492292404175 3.5380232334136963 57 57 57
0.9175423383712769 1.5881582498550415 3.5728349685668945 114 114 114
0.9070338010787964 1.0146491527557373 3.5284643173217773 50 50 50
0.9080883860588074 1.0862538814544678 3.5294082164764404 80 80 80
0.9021371006965637 1.0261033773422241 3.4908876419067383 47 47 47
0.9129106998443604 0.9476544857025146 3.5324227809906006 42 42 42
0.915835440158844 1.3217220306396484 3.5168869495391846 141 141 141
0.928745687007904 -0.720511257648468 3.5910730361938477 40 40 40
0.9160370826721191 1.389695167541504 3.534263849258423 37 37 37
0.9177529811859131 1.1217892169952393 3.51544451713562 37 37 37
0.933749794960022 -0.8401192426681519 3.574089527130127 35 35 35
0.9587464928627014 -0.6871604323387146 3.6908342838287354 103 103 103
0.9152500629425049 0.7513110637664795 3.4954800605773926 74 74 74
0.9345700740814209 1.607155442237854 3.5611653327941895 112 112 112
0.9208588600158691 0.8531763553619385 3.50175404548645 81 81 81
0.9315435290336609 1.2477136850357056 3.5486514568328857 44 44 44
0.963810384273529 0.5646345019340515 3.6615326404571533 109 109 109
0.9527425169944763 1.4714162349700928 3.606271266937256 110 110 110
0.9532298445701599 1.4730926752090454 3.60831618309021 110 110 110
1.014559268951416 0.43582209944725037 3.841503620147705 116 116 116
0.9917718768119812 -0.6331130862236023 3.712005376815796 64 64 64
0.9513945579528809 -0.8490116596221924 3.5589308738708496 20 20 20
0.9646495580673218 0.5753974914550781 3.5999655723571777 45 45 45
0.9360862374305725 0.7462648749351501 3.482548236846924 88 88 88
