ply
format ascii 1.0
element vertex 710
property float x
property float y
property float z
property uchar red
property uchar green
property uchar blue
end_header
-1.5695337057113647 2.556429147720337 7.27299165725708 60 60 60
-1.4787392616271973 0.3938235640525818 6.847402095794678 71 71 71
-1.2846641540527344 -1.6543000936508179 5.955272197723389 91 91 91
-1.4234211444854736 -0.07044120877981186 6.589292049407959 79 79 79
-1.487901210784912 0.5594611167907715 6.893369674682617 54 54 54
-1.597423791885376 1.2978649139404297 7.423671722412109 34 34 34
-1.331404447555542 -0.7584270238876343 6.266826629638672 60 60 60
-1.3869825601577759 -0.3206007182598114 6.514561653137207 18 18 18
-1.3134151697158813 -1.9336447715759277 6.256648540496826 54 54 54
-1.520650863647461 2.4798901081085205 7.258918762207031 51 51 51
-1.460449457168579 1.434071660041809 7.004587173461914 5 5 5
-1.2880871295928955 2.8631176948547363 6.263126850128174 68 68 68
-1.4219709634780884 1.806615948677063 6.990540504455566 71 71 71
-1.2704287767410278 -1.3332042694091797 6.258622646331787 64 64 64
-1.443945288658142 2.4296793937683105 7.131585597991943 66 66 66
-1.3433873653411865 -2.6961686611175537 6.61923360824585 34 34 34
-1.3151915073394775 0.13109047710895538 6.547940254211426 64 64 64
-1.2626456022262573 -0.8067194223403931 6.367018699645996 68 68 68
-1.2832367420196533 -0.4265826940536499 6.467213153839111 72 72 72
-1.3338572978973389 1.1156895160675049 6.867530822753906 80 80 80
-1.0072590112686157 -1.1725757122039795 5.305765151977539 60 60 60
-1.247130036354065 -0.05580788105726242 6.44198751449585 85 85 85
-1.300264596939087 1.3305206298828125 6.798925876617432 59 59 59
-1.1540329456329346 2.8756461143493652 6.084804534912109 49 49 49
-1.1849455833435059 -0.23632290959358215 6.240050315856934 62 62 62
-1.0856913328170776 -1.6234277486801147 5.736267566680908 52 52 52
-1.116910457611084 -2.2403128147125244 5.893006801605225 51 51 51
-1.2827997207641602 -2.4033682346343994 6.793460369110107 62 62 62
-1.1633358001708984 -1.159461259841919 6.177227973937988 83 83 83
-1.142565131187439 -2.936164617538452 6.056367874145508 48 48 48
-1.2514375448226929 0.96101975440979 6.683006763458252 64 64 64
-1.1354992389678955 -1.263137698173523 6.111052989959717 45 45 45
-1.1599308252334595 -1.5031769275665283 6.260573863983154 48 48 48
-1.1343196630477905 -1.7302523851394653 6.232480049133301 62 62 62
-1.1713420152664185 -1.352668285369873 6.375216007232666 31 31 31
-1.1164048910140991 -0.7759186625480652 6.103360176086426 69 69 69
-0.9488667249679565 -1.8162904977798462 5.18227481842041 74 74 74
-1.1544886827468872 0.16066186130046844 6.3575215339660645 88 88 88
-1.1047487258911133 -1.6737117767333984 6.191821098327637 118 118 118
-1.0321605205535889 -0.5957817435264587 5.955315589904785 77 77 77
-1.0071905851364136 -0.48903632164001465 6.071795463562012 72 72 72
-1.0789227485656738 2.183347225189209 6.452210426330566 25 25 25
-1.0463112592697144 -0.2144998013973236 6.245518684387207 62 62 62
-1.0106960535049438 -0.5360283851623535 6.02138090133667 102 102 102
-1.0171977281570435 -0.16731904447078705 6.063732624053955 77 77 77
-0.9879900217056274 -0.7882663011550903 5.894517421722412 75 75 75
-1.0791981220245361 2.849681854248047 6.495123863220215 53 53 53
-1.0643638372421265 1.035847544670105 6.427499771118164 19 19 19
-1.0466198921203613 -1.7033315896987915 6.320189952850342 66 66 66
-0.9921196699142456 -0.2197180837392807 6.122106552124023 65 65 65
-0.9770616888999939 -1.6647615432739258 6.178044319152832 45 45 45
-0.9770616888999939 -1.6647615432739258 6.178044319152832 45 45 45
-1.049929141998291 -1.5637342929840088 6.545928955078125 27 27 27
-0.9610223770141602 -0.6993699073791504 5.999609470367432 75 75 75
-0.9610223770141602 -0.6993699073791504 5.999609470367432 75 75 75
-1.0312801599502563 1.78537917137146 6.523502349853516 63 63 63
-0.9138215184211731 -0.9262211322784424 5.777717113494873 77 77 77
-1.0219528675079346 -1.6726301908493042 6.534023284912109 32 32 32
-0.9565509557723999 0.16170555353164673 6.162595748901367 62 62 62
-0.887438178062439 2.874159097671509 5.765973091125488 102 102 102
-0.9099651575088501 -2.1054739952087402 5.924981117248535 73 73 73
-0.9589194059371948 0.5459638833999634 6.2401909828186035 59 59 59
-0.9819080829620361 2.2696399688720703 6.5497283935546875 7 7 7
-0.9819080829620361 2.2696399688720703 6.5497283935546875 7 7 7
-0.9052845239639282 -0.4477390944957733 6.099177837371826 83 83 83
-0.8421130180358887 -0.7787036895751953 5.697765827178955 77 77 77
-0.7574111819267273 -1.7783442735671997 5.157787322998047 80 80 80
-0.82621830701828 -2.6311752796173096 5.637266635894775 69 69 69
-0.8465675115585327 0.1737688183784485 5.845569610595703 79 79 79
-0.9491177797317505 1.755329966545105 6.395558834075928 78 78 78
-0.8475934863090515 -2.7273337841033936 5.789064884185791 46 46 46
-0.8308952450752258 -0.4995373785495758 5.805520057678223 71 71 71
-0.8220365643501282 -0.8272401094436646 5.6803297996521 42 42 42
-0.8259512186050415 -0.5375296473503113 5.831099510192871 114 114 114
-0.8397999405860901 -0.22502072155475616 5.929080963134766 68 68 68
-0.7979862093925476 -0.8825880885124207 5.6734113693237305 84 84 84
-0.8692361116409302 0.2298348844051361 6.16547966003418 69 69 69
-0.8452537655830383 0.1509171724319458 6.017247200012207 67 67 67
-0.8655269742012024 0.6721335053443909 6.183075904846191 176 176 176
-0.7657270431518555 -1.280475378036499 5.535148620605469 17 17 17
-0.8774072527885437 1.6589820384979248 6.345503330230713 69 69 69
-0.8280739188194275 0.7699486613273621 6.019645690917969 66 66 66
-0.8280739188194275 0.7699486613273621 6.019645690917969 66 66 66
-0.7857431769371033 -0.5918327569961548 5.777102470397949 96 96 96
-0.8280742764472961 0.7699482440948486 6.019643783569336 66 66 66
-0.8558565378189087 2.753085136413574 6.452637672424316 50 50 50
-0.7869780659675598 0.1875094175338745 5.923503398895264 66 66 66
-0.7476009130477905 -0.7614462971687317 5.700720310211182 81 81 81
-0.7476009130477905 -0.7614462971687317 5.700720310211182 81 81 81
-0.8289629817008972 1.7087249755859375 6.197143077850342 82 82 82
-0.792452335357666 0.7849162220954895 6.093899250030518 62 62 62
-0.749642550945282 -0.5384863018989563 5.742519855499268 79 79 79
-0.7216829061508179 -1.1460391283035278 5.5645599365234375 99 99 99
-0.7705725431442261 -2.0173909664154053 5.965206623077393 31 31 31
-0.8455357551574707 1.847655177116394 6.591186046600342 68 68 68
-0.6812021136283875 -2.0457851886749268 5.30340051651001 112 112 112
-0.7067124247550964 -1.047168493270874 5.585297584533691 108 108 108
-0.5945014357566833 -1.6839783191680908 4.763683319091797 102 102 102
-0.6695190072059631 -0.9908730387687683 5.47554349899292 26 26 26
-0.6214585900306702 -1.529883861541748 5.081912517547607 20 20 20
-0.7231336236000061 0.521255373954773 5.946426868438721 63 63 63
-0.7604305744171143 2.808906078338623 6.301479816436768 73 73 73
-0.7070509791374207 -2.2718312740325928 5.8970046043396 105 105 105
-0.6239554286003113 -1.1297881603240967 5.352624893188477 114 114 114
-0.6612511873245239 -0.5715826749801636 5.664856433868408 97 97 97
-0.659683108329773 -0.09379440546035767 5.781188011169434 53 53 53
-0.6242833137512207 2.852097511291504 5.543442726135254 127 127 127
-0.6881385445594788 -1.9451133012771606 6.0890398025512695 37 37 37
-0.6542595624923706 0.8625591397285461 5.955926895141602 16 16 16
-0.6171300411224365 -0.8116737604141235 5.419070720672607 100 100 100
-0.6621717214584351 1.2537742853164673 6.003443241119385 19 19 19
-0.6621717214584351 1.2537742853164673 6.003443241119385 19 19 19
-0.568017303943634 -1.1183350086212158 5.156726837158203 11 11 11
-0.6100531220436096 -0.9447343349456787 5.5800299644470215 78 78 78
-0.6111606955528259 -2.213369846343994 5.442361831665039 92 92 92
-0.697387158870697 2.283595323562622 6.227531909942627 22 22 22
-0.6445583701133728 1.0976641178131104 5.971614360809326 65 65 65
-0.4894562363624573 -1.2439956665039062 4.614242076873779 136 136 136
-0.5132194757461548 -1.1693588495254517 4.860897541046143 108 108 108
-0.6048645377159119 0.8935146927833557 5.84669828414917 97 97 97
-0.5923493504524231 0.37452995777130127 5.782660007476807 67 67 67
-0.5943770408630371 1.2931300401687622 5.857821941375732 66 66 66
-0.5995451807975769 1.0028655529022217 5.906448841094971 91 91 91
-0.601179838180542 2.8073618412017822 6.165754795074463 60 60 60
-0.5364052057266235 -0.5999231934547424 5.530814170837402 79 79 79
-0.5644158720970154 -1.5743895769119263 5.880087375640869 117 117 117
-0.519761323928833 -0.9388939142227173 5.425727367401123 83 83 83
-0.5426617860794067 0.10714566707611084 5.673301696777344 10 10 10
-0.5188738703727722 -0.7435739636421204 5.518276214599609 87 87 87
-0.5488911867141724 1.0959504842758179 5.875483512878418 66 66 66
-0.5277306437492371 -0.3532505929470062 5.6236701011657715 73 73 73
-0.3448736071586609 -1.0635972023010254 3.779024124145508 138 138 138
-0.5411738157272339 1.0229462385177612 5.951993465423584 63 63 63
-0.5228381156921387 0.9309641718864441 5.793875694274902 62 62 62
-0.4862200915813446 -2.695615768432617 5.555999755859375 97 97 97
-0.4814499020576477 -1.451546549797058 5.448816299438477 93 93 93
-0.4814499020576477 -1.451546549797058 5.448816299438477 93 93 93
-0.46538057923316956 -2.443406343460083 5.270395755767822 38 38 38
-0.46538057923316956 -2.443406343460083 5.270395755767822 38 38 38
-0.3365514576435089 -1.0569465160369873 3.8243234157562256 85 85 85
-0.3365514576435089 -1.0569465160369873 3.8243234157562256 85 85 85
-0.5278175473213196 -2.4680323600769043 5.916557312011719 95 95 95
-0.5081261992454529 0.40614861249923706 5.769321918487549 84 84 84
-0.4534749984741211 -0.9932540059089661 5.304396152496338 58 58 58
-0.5103458762168884 2.798900842666626 5.965464115142822 62 62 62
-0.48452872037887573 -2.092932939529419 5.662686347961426 113 113 113
-0.389629989862442 -1.1552997827529907 4.483080863952637 152 152 152
-0.4975772500038147 1.677790880203247 5.9286627769470215 124 124 124
-0.49554648995399475 1.5834598541259766 5.916139602661133 48 48 48
-0.47393912076950073 0.6692747473716736 5.651792526245117 14 14 14
-0.4816809594631195 1.468422293663025 5.830691337585449 23 23 23
-0.45984458923339844 0.22406862676143646 5.610235214233398 97 97 97
-0.48187610507011414 1.6527605056762695 5.945784568786621 77 77 77
-0.4317377805709839 -2.384970188140869 5.151071548461914 73 73 73
-0.47117185592651367 1.6792711019515991 5.825714111328125 63 63 63
-0.5500150322914124 -2.3671505451202393 6.925940036773682 125 125 125
-0.46243104338645935 2.509469985961914 5.903085708618164 51 51 51
-0.41889655590057373 -0.9907692074775696 5.410287857055664 98 98 98
-0.4260704815387726 0.16826698184013367 5.524008750915527 98 98 98
-0.4502260386943817 -2.504375696182251 5.895369529724121 84 84 84
-0.4502260386943817 -2.504375696182251 5.895369529724121 84 84 84
-0.43180710077285767 1.1001932621002197 5.696897506713867 93 93 93
-0.36436253786087036 -2.60245418548584 5.109046459197998 48 48 48
-0.39217787981033325 0.3413984775543213 5.517346382141113 86 86 86
-0.3775351047515869 -0.9271456003189087 5.336053848266602 93 93 93
-0.3655170798301697 -1.8508857488632202 5.259157180786133 129 129 129
-0.38030749559402466 0.006869961973279715 5.468745708465576 107 107 107
-0.38030749559402466 0.006869961973279715 5.468745708465576 107 107 107
-0.39614978432655334 1.9352222681045532 5.7734527587890625 79 79 79
-0.39758211374282837 2.2265968322753906 5.83851957321167 60 60 60
-0.37805062532424927 -0.39674273133277893 5.535589694976807 96 96 96
-0.36475780606269836 0.7259859442710876 5.472682476043701 82 82 82
-0.32721778750419617 -0.6497192978858948 4.98008918762207 114 114 114
-0.34519830346107483 -0.06896161288022995 5.4562273025512695 51 51 51
-0.3295193314552307 -1.0810848474502563 5.2205681800842285 121 121 121
-0.3089345395565033 -1.1822601556777954 4.886567115783691 104 104 104
-0.30610668659210205 -1.2178022861480713 4.9388298988342285 112 112 112
-0.3193033039569855 -0.790063738822937 5.294886112213135 141 141 141
-0.3135331869125366 -0.7794911861419678 5.205443382263184 141 141 141
-0.22705283761024475 -1.410681962966919 3.9210662841796875 78 78 78
-0.31534960865974426 -0.12478215247392654 5.368812084197998 80 80 80
-0.3668637275695801 -2.052905559539795 6.365382194519043 129 129 129
-0.3095861077308655 -0.5804186463356018 5.360682487487793 82 82 82
-0.30889254808425903 0.9294342994689941 5.4987921714782715 65 65 65
-0.27954888343811035 -2.3755557537078857 4.967094898223877 36 36 36
-0.266860693693161 -2.4501240253448486 4.889304161071777 75 75 75
-0.30659249424934387 2.1071691513061523 5.743519306182861 42 42 42
-0.29959210753440857 1.6323190927505493 5.681721210479736 69 69 69
-0.27515071630477905 -1.043546438217163 5.210869789123535 72 72 72
-0.2880738079547882 0.6004623174667358 5.470556259155273 89 89 89
-0.2888091802597046 1.5965607166290283 5.700497627258301 76 76 76
-0.2822076976299286 -2.3704380989074707 5.623499870300293 94 94 94
-0.27611321210861206 1.2178066968917847 5.633127689361572 52 52 52
-0.25748488306999207 -2.034177303314209 5.232006072998047 108 108 108
-0.24862419068813324 -2.409637451171875 5.179553985595703 84 84 84
-0.2628389298915863 1.096134066581726 5.582315921783447 55 55 55
-0.261514812707901 0.6123940348625183 5.509011745452881 87 87 87
-0.3080855906009674 -1.9609586000442505 6.578425407409668 47 47 47
-0.3080855906009674 -1.9609586000442505 6.578425407409668 47 47 47
-0.2241830974817276 -0.8496251702308655 5.340985298156738 85 85 85
-0.23291878402233124 -1.512202501296997 5.587944030761719 81 81 81
-0.22983519732952118 -1.1420247554779053 5.070336818695068 69 69 69
-0.24875466525554657 -1.143690824508667 5.961846828460693 53 53 53
-0.22938407957553864 -0.6956940293312073 5.517171382904053 77 77 77
-0.2036772519350052 -2.2818245887756348 5.010533809661865 105 105 105
-0.23392096161842346 2.8074464797973633 5.914702415466309 61 61 61
-0.22323788702487946 -0.3313785493373871 5.497494220733643 61 61 61
-0.22732985019683838 2.779963970184326 5.799810409545898 79 79 79
-0.22314907610416412 0.0692974403500557 5.604439735412598 57 57 57
-0.22521987557411194 0.979605495929718 5.533546447753906 53 53 53
-0.24292221665382385 -1.798695683479309 6.157199859619141 97 97 97
-0.21571221947669983 0.7395649552345276 5.500479221343994 54 54 54
-0.22026093304157257 1.9898436069488525 5.8228325843811035 36 36 36
-0.18395204842090607 -2.402282476425171 4.9469122886657715 65 65 65
-0.1973446160554886 -1.9518378973007202 5.576630592346191 46 46 46
-0.16056425869464874 -1.4372828006744385 4.543973922729492 109 109 109
-0.193614661693573 -0.4113568365573883 5.485472679138184 64 64 64
-0.1965409368276596 2.217477321624756 5.823229789733887 39 39 39
-0.17215147614479065 -2.382662534713745 5.117061138153076 81 81 81
-0.191059872508049 -1.489423155784607 5.665925979614258 78 78 78
-0.18112383782863617 -1.3426953554153442 5.504022121429443 101 101 101
-0.16447927057743073 -1.2331808805465698 5.808226585388184 160 160 160
-0.17483742535114288 -0.10904664546251297 5.547919273376465 59 59 59
-0.1713685840368271 -1.1064780950546265 5.5184221267700195 84 84 84
-0.17707908153533936 2.16292405128479 5.8861541748046875 41 41 41
-0.16608871519565582 -0.4275447130203247 5.539821147918701 69 69 69
-0.17548470199108124 -0.9053866863250732 5.957818031311035 81 81 81
-0.16066235303878784 -0.24254558980464935 5.505411624908447 91 91 91
-0.14765417575836182 -1.8947460651397705 5.186718463897705 32 32 32
-0.15436774492263794 2.546719789505005 5.876943588256836 49 49 49
-0.1404218077659607 -1.923756718635559 5.357799053192139 51 51 51
-0.14781072735786438 2.7822165489196777 5.7220964431762695 86 86 86
-0.12840619683265686 0.6582714915275574 5.6353960037231445 155 155 155
-0.13021254539489746 0.09663957357406616 5.5730695724487305 96 96 96
-0.10950952768325806 -2.424497365951538 4.853769779205322 43 43 43
-0.14067378640174866 1.2902934551239014 5.567723751068115 105 105 105
-0.12812615931034088 2.757708787918091 5.915657997131348 71 71 71
-0.12370506674051285 -1.9120919704437256 5.61890983581543 56 56 56
-0.12367144227027893 1.8459886312484741 5.92997932434082 96 96 96
-0.09555940330028534 -2.398452043533325 4.746737003326416 63 63 63
-0.10540865361690521 -1.8086261749267578 5.495436668395996 154 154 154
-0.10623268783092499 -0.23913800716400146 5.707949638366699 139 139 139
-0.09945361316204071 2.69720196723938 5.628489017486572 122 122 122
-0.09945361316204071 2.69720196723938 5.628489017486572 122 122 122
-0.10581448674201965 0.8890818357467651 5.692596912384033 114 114 114
-0.10389093309640884 0.29488199949264526 5.5221147537231445 123 123 123
-0.10247131437063217 0.1688586175441742 5.627377510070801 127 127 127
-0.10191907733678818 1.7176878452301025 5.854643821716309 98 98 98
-0.08723477274179459 -1.918874740600586 5.171561241149902 55 55 55
-0.08740109205245972 2.7876322269439697 5.7151360511779785 115 115 115
-0.06488589197397232 0.5934582352638245 5.810079097747803 122 122 122
-0.05084831267595291 -1.876546859741211 5.578822612762451 65 65 65
-0.029005462303757668 -0.3654235303401947 5.45188045501709 108 108 108
-0.0257439985871315 2.5316333770751953 5.89883279800415 92 92 92
-0.020969504490494728 2.3753886222839355 5.836419582366943 71 71 71
-0.01735466532409191 -1.8309650421142578 5.518235206604004 61 61 61
0.005894009489566088 -1.8001282215118408 5.6622185707092285 160 160 160
0.020274771377444267 -2.0730011463165283 4.2840728759765625 92 92 92
0.02020004577934742 -2.2771401405334473 4.624480724334717 93 93 93
0.04867735132575035 2.6935536861419678 5.558095455169678 99 99 99
0.056811731308698654 -2.4572646617889404 4.798286437988281 30 30 30
0.0320674329996109 -1.71637761592865 4.404562473297119 57 57 57
0.18579934537410736 -3.1570606231689453 8.495823860168457 60 60 60
0.1158788651227951 -1.9237520694732666 4.685582637786865 122 122 122
0.14949224889278412 2.722175121307373 5.511102676391602 109 109 109
0.21400390565395355 0.12932975590229034 5.472239971160889 83 83 83
0.21400390565395355 0.12932975590229034 5.472239971160889 83 83 83
0.24952158331871033 2.2711658477783203 6.160826683044434 69 69 69
0.29681599140167236 2.375267505645752 6.079209327697754 87 87 87
0.23436658084392548 -2.1757519245147705 4.418715953826904 103 103 103
0.30847233533859253 0.5892462134361267 5.877202033996582 44 44 44
0.31057631969451904 0.5210552215576172 5.719868183135986 37 37 37
0.3275566101074219 0.7525397539138794 5.946524620056152 108 108 108
0.3275566101074219 0.7525397539138794 5.946524620056152 108 108 108
0.33180350065231323 0.46678563952445984 5.822596549987793 128 128 128
0.34345582127571106 0.8061486482620239 5.938430309295654 118 118 118
0.3377287983894348 0.14744096994400024 5.8102922439575195 126 126 126
0.34719157218933105 -0.06523089855909348 5.839107990264893 132 132 132
0.35675856471061707 2.7481489181518555 5.8292460441589355 93 93 93
0.35648128390312195 0.25376465916633606 5.770157814025879 124 124 124
0.35648128390312195 0.25376465916633606 5.770157814025879 124 124 124
0.29595136642456055 -1.8626590967178345 4.798940181732178 46 46 46
0.3871535360813141 2.3452560901641846 6.050349235534668 99 99 99
0.30039119720458984 -1.862259864807129 4.695528984069824 53 53 53
0.3753003478050232 0.4714772701263428 5.8434648513793945 57 57 57
0.38864341378211975 0.7430090308189392 5.9786505699157715 53 53 53
0.3654342591762543 -0.09829206764698029 5.738204479217529 76 76 76
0.3923342525959015 0.2709573805332184 5.744529724121094 54 54 54
0.39943984150886536 0.09395378082990646 5.7244086265563965 159 159 159
0.41029760241508484 0.5626635551452637 5.816413402557373 48 48 48
0.30956652760505676 -1.958463430404663 4.298119068145752 160 160 160
0.4250715970993042 0.24147100746631622 5.785042762756348 121 121 121
0.4168908894062042 0.36459729075431824 5.6976728439331055 75 75 75
0.4431854486465454 2.7300539016723633 5.892830848693848 77 77 77
0.4370580315589905 -0.08135223388671875 5.76889181137085 128 128 128
0.4477527439594269 0.30100217461586 5.7699737548828125 136 136 136
0.47151979804039 0.468687504529953 5.794215679168701 127 127 127
0.485764741897583 0.3144347369670868 5.6147942543029785 128 128 128
0.37455910444259644 -2.061131715774536 4.253453731536865 111 111 111
0.38368263840675354 -1.9024806022644043 4.265104293823242 124 124 124
0.5137851238250732 0.2496967315673828 5.5491814613342285 134 134 134
0.4120137095451355 -1.8124357461929321 4.362997055053711 39 39 39
0.40009331703186035 -1.86276376247406 4.182721138000488 111 111 111
0.5513104200363159 0.465792179107666 5.641176223754883 120 120 120
0.5513104200363159 0.465792179107666 5.641176223754883 120 120 120
0.6085466146469116 0.09974802285432816 5.422166347503662 158 158 158
0.6356977224349976 0.19035933911800385 5.5423712730407715 31 31 31
0.6764954328536987 0.10526563972234726 5.505805015563965 125 125 125
-0.3116796910762787 1.8807042837142944 5.6969895362854 146 146 146
-1.0870699882507324 -1.353762149810791 6.285408020019531 14 14 14
-1.0870321989059448 -1.3537181615829468 6.285186290740967 14 14 14
-1.1574585437774658 -1.4426056146621704 6.471385478973389 8 8 8
-1.1574207544326782 -1.4425594806671143 6.471162796020508 8 8 8
-1.1574593782424927 -1.4426065683364868 6.471389293670654 8 8 8
0.3852953612804413 -0.1288122981786728 5.844203948974609 48 48 48
0.37313562631607056 0.25583913922309875 5.4393839836120605 64 64 64
-0.12839727103710175 0.6582863926887512 5.635555267333984 155 155 155
0.5155004858970642 0.2721501588821411 5.559953689575195 35 35 35
0.339409738779068 -1.9174997806549072 4.472146987915039 85 85 85
-0.6354203224182129 -1.3235628604888916 5.3752665519714355 64 64 64
-0.3895147740840912 -1.1549458503723145 4.4817047119140625 152 152 152
-0.2858114540576935 0.6709781885147095 5.431035995483398 0 0 0
0.17572927474975586 -1.8992846012115479 4.596412181854248 68 68 68
-0.6621686816215515 1.2537665367126465 6.003427505493164 19 19 19
-0.16668453812599182 -0.45619142055511475 5.579882621765137 174 174 174
-0.6542587876319885 0.8625876903533936 5.956098556518555 16 16 16
-0.24506230652332306 -1.4159138202667236 4.196022033691406 84 84 84
-0.6621668934822083 1.2537604570388794 6.003412246704102 19 19 19
0.5081474184989929 0.13595640659332275 5.537686824798584 123 123 123
-0.6331363916397095 -1.5164084434509277 5.397844314575195 58 58 58
0.5750237703323364 0.13726969063282013 5.46063232421875 53 53 53
0.6246827840805054 0.14160963892936707 5.477656364440918 34 34 34
0.35828450322151184 0.1564352959394455 5.884382247924805 25 25 25
-0.14201660454273224 -0.09013883024454117 5.605141639709473 66 66 66
0.5749484896659851 0.1372464895248413 5.460237503051758 53 53 53
-0.6055530309677124 -1.4859375953674316 5.166975498199463 136 136 136
0.515326738357544 0.2718825340270996 5.556313991546631 35 35 35
0.3614422380924225 0.11380521953105927 5.688140392303467 61 61 61
-0.4669570028781891 -0.07597118616104126 5.546840667724609 22 22 22
0.3804349899291992 -0.33019715547561646 5.908389568328857 55 55 55
-0.47769370675086975 0.8564949035644531 5.695550441741943 82 82 82
-0.4701051712036133 0.10233893245458603 5.587555408477783 124 124 124
-0.853873610496521 0.8517178893089294 6.18684720993042 140 140 140
0.39446547627449036 -0.020970169454813004 5.904461860656738 58 58 58
-0.47008171677589417 0.10231879353523254 5.587225437164307 124 124 124
0.6381550431251526 0.0893055722117424 5.396886825561523 112 112 112
-0.0832647830247879 -1.8785278797149658 5.461164951324463 108 108 108
0.3913591504096985 -0.02129766158759594 5.841782093048096 40 40 40
-0.13168193399906158 1.0516618490219116 5.7081146240234375 27 27 27
0.38920995593070984 0.07598656415939331 5.753483772277832 170 170 170
0.3508117198944092 0.5783584117889404 5.796896934509277 52 52 52
-1.0282021760940552 0.6484163403511047 6.329383373260498 139 139 139
0.46145200729370117 0.35101890563964844 5.713375568389893 13 13 13
0.4614599645137787 0.3510224521160126 5.7134199142456055 13 13 13
0.4113817512989044 0.32746219635009766 5.4966044425964355 64 64 64
0.2788544297218323 0.5391077399253845 5.79262638092041 127 127 127
-0.14201660454273224 -0.09013883024454117 5.605141639709473 66 66 66
0.31389760971069336 0.4874114394187927 5.701266288757324 128 128 128
0.3617914915084839 0.49545028805732727 5.770312309265137 244 244 244
0.50954270362854 0.37873557209968567 5.438093185424805 87 87 87
0.551321268081665 0.46580949425697327 5.641269683837891 120 120 120
-1.7812498807907104 2.8619916439056396 6.769373416900635 84 84 84
-0.47769567370414734 0.8564996719360352 5.695570468902588 82 82 82
-0.23834346234798431 -1.987351894378662 5.558529376983643 56 56 56
-0.1822231411933899 -1.8133220672607422 6.184052467346191 117 117 117
-0.6043795347213745 2.851133346557617 5.786893367767334 154 154 154
-0.13443461060523987 0.32361212372779846 5.521052837371826 25 25 25
-0.5724098086357117 -1.162201166152954 4.865782260894775 83 83 83
-3.551022529602051 1.9710640907287598 9.499480247497559 26 26 26
-1.6337271928787231 0.8147057294845581 7.126536846160889 40 40 40
-1.78971266746521 0.21471481025218964 7.143362998962402 73 73 73
-0.08327043056488037 -1.8788087368011475 5.461939811706543 108 108 108
-0.8818930983543396 1.854485034942627 6.349136829376221 34 34 34
-1.0215030908584595 0.4572312831878662 6.260540962219238 6 6 6
-1.2751284837722778 2.8555386066436768 6.040114402770996 157 157 157
-0.29929089546203613 -0.6438716650009155 5.24931001663208 106 106 106
-0.05747567489743233 -2.150355577468872 5.424861907958984 59 59 59
-0.46694299578666687 -0.07598032802343369 5.546725749969482 22 22 22
0.21698381006717682 -1.8582724332809448 4.459536552429199 72 72 72
-0.3429151773452759 -2.217273235321045 5.926454067230225 86 86 86
-0.23827415704727173 -1.9859837293624878 5.554783821105957 56 56 56
0.5771487951278687 0.5197100639343262 5.618465423583984 116 116 116
-0.3918858766555786 -1.157428503036499 4.493133544921875 147 147 147
0.4061509072780609 0.3248961865901947 5.4439005851745605 59 59 59
-0.6171005964279175 -0.8116369247436523 5.41880464553833 100 100 100
0.46146100759506226 0.3510209918022156 5.713411808013916 13 13 13
-0.13098402321338654 1.2400474548339844 5.708512306213379 63 63 63
0.4973193407058716 0.3370412588119507 5.505642890930176 60 60 60
0.4323205053806305 0.3500126004219055 5.839949131011963 17 17 17
-0.6621674299240112 1.2537628412246704 6.003415584564209 19 19 19
-0.6737746596336365 1.448887586593628 6.051690101623535 70 70 70
-0.6542573571205139 0.8625859618186951 5.956090927124023 16 16 16
-0.1420263946056366 -0.09013732522726059 5.605242729187012 66 66 66
-0.13881587982177734 1.4570354223251343 5.799173831939697 75 75 75
-1.051543951034546 1.654582142829895 6.519782066345215 5 5 5
-0.48168322443962097 1.4684252738952637 5.8307037353515625 23 23 23
-0.1316785216331482 1.051655650138855 5.708096027374268 27 27 27
-0.4669495224952698 -0.07597368955612183 5.546786785125732 22 22 22
0.34408867359161377 -0.29813432693481445 5.311188220977783 48 48 48
0.3654072880744934 -0.09830447286367416 5.737892150878906 76 76 76
-0.6344025135040283 -1.5194567441940308 5.40860652923584 58 58 58
0.4038839340209961 -0.0773816704750061 5.9077019691467285 47 47 47
-0.6339094638824463 -1.5184544324874878 5.405017852783203 58 58 58
-0.6569916605949402 1.0548275709152222 5.99688196182251 104 104 104
0.3138866722583771 0.48739954829216003 5.7011847496032715 128 128 128
0.5860910415649414 0.2870321571826935 5.592416763305664 139 139 139
0.3897325396537781 0.07419091463088989 5.741764068603516 173 173 173
-1.0278377532958984 0.6481844782829285 6.327780723571777 139 139 139
0.29394665360450745 0.0800575390458107 6.052597522735596 64 64 64
-0.6170267462730408 -0.8115713596343994 5.41828727722168 100 100 100
-0.2858186364173889 0.6709863543510437 5.4310712814331055 0 0 0
0.01124474685639143 -1.765230655670166 5.458893775939941 89 89 89
-0.640250027179718 0.2823643386363983 5.828812122344971 13 13 13
-0.15141284465789795 -1.8479442596435547 5.609694480895996 134 134 134
-0.8513399362564087 0.27878642082214355 6.058209419250488 6 6 6
0.33939221501350403 -1.9174429178237915 4.472019195556641 85 85 85
-0.08327759057283401 -1.8788869380950928 5.462222099304199 108 108 108
-0.16749665141105652 -0.6505047678947449 5.543023586273193 96 96 96
0.5075994729995728 0.13555026054382324 5.533262729644775 100 100 100
0.5079084038734436 0.1357613205909729 5.535651206970215 123 123 123
0.6195177435874939 0.23454998433589935 5.5388078689575195 89 89 89
0.5603200793266296 0.1629500389099121 5.401628017425537 83 83 83
-0.05748113617300987 -2.150517702102661 5.425260066986084 59 59 59
-0.5996324419975281 -1.1333913803100586 5.149779796600342 146 146 146
-1.0870361328125 -1.353722095489502 6.285204887390137 14 14 14
0.42520254850387573 0.5266996026039124 5.887794017791748 111 111 111
-1.087158203125 -1.3538748025894165 6.285888671875 14 14 14
0.4252515435218811 0.44823840260505676 5.8979291915893555 51 51 51
0.3439294099807739 0.4629773199558258 5.718444347381592 49 49 49
0.3138953149318695 0.48740753531455994 5.701247692108154 128 128 128
-0.47010016441345215 0.10233625024557114 5.587497711181641 124 124 124
-0.34282103180885315 -2.2167134284973145 5.925002574920654 86 86 86
-0.28258228302001953 -0.624801516532898 5.020725727081299 93 93 93
-0.48567306995391846 1.2589244842529297 5.805619716644287 154 154 154
-0.6579205989837646 0.6620301008224487 5.887495994567871 4 4 4
-1.0516129732131958 1.654866099357605 6.520646572113037 5 5 5
-0.47769537568092346 0.8565040826797485 5.695589065551758 82 82 82
0.509915292263031 0.5016986727714539 5.615838527679443 126 126 126
0.5771300792694092 0.5196819305419922 5.618309497833252 116 116 116
0.11631718277931213 -1.890395164489746 4.648157119750977 92 92 92
-0.13426454365253448 2.038813829421997 5.856311798095703 39 39 39
-0.1297844648361206 1.8591259717941284 5.887173175811768 17 17 17
-1.4564310312271118 1.4319034814834595 6.995532989501953 6 6 6
0.36863386631011963 0.33139869570732117 5.636476516723633 37 37 37
-0.6507247090339661 0.4789470434188843 5.831945419311523 46 46 46
-3.6868536472320557 0.9340269565582275 9.553685188293457 113 113 113
-1.0341719388961792 0.2651606798171997 6.26709508895874 93 93 93
-0.4669633209705353 -0.07597310841083527 5.546919822692871 22 22 22
0.2929336130619049 0.08065451681613922 6.053616046905518 64 64 64
-0.8584463000297546 0.27956968545913696 6.08654260635376 0 0 0
-1.2606457471847534 1.2446571588516235 6.750899791717529 89 89 89
-0.11970753222703934 2.2243306636810303 5.890755653381348 59 59 59
-0.3459341824054718 -0.0686136856675148 5.46343469619751 51 51 51
-0.3160243332386017 0.0959387794137001 5.4508867263793945 115 115 115
0.5525373816490173 0.22136572003364563 5.5341901779174805 27 27 27
-0.1342698186635971 2.0388119220733643 5.85630989074707 39 39 39
-0.329555869102478 -1.1194974184036255 5.833301544189453 30 30 30
-0.4966840147972107 1.8823363780975342 5.930338382720947 9 9 9
-0.142292320728302 1.2954459190368652 5.960841655731201 74 74 74
-0.49859681725502014 1.6743133068084717 5.919381141662598 121 121 121
0.43937939405441284 0.5266586542129517 6.248630046844482 119 119 119
-0.058901384472846985 -2.1827898025512695 5.5057902336120605 59 59 59
-0.20395749807357788 -2.0305893421173096 5.272486209869385 143 143 143
-1.0515248775482178 1.654662847518921 6.520069599151611 5 5 5
-0.618224561214447 -2.1699769496917725 6.046258449554443 69 69 69
-0.08327900618314743 -1.8789571523666382 5.46241569519043 108 108 108
-0.14074262976646423 -1.712071180343628 5.115927696228027 102 102 102
-0.15141719579696655 -1.8480587005615234 5.610053539276123 134 134 134
-0.30157676339149475 -0.7995758652687073 5.291085720062256 68 68 68
-0.40532973408699036 -1.131467580795288 4.364966869354248 127 127 127
-0.6339006423950195 -1.518441915512085 5.404972076416016 58 58 58
-1.0055845975875854 -1.6098122596740723 6.453034400939941 55 55 55
-3.551276683807373 1.9713166952133179 9.50030517578125 26 26 26
-1.154175043106079 2.875960111618042 6.085309028625488 49 49 49
-0.2949075400829315 1.0808780193328857 5.5685906410217285 65 65 65
-1.1573333740234375 -1.442448377609253 6.47069787979126 8 8 8
-1.198648452758789 -1.3847469091415405 6.642467498779297 126 126 126
-0.3761192262172699 -1.2645506858825684 6.59379768371582 86 86 86
-0.48566874861717224 1.258917212486267 5.805581092834473 154 154 154
-0.4739261269569397 0.6692376732826233 5.651595592498779 14 14 14
-0.4549626111984253 0.8675798773765564 5.727799892425537 26 26 26
-1.4588905572891235 1.0365406274795532 6.971730709075928 1 1 1
-3.5510334968566895 1.971069097518921 9.499503135681152 26 26 26
-0.274943083524704 -1.2382601499557495 4.721804618835449 214 214 214
0.34751561284065247 0.20290368795394897 5.845224380493164 89 89 89
-0.6170891523361206 -0.8116269111633301 5.418725490570068 100 100 100
-0.16748395562171936 -0.6505147218704224 5.543090343475342 96 96 96
-0.12840275466442108 0.658291757106781 5.6355743408203125 155 155 155
-0.12840013206005096 0.6582894325256348 5.635565757751465 155 155 155
-1.4709694385528564 2.9071884155273438 6.5083112716674805 88 88 88
-0.8655215501785278 0.6721253991127014 6.183032035827637 176 176 176
0.31921714544296265 0.5911035537719727 5.785708904266357 129 129 129
0.5099121928215027 0.5016964077949524 5.615808486938477 126 126 126
0.5099014639854431 0.501679003238678 5.615719318389893 126 126 126
0.35415422916412354 -0.30747562646865845 5.506056785583496 51 51 51
0.3574427664279938 0.48617538809776306 5.7146453857421875 215 215 215
0.3139135241508484 0.4874301552772522 5.701442718505859 128 128 128
-0.8175086379051208 -0.5003836154937744 5.979499816894531 103 103 103
-3.686528205871582 0.9339509606361389 9.55285930633545 113 113 113
0.12765474617481232 -1.9771230220794678 4.848240852355957 93 93 93
0.5512999296188354 0.46577927470207214 5.641075134277344 125 125 125
0.3839259445667267 0.4566695988178253 5.8924360275268555 102 102 102
0.32163703441619873 0.464175820350647 5.761435508728027 140 140 140
0.4157660901546478 0.4374494254589081 5.829376697540283 49 49 49
0.5104504227638245 0.37881311774253845 5.440831184387207 87 87 87
0.4391133189201355 0.1549128293991089 5.797491550445557 116 116 116
-0.1575901061296463 -1.0457324981689453 5.523906230926514 121 121 121
0.38732439279556274 -0.13483081758022308 5.868443965911865 54 54 54
0.5749664902687073 0.13725139200687408 5.460329055786133 53 53 53
-0.1420356035232544 -0.09013212472200394 5.605350971221924 66 66 66
0.5898303389549255 0.35256245732307434 5.584023952484131 25 25 25
0.46145159006118774 0.3510260581970215 5.713412284851074 13 13 13
0.4042595624923706 0.35709908604621887 5.788161277770996 117 117 117
0.5005411505699158 0.3394870460033417 5.543909072875977 62 62 62
0.4126443564891815 -0.04219624400138855 5.742830276489258 81 81 81
0.3944654166698456 -0.020970072597265244 5.9044647216796875 58 58 58
0.449501097202301 0.3237331509590149 5.776604652404785 85 85 85
-0.1661108434200287 0.29074186086654663 5.493955135345459 77 77 77
0.5860573053359985 0.2869662642478943 5.592089653015137 139 139 139
0.3897068500518799 0.07424581795930862 5.742079257965088 170 170 170
-0.6570025682449341 1.0548361539840698 5.996941089630127 104 104 104
-0.1197013184428215 2.2243428230285645 5.890783786773682 59 59 59
-0.3021143674850464 -2.4524290561676025 5.143846035003662 72 72 72
-0.1551014482975006 -0.42076197266578674 5.405234336853027 83 83 83
-1.051500916481018 1.6545989513397217 6.5198798179626465 5 5 5
0.19661769270896912 -1.8629153966903687 4.444200038909912 73 73 73
0.4132717251777649 0.1137627437710762 5.692669868469238 48 48 48
0.11860596388578415 -1.9101563692092896 4.692145824432373 92 92 92
0.10535019636154175 -1.8976701498031616 4.67647647857666 39 39 39
-0.17115254700183868 -1.9329267740249634 5.025707244873047 71 71 71
-0.30532875657081604 -0.8477645516395569 5.295773983001709 102 102 102
-0.6542590260505676 0.8625617027282715 5.955944061279297 16 16 16
-0.10643130540847778 -1.868746280670166 5.502074241638184 56 56 56
-0.37129151821136475 -2.175299882888794 6.453527450561523 107 107 107
-0.1510436087846756 -1.8890470266342163 5.620376110076904 83 83 83
0.011243058368563652 -1.765197992324829 5.458798885345459 89 89 89
0.011232989840209484 -1.7649359703063965 5.458035469055176 89 89 89
-0.4209711253643036 -2.2059099674224854 7.225030899047852 105 105 105
-0.6322789788246155 -1.5144448280334473 5.390868186950684 58 58 58
-0.25801882147789 -1.153303861618042 4.391963481903076 203 203 203
-1.0055060386657715 -1.6096863746643066 6.4525370597839355 55 55 55
-0.635823667049408 -1.324413537979126 5.3787617683410645 64 64 64
-0.31168001890182495 1.8807412385940552 5.6971001625061035 146 146 146
-0.2934812903404236 -1.1719400882720947 5.091070652008057 70 70 70
-0.2837470471858978 -1.099377989768982 4.947543621063232 128 128 128
-0.6130214929580688 -1.1599448919296265 5.24781608581543 93 93 93
-0.3116779327392578 1.8807339668273926 5.697090148925781 146 146 146
-1.1692192554473877 -1.3556140661239624 6.494579792022705 109 109 109
-0.984259307384491 -1.1372605562210083 5.606020927429199 67 67 67
-0.3116796612739563 1.8807456493377686 5.697120666503906 146 146 146
-0.9465250372886658 -1.0627973079681396 5.213230133056641 50 50 50
-0.4453493356704712 -1.0196439027786255 5.3314995765686035 112 112 112
-0.4591223895549774 -0.9619114995002747 5.101479530334473 24 24 24
-0.795464813709259 -1.0038939714431763 5.619602203369141 135 135 135
-0.129780113697052 1.8591214418411255 5.887159824371338 17 17 17
-0.8231588006019592 -0.828032910823822 5.686101913452148 42 42 42
-0.1651751846075058 -0.45633718371391296 5.577551364898682 215 215 215
-0.5029648542404175 1.0635356903076172 5.797726154327393 121 121 121
-0.2944513261318207 1.4777363538742065 5.640793800354004 141 141 141
-0.1420312374830246 -0.0901327133178711 5.605297565460205 66 66 66
-0.13096199929714203 1.2400044202804565 5.708362102508545 63 63 63
0.36538660526275635 -0.09830988943576813 5.737642288208008 76 76 76
0.4396807551383972 -0.06791503727436066 6.551161766052246 33 33 33
-0.17143969237804413 -1.9342600107192993 5.028674125671387 71 71 71
0.39445629715919495 -0.020970704033970833 5.904394149780273 58 58 58
0.4209872782230377 0.03687567263841629 5.730885028839111 104 104 104
-0.15303891897201538 0.06233047693967819 5.487020492553711 106 106 106
0.3831707835197449 0.06480473279953003 5.639316558837891 119 119 119
0.2803315818309784 0.06749612838029861 5.869603633880615 70 70 70
0.2958720326423645 0.08596460521221161 5.697667598724365 74 74 74
-0.31257373094558716 0.09038205444812775 5.399610996246338 96 96 96
0.32695436477661133 0.13853080570697784 5.862607479095459 117 117 117
0.5072702169418335 0.1354454904794693 5.5313310623168945 100 100 100
0.36723512411117554 0.16690626740455627 6.082756519317627 73 73 73
0.5497303605079651 0.1340850442647934 5.253143310546875 21 21 21
0.5525380969047546 0.22136640548706055 5.534196376800537 27 27 27
-0.8584197163581848 0.27959081530570984 6.086667537689209 0 0 0
0.39234691858291626 0.27095285058021545 5.744543552398682 54 54 54
0.4299177825450897 0.3177395164966583 6.147129535675049 96 96 96
-0.16075760126113892 0.29236727952957153 5.495452880859375 137 137 137
0.5861025452613831 0.2870515286922455 5.592540740966797 139 139 139
-1.0714969635009766 2.786982297897339 5.874835014343262 43 43 43
0.4614439010620117 0.3510352075099945 5.713448524475098 13 13 13
0.5897801518440247 0.352481871843338 5.583528995513916 25 25 25
0.3832857012748718 0.4586354196071625 5.901268482208252 102 102 102
0.32165205478668213 0.45496097207069397 5.763559341430664 124 124 124
0.3464969992637634 0.47372087836265564 5.799542427062988 41 41 41
0.36375024914741516 0.4992470145225525 5.823604583740234 50 50 50
0.5311712622642517 0.5215903520584106 5.842126846313477 130 130 130
0.4341104328632355 0.5148305296897888 5.728736400604248 95 95 95
0.5771390795707703 0.5197207927703857 5.6185078620910645 116 116 116
0.0767049714922905 -1.7517786026000977 4.307441711425781 90 90 90
-0.16489273309707642 0.8604625463485718 5.601937770843506 136 136 136
-0.43166765570640564 -2.3845765590667725 5.150238990783691 73 73 73
-1.4641908407211304 1.0391812324523926 6.986025333404541 1 1 1
-0.8655294179916382 0.6721374988555908 6.1830973625183105 176 176 176
-0.63261878490448 -1.5151828527450562 5.393503189086914 58 58 58
0.07844089716672897 -1.6926002502441406 4.170248508453369 89 89 89
0.0678161084651947 -1.959786295890808 4.836495399475098 120 120 120
-0.39575788378715515 -2.6625194549560547 6.980670928955078 94 94 94
-0.18792472779750824 -1.8646451234817505 5.633662223815918 46 46 46
-0.151422381401062 -1.8480515480041504 5.610015392303467 134 134 134
-0.420051246881485 -2.2007367610931396 7.2082200050354 105 105 105
-0.20598962903022766 -1.8212509155273438 6.172287940979004 37 37 37
-0.4002995789051056 -1.2298181056976318 4.286582946777344 131 131 131
-1.134161114692688 -1.7300679683685303 6.231655597686768 62 62 62
-0.33508631587028503 -1.5769438743591309 5.931127071380615 68 68 68
-0.42645472288131714 -1.3377584218978882 5.085055828094482 135 135 135
-1.0055102109909058 -1.6096926927566528 6.452558517456055 55 55 55
-0.28635406494140625 -1.1385529041290283 4.938665866851807 81 81 81
-0.17627094686031342 -1.2361558675765991 5.481545448303223 38 38 38
-1.1573771238327026 -1.442503809928894 6.4709296226501465 8 8 8
-0.6048575043678284 -1.147491455078125 5.186522006988525 93 93 93
-0.5186153650283813 -1.2244511842727661 5.622777462005615 101 101 101
-1.0870550870895386 -1.3537460565567017 6.2853193283081055 14 14 14
-1.0702333450317383 -1.2236238718032837 6.035640716552734 44 44 44
-0.927363932132721 -1.0414050817489624 5.101215839385986 69 69 69
-1.1553833484649658 -1.297609567642212 6.348681449890137 82 82 82
-0.2712169587612152 -0.9206061363220215 4.797328948974609 76 76 76
-0.5987426042556763 -0.8200560808181763 5.48392391204834 37 37 37
-0.16748349368572235 -0.6505082249641418 5.543026924133301 96 96 96
-0.30272176861763 -0.4241182208061218 5.201237678527832 112 112 112
-0.1819714903831482 -0.07965890318155289 5.544330596923828 183 183 183
-0.3677596151828766 -0.056215185672044754 5.4538960456848145 134 134 134
-1.072026252746582 0.07404161989688873 6.265911102294922 3 3 3
-1.0262659788131714 0.08388733863830566 6.23921537399292 83 83 83
-0.15470463037490845 0.09832394868135452 5.6934895515441895 53 53 53
0.32539770007133484 0.1398843228816986 5.872361660003662 124 124 124
0.5080480575561523 0.13587869703769684 5.536787986755371 123 123 123
0.5234177708625793 0.1711130291223526 5.645824432373047 122 122 122
-3.685314893722534 0.2966105043888092 9.407367706298828 38 38 38
0.4922650158405304 0.21420718729496002 5.668034553527832 105 105 105
-0.6713193655014038 0.2673286497592926 5.7671027183532715 82 82 82
0.39234691858291626 0.27095258235931396 5.744541645050049 54 54 54
0.4473074972629547 0.2955141067504883 5.792201042175293 125 125 125
0.5148342251777649 0.2716885507106781 5.5517258644104 35 35 35
-0.1615166962146759 0.30629202723503113 5.618135452270508 130 130 130
-0.14161613583564758 0.31896185874938965 5.520106792449951 123 123 123
0.43239155411720276 0.44204485416412354 5.989994049072266 52 52 52
0.32803475856781006 0.45990362763404846 5.848560810089111 136 136 136
0.4005681574344635 0.4915672838687897 6.116307735443115 117 117 117
0.5513506531715393 0.46584630012512207 5.641550064086914 120 120 120
-0.6506969928741455 0.47893303632736206 5.831766128540039 46 46 46
0.29336363077163696 0.4900227189064026 5.8433613777160645 52 52 52
0.31391027569770813 0.4874250590801239 5.701366424560547 128 128 128
0.3820904493331909 0.4987078309059143 5.847355842590332 105 105 105
0.5771394371986389 0.5197215676307678 5.618512153625488 116 116 116
0.42783743143081665 0.5456054210662842 5.948150634765625 39 39 39
0.2750633656978607 0.5440747141838074 5.617034912109375 182 182 182
0.4579044282436371 0.5833140015602112 5.921099662780762 81 81 81
0.4166881740093231 0.6200352311134338 5.858203887939453 118 118 118
-0.311679482460022 1.8807393312454224 5.697101593017578 146 146 146
-0.14711691439151764 0.6413615345954895 5.450133800506592 97 97 97
-0.47162482142448425 0.6664514541625977 5.628042697906494 14 14 14
-0.49667128920555115 1.8822999000549316 5.9302568435668945 9 9 9
-0.298058420419693 1.2540326118469238 5.504563331604004 73 73 73
-1.058879017829895 1.4491121768951416 6.512739181518555 136 136 136
-3.589776039123535 1.9309124946594238 9.485487937927246 40 40 40
-0.13104048371315002 1.233632206916809 5.678590774536133 42 42 42
-0.2746662497520447 -2.1921310424804688 4.6438517570495605 119 119 119
0.07464206963777542 -1.8839161396026611 4.447116851806641 66 66 66
0.2297898381948471 -1.9265936613082886 4.572299003601074 126 126 126
-0.1470593959093094 -1.6699997186660767 4.343079566955566 107 107 107
-0.34287118911743164 -2.2169322967529297 5.9255852699279785 86 86 86
-0.23827610909938812 -1.9859890937805176 5.554800033569336 56 56 56
-0.6383622288703918 -1.8962242603302002 5.455214977264404 65 65 65
-0.08818405121564865 -1.8684521913528442 5.496592998504639 146 146 146
-0.1510222852230072 -1.8888341188430786 5.619741439819336 83 83 83
-0.1855856031179428 -1.8333003520965576 5.554340839385986 50 50 50
-0.2098103165626526 -1.8504806756973267 6.266347408294678 58 58 58
-0.5415925979614258 -1.3683375120162964 4.704278945922852 91 91 91
-1.1964598894119263 -1.806066870689392 6.6048264503479 133 133 133
-0.5849044919013977 -1.2812138795852661 5.0038886070251465 114 114 114
-0.5025222897529602 -1.3772844076156616 5.3780293464660645 41 41 41
-1.406603455543518 -2.1863865852355957 8.807855606079102 80 80 80
-0.6358639597892761 -1.3245010375976562 5.379127502441406 64 64 64
-1.1516271829605103 -1.4847149848937988 6.416893482208252 107 107 107
-0.6022511124610901 -1.1501150131225586 5.140951156616211 118 118 118
-0.6625942587852478 -1.2093158960342407 5.56167459487915 18 18 18
-0.5687872171401978 -1.3262770175933838 6.105335712432861 168 168 168
-0.9825401902198792 -1.3492767810821533 6.217337608337402 17 17 17
-1.164080023765564 -1.373818278312683 6.489670753479004 112 112 112
-1.1552497148513794 -1.2974815368652344 6.347955703735352 82 82 82
-0.4626075029373169 -1.056214690208435 5.498852729797363 114 114 114
-0.749968945980072 -0.9789451360702515 5.478206634521484 23 23 23
-0.32634302973747253 -0.9031972289085388 5.608067512512207 109 109 109
-0.1693962812423706 -0.9383734464645386 5.822964668273926 103 103 103
-0.30773842334747314 -0.4301137626171112 5.289377212524414 95 95 95
-0.1666828989982605 -0.45618709921836853 5.579827308654785 174 174 174
-0.4835013151168823 -0.4469735026359558 5.777291774749756 84 84 84
-1.2843941450119019 0.0522073395550251 6.574974536895752 54 54 54
-0.6420472860336304 0.1185169667005539 5.979612350463867 44 44 44
0.3861629366874695 0.125238299369812 5.726396083831787 32 32 32
0.3923355042934418 0.2709576487541199 5.744536399841309 54 54 54
-0.13671886920928955 0.28899380564689636 5.558392524719238 137 137 137
0.4373369812965393 0.29170793294906616 5.756320953369141 120 120 120
-0.13050974905490875 0.444779634475708 5.939816474914551 55 55 55
0.4224497079849243 0.42641565203666687 5.899271011352539 63 63 63
0.31388935446739197 0.4874018430709839 5.701196193695068 128 128 128
0.32266664505004883 0.5330120921134949 5.8010573387146 37 37 37
0.4058559536933899 0.5212994813919067 5.554049015045166 43 43 43
0.3256587088108063 0.6030606031417847 5.829047679901123 110 110 110
-0.4739234745502472 0.6692337393760681 5.651576042175293 14 14 14
-1.0382722616195679 1.0413521528244019 6.429465293884277 78 78 78
-0.8593946695327759 1.0530680418014526 6.215663433074951 9 9 9
-0.45007896423339844 1.0577113628387451 5.712049961090088 4 4 4
-0.1601945161819458 1.8834518194198608 5.937671661376953 37 37 37
0.07868194580078125 -1.9186238050460815 4.523657321929932 22 22 22
0.192829430103302 -1.8938398361206055 4.572274208068848 119 119 119
-0.12900805473327637 -1.9832533597946167 5.8300886154174805 56 56 56
