ply
format ascii 1.0
element vertex 718
property float x
property float y
property float z
property uchar red
property uchar green
property uchar blue
end_header
1.7511048316955566 2.0897345542907715 6.160340785980225 79 79 79
1.7377078533172607 1.8084897994995117 6.107336044311523 97 97 97
1.8147006034851074 -0.8966770768165588 6.341578006744385 78 78 78
1.5720473527908325 -1.9988526105880737 5.438821315765381 103 103 103
1.9351739883422852 -1.1844488382339478 6.741899013519287 63 63 63
1.7026805877685547 2.430305242538452 5.935935974121094 95 95 95
1.7522048950195312 1.129562497138977 6.0919952392578125 124 124 124
1.7739598751068115 1.7053090333938599 6.163509368896484 117 117 117
1.802367925643921 2.374074935913086 6.255099296569824 37 37 37
1.9222142696380615 -1.489386796951294 6.65244197845459 64 64 64
1.7269071340560913 2.00864577293396 5.974458694458008 55 55 55
1.7269071340560913 2.00864577293396 5.974458694458008 55 55 55
1.723029613494873 0.6392549276351929 5.9298996925354 59 59 59
2.0537025928497314 -0.868973433971405 7.063974380493164 41 41 41
1.776953101158142 1.3412193059921265 6.101522922515869 127 127 127
1.7701430320739746 2.028193473815918 6.0804877281188965 77 77 77
2.106846809387207 -0.7694370150566101 7.173932075500488 127 127 127
2.106846809387207 -0.7694370150566101 7.173932075500488 127 127 127
1.7679505348205566 1.4113667011260986 6.0230326652526855 126 126 126
1.6866333484649658 2.4526443481445312 5.737619400024414 55 55 55
1.7099055051803589 0.9173742532730103 5.808668613433838 52 52 52
1.8821907043457031 1.2687653303146362 6.419147968292236 54 54 54
1.96560537815094 -1.3875840902328491 6.618888854980469 28 28 28
1.764747142791748 0.8714984655380249 5.945658206939697 100 100 100
1.764747142791748 0.8714984655380249 5.945658206939697 100 100 100
1.7815274000167847 1.0703678131103516 6.005786418914795 44 44 44
2.1427628993988037 -0.8629859685897827 7.180891990661621 31 31 31
1.971130132675171 -1.479554295539856 6.576139450073242 68 68 68
1.515733003616333 2.512223958969116 5.064270973205566 72 72 72
1.515733003616333 2.512223958969116 5.064270973205566 72 72 72
1.8148175477981567 0.4857056140899658 6.0504889488220215 121 121 121
2.050762176513672 0.19354775547981262 6.833952903747559 101 101 101
1.9759528636932373 -1.2099889516830444 6.575420379638672 64 64 64
2.295053005218506 -0.8996620774269104 7.635091304779053 36 36 36
1.8449053764343262 1.9221549034118652 6.096495151519775 83 83 83
1.8492075204849243 1.9024395942687988 6.148188591003418 47 47 47
1.8492075204849243 1.9024395942687988 6.148188591003418 47 47 47
1.8453389406204224 1.7725826501846313 6.113223075866699 64 64 64
1.8465262651443481 1.4649642705917358 6.076892375946045 95 95 95
1.7776191234588623 0.88765949010849 5.795046329498291 51 51 51
1.9591896533966064 -1.4236618280410767 6.404275417327881 41 41 41
1.856048583984375 2.3373494148254395 6.091362953186035 46 46 46
1.8417901992797852 1.535789132118225 6.0309834480285645 60 60 60
1.9972202777862549 -1.1654995679855347 6.537013053894043 32 32 32
1.8192436695098877 1.0347400903701782 5.988491058349609 7 7 7
1.8584975004196167 1.3375974893569946 6.063962459564209 143 143 143
2.0136983394622803 -1.5708775520324707 6.526933193206787 67 67 67
1.847696304321289 1.239762783050537 5.9937849044799805 120 120 120
1.9515587091445923 -1.571393370628357 6.295220375061035 57 57 57
2.0188565254211426 -0.3222494125366211 6.467844009399414 156 156 156
1.8211638927459717 1.0614768266677856 5.880893230438232 42 42 42
2.078878402709961 -1.338532567024231 6.703094959259033 68 68 68
2.057405710220337 -1.4141474962234497 6.63084077835083 27 27 27
1.9030895233154297 2.2534894943237305 6.138171195983887 66 66 66
1.8900448083877563 1.5148332118988037 6.047759532928467 126 126 126
1.8700339794158936 0.5481041073799133 5.9737982749938965 116 116 116
1.958048701286316 0.6181417107582092 6.258640766143799 92 92 92
1.8463295698165894 0.5063238739967346 5.9068779945373535 133 133 133
2.1369543075561523 0.1749471127986908 6.831446170806885 99 99 99
1.6419565677642822 2.4819796085357666 5.248242378234863 62 62 62
2.0264577865600586 -1.6903119087219238 6.440077781677246 26 26 26
1.5782601833343506 2.504401445388794 5.0314412117004395 60 60 60
2.047712564468384 -1.510646104812622 6.496445178985596 31 31 31
2.285123109817505 -1.5664387941360474 7.261930465698242 81 81 81
1.8863025903701782 0.4759785532951355 5.985777378082275 64 64 64
1.8616633415222168 1.2685729265213013 5.9053473472595215 94 94 94
1.8616633415222168 1.2685729265213013 5.9053473472595215 94 94 94
1.9875611066818237 1.1851892471313477 6.312726974487305 98 98 98
1.9875611066818237 1.1851892471313477 6.312726974487305 98 98 98
1.9054807424545288 1.6184710264205933 5.9955153465271 96 96 96
1.9333735704421997 2.1926746368408203 6.121555328369141 58 58 58
1.8675662279129028 1.4464507102966309 5.940028667449951 140 140 140
1.8686033487319946 1.0575025081634521 5.911974906921387 47 47 47
1.936849594116211 2.07578706741333 6.104702949523926 54 54 54
1.9220048189163208 1.5471231937408447 6.018563270568848 46 46 46
1.903400182723999 1.1477550268173218 5.979436874389648 54 54 54
1.9304498434066772 1.6718509197235107 6.053387641906738 120 120 120
2.0908901691436768 -1.6553486585617065 6.535431861877441 77 77 77
2.0908901691436768 -1.6553486585617065 6.535431861877441 77 77 77
2.24947452545166 -1.1469683647155762 7.026600360870361 31 31 31
2.360319137573242 -0.37487170100212097 7.364236831665039 254 254 254
2.130603790283203 -1.3341045379638672 6.640120983123779 63 63 63
2.130603790283203 -1.3341045379638672 6.640120983123779 63 63 63
1.6398276090621948 2.5563106536865234 5.110071659088135 69 69 69
1.956109881401062 2.1854782104492188 6.033188343048096 67 67 67
2.0138487815856934 0.3437986671924591 6.2482733726501465 81 81 81
1.9545902013778687 2.308624744415283 6.061305046081543 52 52 52
1.9656784534454346 2.32193922996521 6.089288234710693 51 51 51
2.036972761154175 2.343432903289795 6.28916597366333 54 54 54
1.9239342212677002 1.2459497451782227 5.951456546783447 118 118 118
1.9760911464691162 2.3826117515563965 6.099752426147461 117 117 117
2.3208587169647217 -1.8436052799224854 7.138317584991455 90 90 90
2.310513496398926 -1.7671109437942505 7.105067729949951 63 63 63
2.382993698120117 -1.5950361490249634 7.336102485656738 101 101 101
2.1621780395507812 -1.3322199583053589 6.633032321929932 34 34 34
2.2101986408233643 -1.1022450923919678 6.773916244506836 33 33 33
1.9605695009231567 2.403629779815674 6.004687309265137 25 25 25
1.9605695009231567 2.403629779815674 6.004687309265137 25 25 25
1.9575629234313965 1.6520715951919556 5.980197429656982 124 124 124
2.247758388519287 0.2605404853820801 6.85764217376709 192 192 192
1.9272524118423462 0.9270908236503601 5.870652198791504 60 60 60
2.100088596343994 -1.6878081560134888 6.372256278991699 68 68 68
2.1345975399017334 -1.6468887329101562 6.462894916534424 69 69 69
2.0516185760498047 1.4507933855056763 6.215315341949463 106 106 106
1.9951251745224 1.9186289310455322 6.033522129058838 24 24 24
1.9872498512268066 1.5158839225769043 5.97722864151001 124 124 124
2.006641387939453 1.0524808168411255 6.063196182250977 29 29 29
1.9499932527542114 1.2236919403076172 5.856112957000732 145 145 145
1.8009538650512695 -0.8989323377609253 5.361121654510498 87 87 87
1.8240387439727783 -2.3668787479400635 5.464873313903809 74 74 74
2.5304956436157227 -0.8920052647590637 7.5971856117248535 53 53 53
1.9832886457443237 1.2837151288986206 5.934760570526123 129 129 129
2.013993740081787 2.1456451416015625 6.019037246704102 52 52 52
2.139247417449951 -1.5533009767532349 6.360971927642822 32 32 32
2.2999749183654785 -0.5069052577018738 6.897895812988281 110 110 110
2.2999749183654785 -0.5069052577018738 6.897895812988281 110 110 110
2.423881769180298 -0.6261477470397949 7.2607011795043945 126 126 126
1.9817320108413696 1.272944450378418 5.897222518920898 123 123 123
1.6863657236099243 2.4843990802764893 5.011159896850586 62 62 62
2.067406177520752 0.3112572729587555 6.134937286376953 96 96 96
1.6666913032531738 -0.12838470935821533 4.891697406768799 150 150 150
2.362183094024658 -1.0057106018066406 6.972046375274658 46 46 46
1.9894258975982666 1.142556071281433 5.8729705810546875 52 52 52
2.216567039489746 -0.3637000620365143 6.543692588806152 142 142 142
2.199658155441284 -1.3818756341934204 6.467220783233643 75 75 75
2.217632532119751 -1.4615707397460938 6.517207622528076 79 79 79
2.1265146732330322 -1.684922695159912 6.1836748123168945 62 62 62
2.012934684753418 -2.929429292678833 5.861695289611816 43 43 43
2.0382697582244873 2.393552303314209 5.976959705352783 59 59 59
2.1662187576293945 -1.5027408599853516 6.336538314819336 36 36 36
2.0263402462005615 1.5598024129867554 5.934791088104248 88 88 88
2.4244706630706787 -1.0580083131790161 7.096280574798584 88 88 88
2.0188910961151123 1.2446354627609253 5.903940677642822 126 126 126
2.2318692207336426 -0.6623397469520569 6.529637813568115 57 57 57
2.0458521842956543 2.1345837116241455 5.93959379196167 61 61 61
2.0458521842956543 2.1345837116241455 5.93959379196167 61 61 61
2.0997214317321777 2.4071826934814453 6.124629497528076 100 100 100
2.1531825065612793 0.2678273320198059 6.294252395629883 92 92 92
2.1580374240875244 -0.07447328418493271 6.267148971557617 234 234 234
2.4765305519104004 -0.2204776406288147 7.172995090484619 236 236 236
1.8915233612060547 0.0018876666435971856 5.473077774047852 246 246 246
2.3073697090148926 -0.8242824673652649 6.70491361618042 46 46 46
2.027667999267578 1.4806684255599976 5.900822162628174 128 128 128
2.0292298793792725 0.8577050566673279 5.915734767913818 60 60 60
2.061668872833252 0.4464976489543915 5.983801364898682 114 114 114
1.9796017408370972 0.8679388165473938 5.7410101890563965 44 44 44
1.9796017408370972 0.8679388165473938 5.7410101890563965 44 44 44
2.120802164077759 1.8412864208221436 6.140321731567383 109 109 109
2.0729153156280518 1.8154362440109253 5.944528579711914 103 103 103
2.0360467433929443 1.1910456418991089 5.830837249755859 24 24 24
1.9819180965423584 0.6419878602027893 5.681094169616699 89 89 89
2.089127779006958 2.38396954536438 5.975436210632324 58 58 58
1.8849438428878784 -2.6751461029052734 5.338039875030518 55 55 55
2.0508689880371094 1.2354356050491333 5.838551998138428 36 36 36
1.9422509670257568 0.8232572078704834 5.531718730926514 69 69 69
2.0060858726501465 0.613680899143219 5.70167350769043 68 68 68
2.1820428371429443 -1.0304206609725952 6.147121429443359 75 75 75
1.9751921892166138 0.6560970544815063 5.615573883056641 80 80 80
2.0943334102630615 1.9414808750152588 5.947875499725342 58 58 58
2.052732229232788 0.4667387306690216 5.82240629196167 62 62 62
2.3052303791046143 -0.4323732554912567 6.534329891204834 125 125 125
2.0134189128875732 0.277958482503891 5.704585075378418 82 82 82
2.080181837081909 1.4732983112335205 5.895637512207031 135 135 135
2.1398332118988037 2.2747411727905273 6.052852630615234 65 65 65
2.10962176322937 0.4159679114818573 5.950198650360107 99 99 99
2.0791807174682617 1.541258692741394 5.898749828338623 20 20 20
2.0995335578918457 2.377992630004883 5.908037185668945 55 55 55
2.0730457305908203 0.37731030583381653 5.833934783935547 73 73 73
2.098768472671509 1.687151551246643 5.901018142700195 115 115 115
2.078768253326416 1.0963054895401 5.832414150238037 46 46 46
2.1328625679016113 2.0153326988220215 5.985999584197998 69 69 69
2.1525278091430664 2.2316126823425293 6.019445419311523 65 65 65
2.0690462589263916 0.9812554717063904 5.780972003936768 45 45 45
2.0901942253112793 1.2483874559402466 5.830692768096924 132 132 132
2.0630970001220703 0.5718849897384644 5.734748363494873 82 82 82
2.0963857173919678 1.2289769649505615 5.81551456451416 45 45 45
1.9972155094146729 1.0566271543502808 5.5213117599487305 44 44 44
2.0570218563079834 0.7695218324661255 5.693836688995361 54 54 54
2.076850652694702 0.9197947978973389 5.752167701721191 37 37 37
2.1217000484466553 1.9618935585021973 5.862512588500977 56 56 56
2.1126065254211426 1.2249435186386108 5.8207478523254395 166 166 166
2.1551811695098877 1.8404362201690674 5.917482376098633 50 50 50
2.1551811695098877 1.8404362201690674 5.917482376098633 50 50 50
2.1196351051330566 0.36587509512901306 5.78393030166626 63 63 63
2.127654552459717 1.2016328573226929 5.804567813873291 26 26 26
2.1822452545166016 2.2103381156921387 5.957747459411621 73 73 73
2.274542808532715 2.3345184326171875 6.11873197555542 50 50 50
2.274542808532715 2.3345184326171875 6.11873197555542 50 50 50
2.1663320064544678 1.5534090995788574 5.826892852783203 134 134 134
2.1769092082977295 1.655765414237976 5.851164817810059 115 115 115
2.241882801055908 2.3540260791778564 5.999068737030029 41 41 41
2.118419885635376 0.7857049107551575 5.647101879119873 48 48 48
2.15981388092041 1.521467924118042 5.803224563598633 92 92 92
2.1379945278167725 -2.101529121398926 5.630443096160889 89 89 89
2.1751275062561035 0.467233806848526 5.756692886352539 121 121 121
2.1751275062561035 0.467233806848526 5.756692886352539 121 121 121
2.1692371368408203 1.2422540187835693 5.740902900695801 139 139 139
2.1692769527435303 1.1888436079025269 5.72902774810791 97 97 97
2.6156389713287354 -0.9783382415771484 6.895371437072754 125 125 125
2.213251829147339 2.404404401779175 5.8284149169921875 59 59 59
2.213109016418457 1.8223017454147339 5.824530124664307 114 114 114
1.9809234142303467 2.4926912784576416 5.192774295806885 86 86 86
2.1659960746765137 0.4257740080356598 5.664161682128906 66 66 66
2.2035112380981445 0.46924132108688354 5.7486891746521 119 119 119
2.2035112380981445 0.46924132108688354 5.7486891746521 119 119 119
2.1654775142669678 2.457057476043701 5.660919666290283 68 68 68
2.247770309448242 1.9580391645431519 5.865264892578125 60 60 60
2.188830614089966 1.0415008068084717 5.7158942222595215 75 75 75
2.1219160556793213 0.7040023803710938 5.545094013214111 74 74 74
2.2237112522125244 1.4767374992370605 5.789220809936523 129 129 129
1.9012500047683716 2.4772586822509766 4.954072952270508 62 62 62
2.249734401702881 1.7832773923873901 5.832870006561279 104 104 104
2.247255563735962 1.9915505647659302 5.802145481109619 48 48 48
2.199782371520996 1.2547695636749268 5.7076287269592285 102 102 102
2.1996939182281494 0.9050788879394531 5.66588020324707 41 41 41
2.194446325302124 0.8397057056427002 5.650635719299316 42 42 42
2.2029218673706055 1.074594259262085 5.660472869873047 26 26 26
2.3192219734191895 2.361358642578125 5.939028739929199 44 44 44
2.1212892532348633 2.523791790008545 5.408735275268555 100 100 100
2.207076072692871 1.1606959104537964 5.606332302093506 25 25 25
2.390510320663452 2.4572978019714355 6.073599338531494 80 80 80
2.216050863265991 0.8080946803092957 5.6034979820251465 46 46 46
2.232743978500366 1.1300183534622192 5.614368915557861 128 128 128
2.232743978500366 1.1300183534622192 5.614368915557861 128 128 128
2.2988853454589844 1.8363606929779053 5.774220943450928 60 60 60
2.242680549621582 0.417655885219574 5.627241134643555 95 95 95
2.192390203475952 0.8786819577217102 5.499077320098877 52 52 52
2.402081251144409 1.2645589113235474 6.004888534545898 52 52 52
2.2911007404327393 1.5066425800323486 5.717267990112305 117 117 117
2.2414615154266357 1.6005032062530518 5.5942606925964355 73 73 73
2.3553872108459473 1.802346110343933 5.823798179626465 104 104 104
2.3593177795410156 1.89052152633667 5.799769401550293 109 109 109
2.3593177795410156 1.89052152633667 5.799769401550293 109 109 109
2.315098285675049 1.37556791305542 5.667089939117432 117 117 117
2.315098285675049 1.37556791305542 5.667089939117432 117 117 117
2.349315881729126 1.658937931060791 5.747374534606934 48 48 48
2.380913496017456 2.4119114875793457 5.8197479248046875 57 57 57
2.3536248207092285 1.7870784997940063 5.752144813537598 50 50 50
2.1409523487091064 2.4564335346221924 5.222528457641602 56 56 56
2.441070795059204 1.3112967014312744 5.939635753631592 131 131 131
2.351012945175171 2.04235577583313 5.699729919433594 41 41 41
2.374967336654663 1.5930732488632202 5.67270040512085 88 88 88
2.3821449279785156 1.5693758726119995 5.639028549194336 49 49 49
2.33211350440979 1.8425800800323486 5.490820407867432 21 21 21
2.3479695320129395 -0.4308340549468994 6.932732582092285 243 243 243
-0.44358471035957336 0.4258768558502197 6.651098251342773 145 145 145
2.0198442935943604 -0.32282188534736633 6.471462726593018 156 156 156
1.6572511196136475 1.3756957054138184 6.205552577972412 83 83 83
2.1200153827667236 1.7950104475021362 6.1812896728515625 77 77 77
1.7598954439163208 -0.5443759560585022 5.278277397155762 136 136 136
0.8860601186752319 -1.7106215953826904 6.773229598999023 96 96 96
-0.6027851700782776 1.3108091354370117 6.170262336730957 141 141 141
2.4237754344940186 -0.6261155009269714 7.260369300842285 126 126 126
1.5190412998199463 0.2654913365840912 6.5699381828308105 55 55 55
-0.7547628283500671 -0.9523158073425293 5.878190994262695 39 39 39
1.3356890678405762 1.4084959030151367 6.539397716522217 80 80 80
2.070875883102417 -0.7563496828079224 6.701589107513428 243 243 243
-0.3575178384780884 0.050867997109889984 6.81223201751709 128 128 128
2.0704996585845947 -0.7561936974525452 6.700323581695557 243 243 243
-0.14720556139945984 -2.0248124599456787 6.898131370544434 47 47 47
-0.3575894236564636 0.050903305411338806 6.812904357910156 128 128 128
-0.681300938129425 0.8056343197822571 6.059300422668457 155 155 155
1.8205623626708984 1.1926134824752808 6.005552768707275 90 90 90
-0.33093640208244324 0.23006075620651245 6.780733585357666 165 165 165
1.254871129989624 -0.8808355927467346 7.155815124511719 81 81 81
2.080648183822632 0.3991113305091858 5.982454776763916 79 79 79
1.230007529258728 1.3853089809417725 6.459753036499023 36 36 36
1.6812784671783447 -0.291138619184494 7.72257661819458 139 139 139
1.1263986825942993 -0.7738507390022278 6.7076640129089355 244 244 244
-0.39551621675491333 0.237541064620018 6.789772987365723 194 194 194
2.254326820373535 -1.0050859451293945 7.621789455413818 26 26 26
2.063528299331665 -0.8367112874984741 7.271359443664551 151 151 151
-1.934326410293579 -0.6355488300323486 5.094327926635742 69 69 69
-0.5940959453582764 -0.07740669697523117 6.312173843383789 19 19 19
1.1545649766921997 2.4741828441619873 5.318134784698486 115 115 115
-0.8635506629943848 -0.39544427394866943 5.8180036544799805 14 14 14
-0.5969141125679016 0.08894465118646622 6.3798627853393555 35 35 35
2.3788583278656006 -0.588206946849823 7.233079433441162 240 240 240
1.8993828296661377 -0.1532655954360962 6.644218444824219 149 149 149
-0.5966463088989258 -0.0787411481142044 6.337765216827393 19 19 19
1.6795344352722168 2.4752440452575684 5.414684772491455 173 173 173
-0.6562192440032959 0.4648199677467346 6.107220649719238 62 62 62
2.3254573345184326 -0.4266546368598938 6.86442756652832 243 243 243
2.095083475112915 1.209587574005127 5.776610851287842 190 190 190
-0.703235387802124 0.6578673124313354 6.065271854400635 51 51 51
1.2469878196716309 -1.8648737668991089 6.586549758911133 21 21 21
-1.0145033597946167 0.3312566876411438 5.902703762054443 58 58 58
-1.4395952224731445 -2.2837302684783936 4.7280497550964355 55 55 55
1.1863787174224854 -2.0423436164855957 6.474229335784912 98 98 98
-0.6405630111694336 0.6345164775848389 6.112212181091309 65 65 65
1.1918514966964722 1.0309964418411255 6.42335844039917 113 113 113
-0.804750382900238 0.8552372455596924 5.834636211395264 143 143 143
2.2574849128723145 0.3170076608657837 5.771266937255859 85 85 85
1.5737683773040771 2.492997169494629 5.285207748413086 126 126 126
2.2633159160614014 1.3747501373291016 5.776396751403809 38 38 38
-0.6715534925460815 1.3491369485855103 6.087172031402588 13 13 13
1.1863943338394165 -2.0423810482025146 6.47434139251709 98 98 98
-0.422324001789093 0.5794936418533325 6.5104899406433105 11 11 11
-0.422322541475296 0.5794925689697266 6.510501861572266 11 11 11
1.6573399305343628 1.3757392168045044 6.205770492553711 83 83 83
-0.8243818283081055 1.2622920274734497 6.150585174560547 24 24 24
2.0805559158325195 0.3990829586982727 5.982198238372803 79 79 79
-0.6575449109077454 1.5354335308074951 6.173893451690674 125 125 125
1.6571773290634155 1.3756412267684937 6.205323696136475 83 83 83
-0.46219244599342346 0.06891804188489914 6.467822074890137 39 39 39
-0.8173448443412781 0.6896129846572876 5.928959846496582 93 93 93
2.074653148651123 1.3750792741775513 5.886261940002441 4 4 4
-0.5313854813575745 0.9813916683197021 6.462007522583008 4 4 4
1.4896525144577026 -0.876859724521637 7.028715133666992 192 192 192
2.2882754802703857 1.5413259267807007 5.848886013031006 156 156 156
-0.6861678957939148 0.29631271958351135 6.182512283325195 70 70 70
2.0835564136505127 -0.10805226117372513 6.867206573486328 161 161 161
1.6981903314590454 -0.8326737284660339 6.776195526123047 162 162 162
-0.873837411403656 -1.2787806987762451 5.619902610778809 65 65 65
-0.21859990060329437 -2.010313034057617 6.846315860748291 121 121 121
-0.8460546135902405 -0.220675528049469 5.824633598327637 28 28 28
0.9690036177635193 0.3417845368385315 7.1768598556518555 87 87 87
-0.6221068501472473 1.5179593563079834 6.167791366577148 19 19 19
-1.962647557258606 -0.7141501307487488 5.277074337005615 163 163 163
2.2069780826568604 0.028368528932332993 6.534024715423584 157 157 157
0.27719953656196594 0.32346656918525696 7.390956401824951 67 67 67
0.9404844641685486 2.517960548400879 5.466154098510742 89 89 89
-0.3236318826675415 -1.990910530090332 6.857982635498047 50 50 50
1.1180481910705566 1.168775200843811 6.327241897583008 31 31 31
1.8812248706817627 0.9918292164802551 5.695918083190918 42 42 42
1.0477054119110107 0.44935569167137146 6.722301006317139 27 27 27
-1.040649175643921 -0.4043170213699341 5.825258731842041 113 113 113
-0.16188226640224457 -1.0512850284576416 7.046140193939209 25 25 25
2.288255214691162 1.5413089990615845 5.848834037780762 156 156 156
2.263503074645996 1.37489652633667 5.776886463165283 38 38 38
1.8812329769134521 0.9918337464332581 5.6959357261657715 42 42 42
-1.0131556987762451 0.3313569724559784 5.898213863372803 58 58 58
1.1896557807922363 1.029107689857483 6.410981178283691 113 113 113
-1.0406867265701294 -0.40432208776474 5.8254475593566895 113 113 113
-0.6384493708610535 1.1790510416030884 6.226091384887695 29 29 29
-0.5968270301818848 0.08893744647502899 6.379378318786621 35 35 35
2.107440948486328 1.2382080554962158 5.8476481437683105 36 36 36
1.2876452207565308 -0.8174964785575867 7.07420015335083 208 208 208
1.606339454650879 -1.0920101404190063 6.58206033706665 157 157 157
-0.6923787593841553 2.6584653854370117 4.975642681121826 74 74 74
1.191828727722168 1.0309656858444214 6.423199653625488 103 103 103
0.3139336109161377 2.581176519393921 5.1079888343811035 145 145 145
-0.6028419137001038 1.3003543615341187 6.011836528778076 29 29 29
1.9876006841659546 1.3668100833892822 5.940380573272705 33 33 33
1.9875692129135132 1.366820216178894 5.940451145172119 33 33 33
-0.8862126469612122 -1.1231094598770142 5.749305248260498 21 21 21
1.3747612237930298 1.173261046409607 6.161189556121826 120 120 120
1.7934080362319946 -2.0063767433166504 5.986156940460205 53 53 53
-0.5202742218971252 2.6143269538879395 5.272074222564697 171 171 171
-0.7260639071464539 -0.7947583794593811 6.023735523223877 42 42 42
-0.6101487278938293 2.6466503143310547 5.401021957397461 114 114 114
-0.42062410712242126 -2.0007519721984863 6.454911231994629 101 101 101
2.357501983642578 -0.9405491948127747 6.872683525085449 165 165 165
-0.7905535697937012 1.2091755867004395 5.895231246948242 66 66 66
1.2280229330062866 1.5915226936340332 6.566995620727539 52 52 52
1.3356115818023682 2.49904465675354 5.48023796081543 124 124 124
-0.3066839575767517 -1.8187625408172607 7.115997791290283 58 58 58
0.6689525842666626 2.538121461868286 5.169795989990234 103 103 103
1.188040852546692 -1.9054780006408691 6.598202705383301 69 69 69
-1.3854728937149048 -1.7755998373031616 4.692336082458496 54 54 54
1.1182845830917358 2.476482629776001 5.497778415679932 180 180 180
1.5873712301254272 0.5262161493301392 6.26437520980835 132 132 132
-0.8465702533721924 -0.22074632346630096 5.826720237731934 28 28 28
1.287048101425171 0.31383800506591797 6.953723430633545 99 99 99
2.0726356506347656 1.5695682764053345 5.961528778076172 179 179 179
-0.5940841436386108 -0.07740656286478043 6.3120436668396 19 19 19
1.4480297565460205 -1.308043122291565 6.709741115570068 127 127 127
-0.30382394790649414 -0.8921967148780823 7.095897197723389 61 61 61
-0.6220125555992126 -0.9955929517745972 6.304931163787842 69 69 69
1.7640941143035889 -1.6713635921478271 6.707966327667236 92 92 92
-0.9306445121765137 -1.9120227098464966 5.885434627532959 70 70 70
1.639356255531311 2.458404302597046 5.474655628204346 99 99 99
-0.6953153014183044 0.8442821502685547 6.219377517700195 74 74 74
1.1760358810424805 2.477027177810669 5.43652868270874 62 62 62
0.5426825284957886 2.5672340393066406 5.032099723815918 157 157 157
-0.7609613537788391 -0.6089046001434326 5.9843244552612305 60 60 60
-0.5929298400878906 -0.4291495084762573 6.170302867889404 31 31 31
2.1005659103393555 0.14296597242355347 6.613281726837158 222 222 222
1.0259114503860474 1.7680069208145142 6.701401233673096 21 21 21
-0.3281201124191284 -2.198335886001587 6.911496639251709 166 166 166
-0.9061421751976013 -1.8545329570770264 5.719475746154785 81 81 81
-0.21859948337078094 -2.0103185176849365 6.846343040466309 121 121 121
0.5238788723945618 0.8634318113327026 7.0120439529418945 7 7 7
0.991689920425415 0.46180984377861023 6.604785442352295 133 133 133
0.5872727632522583 0.837318480014801 6.869152545928955 27 27 27
-0.4907509386539459 0.6172394752502441 6.698657989501953 60 60 60
-0.6201062798500061 1.9042268991470337 6.2759928703308105 10 10 10
-0.26537448167800903 0.8696162104606628 6.522820949554443 12 12 12
-1.025837779045105 -0.5786774754524231 5.831472396850586 80 80 80
-1.961036205291748 -0.7083767056465149 5.2642388343811035 166 166 166
1.3356655836105347 1.408455491065979 6.539231777191162 80 80 80
1.3834021091461182 1.456842303276062 6.749875545501709 7 7 7
1.1229901313781738 1.1747844219207764 6.343708038330078 24 24 24
-0.5379653573036194 0.43714621663093567 6.277916431427002 70 70 70
-0.6243990659713745 1.3503482341766357 6.235909461975098 88 88 88
-0.9841001033782959 1.215856671333313 6.015993595123291 59 59 59
-0.8590136170387268 -0.7663387060165405 5.741916179656982 16 16 16
-0.009251965209841728 2.5963528156280518 5.641866207122803 144 144 144
-1.0290806293487549 0.14568111300468445 5.898407936096191 48 48 48
1.7854942083358765 2.4756031036376953 5.125894546508789 138 138 138
1.7755839824676514 -0.44093871116638184 7.074703216552734 69 69 69
-0.7032071352005005 0.657838761806488 6.06508731842041 51 51 51
-0.3061757981777191 0.21999239921569824 6.894852161407471 7 7 7
-1.2985209226608276 -2.206611394882202 4.6975531578063965 26 26 26
1.6569563150405884 1.3754761219024658 6.204652309417725 83 83 83
1.2597742080688477 -0.800321102142334 7.011388301849365 24 24 24
-0.6715525984764099 1.349114179611206 6.087085247039795 13 13 13
-0.33095020055770874 0.23006395995616913 6.78090763092041 165 165 165
2.0705740451812744 -0.7562318444252014 6.700618743896484 243 243 243
-1.0282961130142212 -0.03731929883360863 5.877547740936279 73 73 73
-0.6538344025611877 1.3683212995529175 6.153926849365234 123 123 123
2.2882556915283203 1.541308879852295 5.8488335609436035 156 156 156
1.0769699811935425 2.53678560256958 5.292067527770996 121 121 121
1.6995480060577393 -0.079903744161129 7.40405797958374 208 208 208
2.110119104385376 -0.34892261028289795 6.456772327423096 175 175 175
2.0649139881134033 1.143046259880066 5.836146354675293 109 109 109
2.014922857284546 2.449225425720215 5.46435546875 92 92 92
-1.029076337814331 0.14568141102790833 5.89840030670166 48 48 48
-0.6715850830078125 1.349159598350525 6.087296009063721 13 13 13
-1.1611313819885254 -2.2822329998016357 5.147348880767822 66 66 66
1.8956046104431152 -0.7654310464859009 6.683852672576904 119 119 119
1.2422415018081665 1.2795199155807495 6.497162342071533 148 148 148
1.82059907913208 1.1926456689834595 6.005688190460205 90 90 90
1.6735209226608276 -0.0862235501408577 7.297760963439941 218 218 218
-0.7069261074066162 0.8334094882011414 6.087613105773926 108 108 108
1.2469764947891235 -1.864858865737915 6.586492538452148 21 21 21
2.088703155517578 -0.304321825504303 6.0442657470703125 253 253 253
-0.4435774087905884 0.4258692264556885 6.650996208190918 145 145 145
-0.3309381604194641 0.23006173968315125 6.7807488441467285 165 165 165
2.072852849960327 -0.757146418094635 6.708270072937012 243 243 243
-0.36006855964660645 -0.33713603019714355 6.700152397155762 10 10 10
1.0477206707000732 0.44936230778694153 6.722413063049316 27 27 27
-0.5458992719650269 0.42253273725509644 6.384521007537842 161 161 161
2.0436594486236572 -0.32621756196022034 6.547289848327637 156 156 156
-0.16189827024936676 -1.0512951612472534 7.046159744262695 25 25 25
0.9548192620277405 -0.48714154958724976 6.960325717926025 65 65 65
1.8265570402145386 -0.6259642243385315 5.714925289154053 137 137 137
2.2377798557281494 -0.33555907011032104 6.654668807983398 225 225 225
1.592171311378479 0.5284234881401062 6.286862373352051 132 132 132
-1.0406609773635864 -0.40431827306747437 5.825321197509766 113 113 113
-1.0770379304885864 -1.6583772897720337 5.789451599121094 4 4 4
2.021087884902954 -0.3225611448287964 6.474947452545166 156 156 156
-0.36741748452186584 -0.4561018645763397 6.7197442054748535 59 59 59
-0.7859880924224854 -0.4277982711791992 6.2269134521484375 131 131 131
2.0276780128479004 1.3669778108596802 5.930748462677002 48 48 48
-0.34873396158218384 -0.31089305877685547 6.747157096862793 38 38 38
-0.3487338721752167 -0.3108934760093689 6.747155666351318 38 38 38
0.8724519610404968 2.507460594177246 5.347775459289551 127 127 127
-0.7732208371162415 1.3782799243927002 5.891572952270508 72 72 72
2.0811824798583984 1.3805716037750244 5.910343170166016 5 5 5
1.2037907838821411 -1.8805720806121826 6.493923664093018 22 22 22
-0.32364749908447266 -1.9906280040740967 6.857083320617676 111 111 111
-0.4223636984825134 0.5795686841011047 6.511204719543457 11 11 11
2.25938081741333 1.3146151304244995 6.25325345993042 35 35 35
2.2889723777770996 -0.5412295460700989 7.121785640716553 226 226 226
2.09480881690979 1.2120662927627563 5.7682294845581055 166 166 166
-0.5904614925384521 -0.25646910071372986 6.221566677093506 46 46 46
-0.6219934225082397 -0.9955771565437317 6.30482816696167 69 69 69
2.2527928352355957 1.2266554832458496 5.8010945320129395 73 73 73
2.019951581954956 0.33937984704971313 5.818870544433594 181 181 181
1.8521130084991455 1.928086519241333 6.113960266113281 97 97 97
1.22501802444458 0.4052462577819824 6.818368911743164 86 86 86
1.7799476385116577 0.28453612327575684 7.255407810211182 200 200 200
-1.0132008790969849 0.3313721716403961 5.898405075073242 58 58 58
-0.2186049222946167 -2.010362148284912 6.846485614776611 121 121 121
-0.9351696372032166 -1.5057579278945923 5.785752773284912 8 8 8
-0.32369595766067505 -1.991080403327942 6.858519554138184 111 111 111
2.2632861137390137 1.3747309446334839 5.77632474899292 38 38 38
-0.5037720203399658 0.5821849703788757 6.081793785095215 11 11 11
1.7400044202804565 0.004442138597369194 7.41398286819458 163 163 163
1.7078166007995605 -0.5998518466949463 7.526896953582764 117 117 117
1.1545603275299072 2.474168539047241 5.318104267120361 115 115 115
-1.38547682762146 -1.7756061553955078 4.692346572875977 54 54 54
-0.9517463445663452 -2.103194236755371 5.593427658081055 41 41 41
-0.2185983806848526 -2.010295867919922 6.846254348754883 121 121 121
1.5095938444137573 -0.6044179797172546 7.259148597717285 40 40 40
-0.8848941326141357 -1.6319042444229126 5.582919120788574 80 80 80
2.2574422359466553 0.31699901819229126 5.771159648895264 85 85 85
-1.1673469543457031 -1.6809449195861816 5.717623233795166 83 83 83
-0.6746293306350708 0.6529279947280884 6.191840171813965 69 69 69
1.1182777881622314 2.4764516353607178 5.497721195220947 180 180 180
-0.846569299697876 -0.22074607014656067 5.826716423034668 28 28 28
1.688651442527771 -0.29009556770324707 7.757552623748779 171 171 171
-0.3102544844150543 0.7518728971481323 6.838971138000488 124 124 124
2.18172025680542 -0.24501094222068787 6.931483268737793 253 253 253
-0.14718887209892273 -2.024803876876831 6.898022174835205 47 47 47
-0.45650947093963623 -0.10938165336847305 6.475363731384277 37 37 37
-0.6950403451919556 0.2914034426212311 5.845812797546387 61 61 61
2.476991891860962 -0.220506951212883 7.174346446990967 236 236 236
-0.29586538672447205 0.7122321128845215 6.499585151672363 70 70 70
1.7600821256637573 -0.5444393157958984 5.278863906860352 136 136 136
-0.006991115864366293 2.611833333969116 5.200234413146973 79 79 79
-0.6575413942337036 1.5354294776916504 6.173877716064453 125 125 125
-0.7077116370201111 0.8341891765594482 6.093944072723389 76 76 76
-0.4907847046852112 0.8162328600883484 6.842188835144043 4 4 4
-1.0702016353607178 -1.83754563331604 5.420416355133057 66 66 66
1.7933542728424072 -2.006316900253296 5.985980033874512 53 53 53
-0.5719094276428223 0.2707047164440155 6.339798450469971 109 109 109
-0.8416468501091003 2.6851320266723633 5.02574348449707 181 181 181
1.9165637493133545 -0.149809792637825 6.565190315246582 171 171 171
-0.5485905408859253 0.29809892177581787 6.337608814239502 198 198 198
2.1712913513183594 -0.7611150145530701 7.580619812011719 220 220 220
-0.8133320212364197 -1.3192481994628906 5.924983978271484 26 26 26
-0.8117223381996155 -1.8843504190444946 5.878398418426514 33 33 33
1.1085846424102783 2.5165910720825195 5.054470539093018 154 154 154
1.1863714456558228 -2.0423295497894287 6.47420072555542 98 98 98
-0.812457263469696 -1.857327938079834 5.883355140686035 36 36 36
1.1863950490951538 -2.0423789024353027 6.474319934844971 98 98 98
-0.36765044927597046 -2.0169267654418945 6.530811309814453 2 2 2
-0.4206465780735016 -2.0009005069732666 6.455241680145264 101 101 101
-1.975394606590271 -0.6301273107528687 5.352908611297607 167 167 167
1.7492756843566895 1.7017415761947632 6.173321723937988 20 20 20
1.844818115234375 0.02755194529891014 7.410437107086182 209 209 209
1.4910542964935303 -0.8787640929222107 7.034947872161865 105 105 105
-0.6218670606613159 0.9592534899711609 6.122092247009277 140 140 140
1.1363590955734253 1.1515142917633057 6.459446430206299 149 149 149
-0.7981494069099426 1.0376545190811157 5.857785701751709 138 138 138
1.3851009607315063 -0.8413533568382263 6.820876121520996 192 192 192
-1.9639208316802979 -0.6829980611801147 5.271712779998779 127 127 127
1.9911669492721558 -0.9008351564407349 6.912091255187988 71 71 71
1.2772787809371948 2.5144214630126953 5.157398223876953 156 156 156
-1.9245740175247192 -0.6344591379165649 5.076798439025879 85 85 85
1.6571707725524902 1.3756314516067505 6.205283164978027 83 83 83
1.2207024097442627 -0.7687174081802368 6.65863037109375 198 198 198
-0.7737811207771301 1.539782166481018 5.955677509307861 105 105 105
-0.2186036854982376 -2.0103561878204346 6.846469402313232 121 121 121
-0.4563853442668915 -0.10937464982271194 6.474534511566162 37 37 37
0.5263972878456116 2.4705235958099365 5.406853199005127 87 87 87
-0.5805355906486511 0.9996552467346191 6.4336347579956055 99 99 99
-0.9208077192306519 -1.6468113660812378 5.729542255401611 142 142 142
-0.7760822772979736 1.3816417455673218 5.90363073348999 72 72 72
2.0185537338256836 1.203634262084961 5.834041595458984 120 120 120
-0.7812911868095398 2.6176719665527344 5.423310279846191 154 154 154
-1.0283139944076538 -0.03731131553649902 5.877656936645508 73 73 73
1.8417710065841675 1.5357731580734253 6.030923366546631 60 60 60
-0.9897409081459045 0.859635591506958 5.953497886657715 57 57 57
-0.2983246147632599 0.9817721843719482 7.352226734161377 0 0 0
0.7702353596687317 0.8243602514266968 6.6657257080078125 58 58 58
-0.4130857288837433 0.7566165924072266 6.571122646331787 11 11 11
1.9939979314804077 -0.4767250120639801 7.01393461227417 165 165 165
-0.80214923620224 1.0119341611862183 5.927077293395996 112 112 112
-0.695084273815155 2.6340818405151367 5.351952075958252 168 168 168
1.2548784017562866 -0.8808445334434509 7.1558966636657715 81 81 81
-0.6819028258323669 0.29402464628219604 6.143228530883789 78 78 78
0.5421621799468994 2.573301315307617 5.480312824249268 68 68 68
1.2220919132232666 0.2905604839324951 6.506485462188721 139 139 139
-0.7598987817764282 1.735816240310669 5.926388740539551 140 140 140
1.3304957151412964 2.5891549587249756 5.229515552520752 101 101 101
0.322920024394989 2.5431549549102783 5.524665355682373 164 164 164
1.557061791419983 0.26835036277770996 7.492594242095947 127 127 127
-0.8732079863548279 -1.8016082048416138 5.5329179763793945 97 97 97
1.6246943473815918 1.389927864074707 6.201326370239258 150 150 150
-0.3968328535556793 -1.981114387512207 6.263103485107422 65 65 65
-0.5045892000198364 -1.9222934246063232 6.482137203216553 32 32 32
-0.32810014486312866 -2.1981241703033447 6.910917282104492 166 166 166
0.25478461384773254 2.5580408573150635 5.522696018218994 81 81 81
1.6862441301345825 2.4366724491119385 5.555575847625732 52 52 52
2.0276424884796143 1.3669533729553223 5.930650234222412 48 48 48
-1.0145034790039062 0.3312702476978302 5.902722358703613 58 58 58
-0.34873485565185547 -0.31089162826538086 6.747165203094482 38 38 38
-1.4790167808532715 -2.2027029991149902 4.425688743591309 99 99 99
-0.7032163739204407 0.6578498482704163 6.06510591506958 51 51 51
-0.5904817581176758 -0.2564665377140045 6.221687316894531 46 46 46
-1.2985246181488037 -2.206615447998047 4.697560787200928 26 26 26
1.8988984823226929 -0.7945176362991333 7.29700231552124 168 168 168
-0.7760656476020813 1.3816226720809937 5.903561592102051 72 72 72
-0.7253645658493042 -0.7941239476203918 6.02040433883667 42 42 42
2.4769175052642822 -0.22050294280052185 7.174129486083984 236 236 236
-0.30771341919898987 0.21471205353736877 6.930046558380127 60 60 60
-0.6715471148490906 1.3491297960281372 6.087146759033203 13 13 13
-1.1991853713989258 -2.3548920154571533 5.313348770141602 75 75 75
-0.6715428829193115 1.3490883111953735 6.087015628814697 13 13 13
-0.6555299162864685 1.3625292778015137 6.163862228393555 181 181 181
1.6572675704956055 1.3757121562957764 6.205623626708984 83 83 83
2.2634177207946777 1.3748339414596558 5.776669979095459 38 38 38
2.2859880924224854 -0.8216107487678528 7.564635753631592 219 219 219
-0.5327917337417603 0.436224102973938 6.227362632751465 109 109 109
-0.21860052645206451 -2.010331630706787 6.846390724182129 121 121 121
-0.6856967806816101 -0.4347013533115387 6.158196926116943 52 52 52
2.0752294063568115 -0.47732824087142944 7.491092205047607 173 173 173
1.3757145404815674 1.4479873180389404 6.703657150268555 64 64 64
-1.0291532278060913 0.1456889808177948 5.898725509643555 48 48 48
-0.5314347147941589 0.981428861618042 6.4622626304626465 4 4 4
2.252770185470581 1.2266393899917603 5.801034450531006 73 73 73
2.2478976249694824 1.301995038986206 6.202298164367676 101 101 101
-0.6575193405151367 1.5353376865386963 6.173569202423096 125 125 125
-0.6220982670783997 1.5179177522659302 6.167619705200195 19 19 19
2.295762300491333 1.2111539840698242 5.894741535186768 86 86 86
-0.7905762195587158 1.2092010974884033 5.89534854888916 66 66 66
-1.0258536338806152 -0.5786926746368408 5.831571102142334 80 80 80
2.1835758686065674 -0.1941741555929184 6.857048988342285 162 162 162
1.9937118291854858 -0.4766577482223511 7.012870788574219 165 165 165
2.071202278137207 -0.7100282907485962 7.202742099761963 146 146 146
-0.9719663262367249 -2.1587040424346924 5.669378757476807 48 48 48
1.242111086845398 1.279369592666626 6.496344566345215 148 148 148
-0.9517422318458557 -2.10318922996521 5.593413829803467 41 41 41
2.065138339996338 1.1431759595870972 5.836790084838867 109 109 109
2.0988550186157227 -0.17076000571250916 7.029432773590088 139 139 139
1.418604850769043 1.2029904127120972 6.24245548248291 176 176 176
2.0538599491119385 -0.29962101578712463 5.94098424911499 253 253 253
-0.6384456157684326 1.179041862487793 6.22606086730957 29 29 29
-0.7785833477973938 1.5715053081512451 5.979001998901367 69 69 69
-1.0702015161514282 -1.8375461101531982 5.420416831970215 66 66 66
1.031813621520996 1.1627942323684692 6.328489303588867 20 20 20
1.8195090293884277 -2.0005199909210205 5.9810895919799805 127 127 127
2.075456142425537 0.10917959362268448 6.597152233123779 190 190 190
1.7933390140533447 -2.0062952041625977 5.985921382904053 53 53 53
-0.36528652906417847 -0.45373669266700745 6.7031755447387695 59 59 59
2.2135252952575684 -0.7059860229492188 7.651188850402832 205 205 205
-0.798137366771698 1.0376445055007935 5.857725620269775 138 138 138
1.4811826944351196 -2.020810842514038 6.230783939361572 86 86 86
-0.9059039950370789 -1.8543959856033325 5.719010353088379 81 81 81
2.288501739501953 1.541475534439087 5.8494553565979 156 156 156
-0.7146450281143188 0.08889864385128021 6.029317855834961 154 154 154
-0.32810357213020325 -2.1981101036071777 6.9108805656433105 166 166 166
-0.9062252044677734 -1.8547768592834473 5.720134735107422 81 81 81
-0.6060552000999451 2.669102668762207 5.296600341796875 185 185 185
2.191004514694214 -0.661323606967926 7.473771095275879 203 203 203
-0.5319145321846008 -2.006988286972046 6.434003829956055 15 15 15
1.5356196165084839 -0.6187463402748108 7.402833938598633 45 45 45
-0.8036103248596191 1.012331485748291 5.931994915008545 114 114 114
-0.9217294454574585 -1.461981177330017 5.756727695465088 106 106 106
2.4769608974456787 -0.22050780057907104 7.174253463745117 236 236 236
-0.5339478850364685 -1.9744877815246582 6.431807518005371 65 65 65
-0.6676024198532104 0.999869704246521 6.149562835693359 63 63 63
2.0515995025634766 -0.4050101935863495 7.649704456329346 207 207 207
1.3118664026260376 -0.5262576341629028 6.324403762817383 99 99 99
-0.6378116607666016 0.9839255213737488 6.124936103820801 34 34 34
-0.6285945177078247 0.9594784379005432 6.166871070861816 124 124 124
-0.5045599937438965 -1.9222431182861328 6.481977939605713 32 32 32
-0.5766769051551819 0.9924066662788391 6.3889946937561035 93 93 93
-0.5276514887809753 1.0251374244689941 6.836075782775879 96 96 96
-0.21859833598136902 -2.0103046894073486 6.846291542053223 121 121 121
-0.14722996950149536 -2.021923542022705 6.889736175537109 47 47 47
-1.1673345565795898 -1.6809254884719849 5.717563629150391 83 83 83
-0.8848846554756165 -1.6318916082382202 5.582882881164551 80 80 80
-0.45259004831314087 -1.9461971521377563 6.552426338195801 81 81 81
-0.21859896183013916 -2.010308265686035 6.846301078796387 121 121 121
-1.1673296689987183 -1.6809183359146118 5.7175469398498535 83 83 83
-0.3237014710903168 -1.9911282062530518 6.858672142028809 111 111 111
-0.050316307693719864 1.0800979137420654 7.377217769622803 23 23 23
-0.8047917485237122 0.8552691340446472 5.834812164306641 143 143 143
-0.9163370728492737 -1.6804931163787842 5.767881393432617 40 40 40
1.2546645402908325 -0.7956101894378662 6.863121032714844 143 143 143
-0.7077240943908691 0.8341999053955078 6.094038009643555 76 76 76
1.0280258655548096 -2.3036983013153076 6.318412780761719 108 108 108
-0.6746854782104492 0.793404757976532 6.035871982574463 131 131 131
1.7067023515701294 -0.5994410514831543 7.522007942199707 117 117 117
1.7784721851348877 -0.40888872742652893 6.1647748947143555 113 113 113
2.3827359676361084 -0.5379135608673096 7.622356414794922 145 145 145
1.8829145431518555 -0.28219154477119446 7.042321681976318 231 231 231
2.0373618602752686 -0.5771782398223877 7.591026306152344 203 203 203
-0.30994704365730286 0.7514432072639465 6.836024761199951 124 124 124
-0.6411899328231812 0.6348516345024109 6.115243434906006 65 65 65
-0.6823846101760864 0.6582817435264587 6.231029510498047 69 69 69
-0.22009581327438354 -0.13754618167877197 6.437845230102539 59 59 59
-0.6445686221122742 0.6379347443580627 6.136149883270264 65 65 65
-0.6447070837020874 0.6381415128707886 6.137028217315674 65 65 65
1.1944983005523682 -0.8291065096855164 6.9547200202941895 237 237 237
1.3392601013183594 -0.8345088958740234 6.74515962600708 44 44 44
-0.4223351776599884 0.579522430896759 6.510782718658447 11 11 11
-0.3606905937194824 0.5541297197341919 6.35160493850708 10 10 10
-0.8109520077705383 0.5005487203598022 5.823947429656982 1 1 1
-1.2901641130447388 -2.3475840091705322 5.142725944519043 92 92 92
-0.6201099157333374 1.9042413234710693 6.276026248931885 10 10 10
-1.1313008069992065 -1.5318576097488403 6.013083457946777 27 27 27
-1.3604097366333008 -2.30966854095459 4.919196128845215 53 53 53
-0.5486435890197754 0.2764832079410553 6.377404689788818 138 138 138
0.9806071519851685 0.318540096282959 6.9310173988342285 183 183 183
-0.6819090247154236 0.2940272390842438 6.143263339996338 78 78 78
1.9635000228881836 -0.07660774886608124 7.417662143707275 211 211 211
-0.6332960724830627 -0.4617810845375061 6.224327087402344 129 129 129
0.9916843771934509 0.4618082344532013 6.604750156402588 133 133 133
0.8926474452018738 0.31042277812957764 6.6308817863464355 124 124 124
2.255600690841675 -0.5063104629516602 7.223031044006348 162 162 162
-0.6818656921386719 0.2940172851085663 6.1430463790893555 78 78 78
1.4981555938720703 -1.6397833824157715 6.69442081451416 59 59 59
-1.982668399810791 -0.6587054133415222 5.317019939422607 150 150 150
2.075207233428955 -0.4773136079311371 7.491026878356934 173 173 173
1.5238134860992432 -0.834664523601532 6.857826232910156 130 130 130
1.1518528461456299 0.36780640482902527 6.273090839385986 152 152 152
-0.34672364592552185 0.40096011757850647 6.778958320617676 55 55 55
1.2250165939331055 0.4052462875843048 6.818325996398926 86 86 86
-0.33207690715789795 0.3934483230113983 6.788565635681152 35 35 35
-0.44934603571891785 -0.2676370143890381 6.277161121368408 43 43 43
1.4902628660202026 -0.8778743147850037 7.0311737060546875 105 105 105
-0.8635717034339905 -0.395450234413147 5.818090438842773 14 14 14
1.5809823274612427 -0.22476907074451447 6.148355007171631 147 147 147
-0.8249316811561584 -1.694965124130249 5.947376728057861 63 63 63
-0.8098780512809753 1.4370548725128174 6.1565327644348145 21 21 21
2.2321135997772217 1.166258692741394 5.676087856292725 36 36 36
-0.7255036234855652 -0.7942410707473755 6.021102428436279 42 42 42
-0.5559895038604736 0.29877641797065735 6.381102085113525 149 149 149
-0.8589392304420471 -0.7662779688835144 5.741579055786133 14 14 14
-0.5243606567382812 0.6185077428817749 6.346100330352783 132 132 132
1.2286829948425293 -0.7996215224266052 6.801259517669678 168 168 168
-0.2927577793598175 0.21487216651439667 6.943589687347412 4 4 4
1.0000531673431396 1.1892286539077759 6.628864765167236 18 18 18
-0.6529669165611267 1.3589791059494019 6.208528518676758 6 6 6
-0.5969396233558655 0.08894731849431992 6.380007266998291 35 35 35
-0.6950337290763855 0.2915169894695282 5.843496322631836 61 61 61
1.9418715238571167 -0.6411540508270264 7.297407627105713 93 93 93
-0.5413106679916382 0.41830912232398987 6.370774745941162 120 120 120
1.2887545824050903 0.3142990171909332 6.962767124176025 99 99 99
1.1704027652740479 0.47043129801750183 6.687881946563721 83 83 83
1.859567403793335 -0.7217540740966797 5.4007978439331055 97 97 97
-1.1180139780044556 -1.6921262741088867 5.758516788482666 104 104 104
1.9831979274749756 1.028607726097107 5.983713150024414 16 16 16
-0.26745060086250305 0.8718429803848267 6.552708148956299 9 9 9
1.285909652709961 1.2366602420806885 6.3308281898498535 150 150 150
-0.5556526184082031 0.9880216121673584 6.441093921661377 115 115 115
-1.015445590019226 2.6728804111480713 5.579613208770752 166 166 166
-0.9163528084754944 -1.6805694103240967 5.7681403160095215 40 40 40
-0.6384512782096863 1.179045557975769 6.226085186004639 29 29 29
-0.6384433507919312 1.1790409088134766 6.226052284240723 29 29 29
1.0607563257217407 1.1810719966888428 6.521417140960693 80 80 80
-0.4493630826473236 -0.2676538825035095 6.277264595031738 43 43 43
2.1200783252716064 -0.5990096926689148 7.25192928314209 151 151 151
